# .PCD v0.7 - Point Cloud Data file format
VERSION 0.7
FIELDS x y z
SIZE 4 4 4
TYPE F F F
COUNT 1 1 1
WIDTH 1442
HEIGHT 1
VIEWPOINT 0 0 0 1 0 0 0
POINTS 1442
DATA ascii
0.15534589 0.063965954 0.74100995
0.15750137 0.063781545 0.73887372
0.15964445 0.063598201 0.73674977
0.16177528 0.063415907 0.73463804
0.16389389 0.063234657 0.73253828
0.16600046 0.063054435 0.73045057
0.16809504 0.062875241 0.72837472
0.17017774 0.062697068 0.72631061
0.17224869 0.062519893 0.72425818
0.17430796 0.06234372 0.72221732
0.17635565 0.062168535 0.7201879
0.17839186 0.061994333 0.71816987
0.18041669 0.061821103 0.7161631
0.18243027 0.061648846 0.71416759
0.18443261 0.061477538 0.71218306
0.18642388 0.061307184 0.71020961
0.18840414 0.061137766 0.70824701
0.19037348 0.060969286 0.70629525
0.192332 0.06080173 0.70435423
0.19427979 0.060635094 0.70242381
0.19621696 0.060469374 0.70050406
0.19814351 0.060304549 0.69859463
0.20005964 0.060140625 0.69669569
0.20196535 0.059977587 0.69480699
0.20386076 0.059815433 0.69292849
0.20574592 0.059654143 0.69106007
0.20855476 0.059761304 0.69230145
0.14794195 0.066770256 0.74316311
0.15012509 0.066577211 0.74101448
0.15229565 0.066385284 0.73887825
0.15445371 0.066194445 0.73675424
0.15659942 0.066004708 0.73464245
0.15873285 0.06581606 0.73254269
0.16085412 0.065628476 0.73045492
0.16296336 0.065441974 0.72837913
0.16506061 0.065256521 0.72631496
0.16714601 0.065072112 0.72426248
0.16921967 0.064888746 0.72222161
0.17128167 0.064706407 0.72019213
0.17333212 0.064525098 0.7181741
0.17537111 0.064344794 0.71616733
0.17739874 0.064165503 0.71417177
0.17941509 0.063987195 0.71218723
0.18142028 0.063809894 0.71021378
0.18341437 0.063633554 0.70825112
0.18539748 0.063458197 0.70629936
0.18736967 0.063283801 0.70435828
0.18933107 0.063110359 0.70242786
0.19128177 0.062937871 0.70050806
0.19322181 0.062766321 0.69859868
0.19515131 0.062595703 0.69669968
0.19707032 0.062426001 0.69481087
0.19897898 0.062257227 0.69293237
0.20087732 0.062089354 0.69106394
0.20276546 0.06192239 0.68920559
0.20501447 0.061868269 0.68860322
0.20847107 0.062175583 0.69202369
0.21196221 0.062485971 0.69547832
0.21548836 0.062799469 0.69896758
0.21905011 0.063116133 0.70249212
0.14490423 0.069188505 0.74101901
0.14708984 0.068989046 0.73888272
0.14926289 0.068790726 0.73675871
0.1514235 0.068593547 0.73464692
0.15357172 0.068397492 0.7325471
0.15570772 0.068202555 0.73045933
0.15783159 0.068008736 0.72838348
0.1599434 0.067816004 0.72631931
0.16204327 0.06762436 0.72426677
0.16413134 0.067433804 0.7222259
0.16620764 0.067244314 0.72019643
0.16827232 0.067055888 0.71817833
0.17032544 0.066868506 0.7161715
0.17236717 0.06668219 0.714176
0.1743975 0.066496894 0.7121914
0.17641661 0.066312626 0.71021789
0.17842455 0.066129379 0.70825529
0.18042141 0.065947138 0.70630348
0.1824073 0.065765902 0.70436239
0.1843823 0.065585651 0.70243192
0.18634655 0.065406404 0.70051211
0.18830003 0.065228112 0.69860262
0.19024292 0.065050803 0.69670361
0.19217525 0.064874448 0.6948148
0.19409713 0.064699039 0.69293618
0.19600867 0.064524591 0.69106781
0.19790991 0.064351074 0.6892094
0.19980095 0.064178489 0.687361
0.20168188 0.064006828 0.68552244
0.20493264 0.06426882 0.68832844
0.20838749 0.064587936 0.69174623
0.21187679 0.064910233 0.69519806
0.21540111 0.065235764 0.69868457
0.21896093 0.065564573 0.70220613
0.22255683 0.06589672 0.70576346
0.22618935 0.066232242 0.70935696
0.22985904 0.066571198 0.71298724
0.23356651 0.066913649 0.71665496
0.14407201 0.071387038 0.73676318
0.14624751 0.071182415 0.73465133
0.14841054 0.070978954 0.73255152
0.15056127 0.070776664 0.73046374
0.15269975 0.07057552 0.72838777
0.15482615 0.070375524 0.72632366
0.15694049 0.070176646 0.72427112
0.15904294 0.069978893 0.7222302
0.16113354 0.069782242 0.72020066
0.16321246 0.069586709 0.71818256
0.16527975 0.069392256 0.71617573
0.16733553 0.069198906 0.71418017
0.16937986 0.069006614 0.71219558
0.17141289 0.068815395 0.71022207
0.17343466 0.068625227 0.7082594
0.17544529 0.068436109 0.70630759
0.17744486 0.068248026 0.70436645
0.17943349 0.068060979 0.70243603
0.18141122 0.067874946 0.70051605
0.18337817 0.067689933 0.69860655
0.18533446 0.067505926 0.69670749
0.18728012 0.067322917 0.69481874
0.18921526 0.0671409 0.69294012
0.19113997 0.066959858 0.69107169
0.19305429 0.066779785 0.68921322
0.19495839 0.066600688 0.68736482
0.19685227 0.066422544 0.68552625
0.19873607 0.066245355 0.68369752
0.20143184 0.066339828 0.68467253
0.20485093 0.06666746 0.68805397
0.20830396 0.066998348 0.69146895
0.21179146 0.067332543 0.69491804
0.2153139 0.067670085 0.69840169
0.21887185 0.068011023 0.70192045
0.22246583 0.068355419 0.70547485
0.22609638 0.068703316 0.70906538
0.22976409 0.069054782 0.71269274
0.23346964 0.069409892 0.71635771
0.23721331 0.069768623 0.72006005
0.14107145 0.073771313 0.7346558
0.1432493 0.073560454 0.73255593
0.14541474 0.073350802 0.73046809
0.14756787 0.073142335 0.72839212
0.14970882 0.072935067 0.72632802
0.15183763 0.072728954 0.72427541
0.15395448 0.072524011 0.72223449
0.15605941 0.072320215 0.72020495
0.15815254 0.07211756 0.7181868
0.16023399 0.071916036 0.71617997
0.16230384 0.071715645 0.71418434
0.16436216 0.071516365 0.71219975
0.16640909 0.071318179 0.71022618
0.16844471 0.071121097 0.70826352
0.17046912 0.070925109 0.7063117
0.17248237 0.07073018 0.7043705
0.1744846 0.07053633 0.70244002
0.17647587 0.070343532 0.70052004
0.17845629 0.070151784 0.69861054
0.18042596 0.069961086 0.69671142
0.18238491 0.069771409 0.69482255
0.18433331 0.069582775 0.69294399
0.18627118 0.069395147 0.6910755
0.18819864 0.069208533 0.68921709
0.19011575 0.069022916 0.68736863
0.19202259 0.068838291 0.68553001
0.19391929 0.068654656 0.68370128
0.19580586 0.068471991 0.6818822
0.19796799 0.068388946 0.68105519
0.20135191 0.0687249 0.68440086
0.20476927 0.069064192 0.68777966
0.20822053 0.069406845 0.69119197
0.21170618 0.069752902 0.69463825
0.21522678 0.070102438 0.6981191
0.21878281 0.070455484 0.70163494
0.22237489 0.070812114 0.70518649
0.2260036 0.071172409 0.70877445
0.22966951 0.071536407 0.71239936
0.23337308 0.071904138 0.71606141
0.23711447 0.072275534 0.71976
0.13808799 0.076141976 0.73256034
0.14026816 0.07592497 0.73047251
0.14243592 0.075709186 0.72839648
0.14459142 0.07549464 0.72633231
0.14673473 0.0752813 0.72427976
0.14886595 0.075069159 0.72223878
0.15098521 0.074858211 0.72020924
0.15309256 0.07464844 0.71819103
0.15518816 0.074439846 0.7161842
0.15727207 0.074232422 0.71418852
0.1593444 0.074026138 0.71220392
0.16140525 0.073821008 0.71023035
0.1634547 0.073616996 0.70826757
0.16549286 0.073414125 0.70631576
0.16751979 0.073212355 0.70437449
0.16953564 0.073011696 0.70244396
0.17154045 0.072812133 0.70052397
0.17353433 0.072613657 0.69861442
0.1755174 0.072416268 0.69671535
0.17748968 0.072219938 0.69482648
0.1794513 0.072024666 0.6929478
0.18140237 0.071830466 0.69107938
0.18334292 0.071637295 0.68922091
0.18527307 0.071445167 0.68737245
0.18719287 0.071254067 0.68553382
0.18910247 0.071063988 0.68370509
0.19100188 0.070874915 0.68188602
0.19289121 0.07068684 0.6800766
0.19477054 0.07049977 0.67827678
0.19788988 0.070760623 0.68078643
0.20127209 0.071108103 0.68412954
0.20468765 0.071459003 0.68750554
0.20813712 0.07181339 0.69091511
0.21162097 0.072171308 0.69435865
0.2151397 0.07253281 0.69783664
0.21869399 0.072897993 0.70135003
0.22228432 0.073266894 0.70489925
0.22591116 0.073639549 0.70848453
0.22957508 0.074016012 0.71210647
0.23327647 0.074396275 0.715765
0.23701569 0.074780352 0.71946019
0.13512152 0.078499168 0.73047692
0.13730393 0.078276075 0.72840089
0.13947397 0.078054249 0.72633666
0.14163175 0.077833667 0.72428405
0.14377737 0.07761433 0.72224301
0.14591093 0.077396229 0.72021347
0.14803253 0.077179357 0.71819532
0.15014228 0.076963685 0.71618843
0.15224026 0.07674922 0.71419269
0.15432657 0.07653594 0.71220803
0.15640134 0.076323852 0.7102344
0.15846461 0.076112926 0.70827162
0.16051653 0.075903162 0.70631969
0.16255718 0.075694561 0.70437855
0.16458662 0.0754871 0.70244795
0.16660498 0.075280771 0.70052797
0.16861233 0.075075567 0.69861841
0.17060876 0.074871473 0.69671923
0.17259438 0.074668497 0.69483042
0.17456926 0.074466608 0.69295174
0.17653349 0.074265815 0.69108325
0.17848714 0.074066088 0.68922472
0.18043031 0.07386744 0.6873762
0.18236311 0.073669866 0.68553764
0.18428557 0.073473334 0.68370879
0.18619783 0.073277853 0.68188977
0.18809992 0.073083408 0.68008035
0.18999195 0.072889999 0.67828053
0.191874 0.072697602 0.67649019
0.19446419 0.072774947 0.67720991
0.19781183 0.073130429 0.68051791
0.20119227 0.073489398 0.68385828
0.20460613 0.073851913 0.68723172
0.2080538 0.07421802 0.69063854
0.21153592 0.074587807 0.69407958
0.21505298 0.074961327 0.69755536
0.21860547 0.07533861 0.7010662
0.22219388 0.075719707 0.70461249
0.2258188 0.076104678 0.70819485
0.22948064 0.076493546 0.71181351
0.23317984 0.076886326 0.71546853
0.23691703 0.077283092 0.71916068
0.240693 0.077683985 0.72289115
0.13435647 0.080613889 0.72634101
0.13652872 0.080386065 0.72428834
0.13868873 0.080159537 0.7222473
0.14083661 0.079934292 0.72021776
0.14297244 0.079710297 0.71819955
0.14509632 0.079487555 0.7161926
0.14720838 0.079266049 0.71419686
0.14930868 0.079045773 0.71221215
0.15139736 0.078826725 0.71023846
0.15347449 0.078608885 0.70827574
0.15554017 0.078392245 0.70632374
0.15759449 0.078176789 0.70438248
0.15963756 0.077962525 0.70245194
0.16166945 0.077749431 0.7005319
0.16369027 0.077537492 0.69862235
0.16570009 0.077326708 0.69672316
0.16769901 0.077117063 0.69483423
0.16968715 0.076908566 0.69295561
0.17166455 0.076701179 0.69108707
0.17363133 0.076494917 0.68922859
0.17558753 0.076289758 0.68738008
0.17753328 0.076085694 0.68554145
0.17946865 0.075882718 0.6837126
0.18139371 0.075680815 0.68189347
0.18330859 0.075480007 0.68008411
0.1852133 0.075280242 0.67828423
0.18710797 0.075081535 0.67649388
0.18899263 0.074883871 0.6747129
0.19107434 0.074768215 0.67367083
0.1943879 0.075131513 0.6769442
0.1977338 0.075498365 0.68024951
0.20111258 0.075868815 0.68358737
0.20452471 0.076242939 0.68695825
0.2079708 0.076620817 0.69036299
0.21145119 0.077002458 0.69380158
0.21496642 0.077387907 0.69727457
0.21851702 0.077777244 0.70078254
0.22210354 0.078170516 0.70432597
0.22572652 0.078567795 0.70790547
0.22938621 0.078969024 0.71152061
0.23308329 0.079374313 0.71517229
0.23681843 0.079783753 0.7188614
0.24059232 0.080197439 0.72258878
0.13142563 0.082938507 0.7242927
0.13360003 0.082704782 0.72225159
0.13576221 0.082472369 0.720222
0.13791226 0.08224126 0.71820372
0.14005031 0.082011446 0.71619678
0.14217643 0.081782907 0.71420097
0.14429073 0.081555627 0.7122162
0.14639333 0.081329629 0.71024257
0.14848429 0.081104867 0.70827973
0.15056375 0.08088135 0.7063278
0.15263176 0.080659054 0.70438653
0.15468842 0.080437981 0.70245588
0.15673387 0.080218121 0.70053589
0.15876813 0.079999447 0.69862622
0.16079137 0.079781979 0.6967271
0.16280362 0.079565674 0.69483817
0.164805 0.079350553 0.69295949
0.16679557 0.07913658 0.69109094
0.16877542 0.078923754 0.68923235
0.17074469 0.078712091 0.68738389
0.1727034 0.078501545 0.68554521
0.17465165 0.078292124 0.68371636
0.17658956 0.078083821 0.68189728
0.17851718 0.07787662 0.6800878
0.18043458 0.077670515 0.67828792
0.18234186 0.077465497 0.67649752
0.1842391 0.07726156 0.67471659
0.1861264 0.077058703 0.67294502
0.18800379 0.076856896 0.67118269
0.19099975 0.077111699 0.67340785
0.19431165 0.077486239 0.67667866
0.19765595 0.077864461 0.67998165
0.20103315 0.078246437 0.68331736
0.20444363 0.078632168 0.68668592
0.20788793 0.07902173 0.69008791
0.21136652 0.079415165 0.69352376
0.21487992 0.079812542 0.69699401
0.21842864 0.080213912 0.70049912
0.22201328 0.08061935 0.70403975
0.22563413 0.081028834 0.70761573
0.22929184 0.08144246 0.71122789
0.23298682 0.081860237 0.71487629
0.23671991 0.08228232 0.7185623
0.2404917 0.082708783 0.72228658
0.24430278 0.083139688 0.7260496
0.12854898 0.085275069 0.72246784
0.13070615 0.085022449 0.72032762
0.13285203 0.084772252 0.7182079
0.13500422 0.08453536 0.71620089
0.13714443 0.084299788 0.71420509
0.13927272 0.084065519 0.71222031
0.14138922 0.083832555 0.71024656
0.14349404 0.083600879 0.70828378
0.14558725 0.083370477 0.70633179
0.14766896 0.083141342 0.70439053
0.14973924 0.082913466 0.70245987
0.15179822 0.082686834 0.70053983
0.15384597 0.082461439 0.69863021
0.15588258 0.082237266 0.69673097
0.15790816 0.082014315 0.6948421
0.15992278 0.081792563 0.69296336
0.16192654 0.081572011 0.69109482
0.16391949 0.081352636 0.68923622
0.16590178 0.081134446 0.68738765
0.16787347 0.080917425 0.68554902
0.16983461 0.080701552 0.68372011
0.17178535 0.080486841 0.68190104
0.17372572 0.080273263 0.68009156
0.17565583 0.080060817 0.67829168
0.17757574 0.079849489 0.67650127
0.17948551 0.079639271 0.67472023
0.18138532 0.07943017 0.67294872
0.18327513 0.07922215 0.67118633
0.18515509 0.079015233 0.66943324
0.18764682 0.079071306 0.66990829
0.19092527 0.079453379 0.67314529
0.19423567 0.0798392 0.67641407
0.19757837 0.080228798 0.6797148
0.20095387 0.080622211 0.68304789
0.20436262 0.081019498 0.68641382
0.20780513 0.081420727 0.68981308
0.21128191 0.081825942 0.69324619
0.21479347 0.082235217 0.69671363
0.21834035 0.082648605 0.70021594
0.22192298 0.083066143 0.70375341
0.22554182 0.083487853 0.70732623
0.22919746 0.083913825 0.71093512
0.23289046 0.084344111 0.7145806
0.23662148 0.084778823 0.71826357
0.24039118 0.085218035 0.72198468
0.24420014 0.085661829 0.72574461
0.12843579 0.08774326 0.72183168
0.13059141 0.087483563 0.71969527
0.1327343 0.087225392 0.71757138
0.13486457 0.086968742 0.71546
0.13698235 0.086713597 0.71336102
0.13908774 0.08645995 0.71127433
0.14118086 0.086207777 0.70919985
0.14326179 0.085957073 0.70713735
0.14533065 0.085707821 0.70508689
0.14738755 0.085460015 0.70304823
0.1494326 0.085213631 0.70102137
0.15146588 0.084968664 0.69900608
0.15348752 0.084725112 0.69700247
0.1554976 0.084482946 0.69501024
0.1574962 0.08424215 0.69302934
0.15948346 0.084002741 0.69105977
0.16145943 0.083764672 0.68910128
0.16342427 0.08352796 0.68715394
0.16537802 0.083292581 0.68521756
0.16732079 0.083058521 0.68329203
0.16925268 0.08282578 0.68137735
0.17117375 0.082594328 0.67947328
0.17308412 0.082364172 0.67757988
0.17498389 0.082135297 0.67569703
0.17687312 0.08190769 0.67382455
0.1787519 0.081681333 0.67196244
0.18062034 0.081456229 0.67011058
0.1824785 0.081232361 0.66826892
0.1843286 0.081010655 0.66644502
0.18757416 0.081400111 0.66964889
0.19085111 0.081793331 0.67288381
0.19415984 0.082190365 0.67615002
0.19750087 0.082591273 0.67944819
0.20087464 0.082996108 0.6827786
0.20428169 0.083404951 0.68614197
0.20772241 0.083817817 0.68953848
0.21119739 0.084234796 0.69296885
0.21470714 0.084655955 0.69643354
0.21825212 0.085081331 0.69993299
0.22183269 0.085510924 0.70346707
0.22544958 0.085944869 0.70703697
0.22910318 0.086383171 0.7106427
0.23279414 0.086825922 0.71428508
0.23652314 0.08727324 0.71796501
0.24029075 0.087725192 0.72168303
0.24409761 0.088181853 0.72543985
0.1283228 0.090207115 0.72119665
0.13047685 0.089940354 0.71906394
0.1326182 0.089675166 0.7169438
0.13474698 0.089411549 0.71483618
0.13686326 0.08914946 0.71274084
0.13896716 0.088888906 0.71065772
0.14105882 0.088629879 0.70858681
0.14313832 0.088372357 0.70652795
0.14520577 0.088116318 0.70448095
0.14726126 0.087861761 0.70244581
0.14930493 0.087608673 0.70042241
0.15133683 0.087357037 0.69841057
0.15335713 0.087106854 0.69641036
0.15536587 0.086858079 0.69442147
0.15736316 0.086610734 0.69244397
0.15934913 0.086364798 0.69047773
0.16132383 0.08612024 0.68852252
0.16328739 0.085877068 0.68657839
0.1652399 0.085635282 0.6846453
0.16718143 0.08539483 0.68272293
0.16911212 0.08515574 0.68081146
0.17103198 0.084917977 0.67891055
0.17294118 0.084681541 0.67702025
0.17483978 0.084446423 0.6751405
0.17672785 0.084212601 0.67327112
0.1786055 0.083980069 0.67141205
0.18047282 0.083748825 0.66956329
0.18232991 0.083518855 0.66772473
0.18425769 0.083326727 0.66618866
0.18750168 0.083727166 0.66939014
0.19077699 0.084131472 0.6726225
0.19408409 0.084539697 0.67588621
0.19742343 0.0849519 0.67918175
0.2007955 0.085368149 0.6825096
0.20420077 0.085788496 0.68587023
0.20763974 0.086212993 0.68926406
0.21111292 0.086641721 0.69269168
0.21462084 0.087074742 0.69615364
0.21816386 0.087512054 0.69964993
0.22174247 0.087953717 0.70318097
0.22535743 0.088399872 0.70674795
0.22900897 0.088850476 0.71035045
0.23269792 0.089305691 0.71398985
0.23642485 0.089765586 0.71766669
0.2401904 0.090230256 0.72138166
0.24399512 0.090699755 0.72513527
0.24783961 0.091174163 0.72892809
0.12820999 0.092666633 0.7205627
0.1303625 0.092392839 0.71843374
0.13250232 0.092120662 0.7163173
0.13462958 0.091850087 0.71421337
0.13674437 0.091581091 0.71212167
0.1388468 0.09131366 0.71004218
0.140937 0.091047794 0.70797485
0.14301506 0.090783469 0.7059195
0.14508107 0.090520673 0.70387602
0.1471352 0.090259403 0.70184445
0.14917746 0.089999631 0.69982445
0.15120801 0.089741342 0.69781607
0.15322696 0.08948455 0.69581926
0.15523437 0.089229204 0.69383377
0.15723035 0.088975318 0.69185954
0.15921502 0.08872287 0.68989658
0.16118845 0.088471852 0.68794471
0.16315074 0.088222258 0.68600386
0.16510201 0.087974057 0.68407393
0.16704232 0.087727256 0.68215483
0.16897178 0.087481849 0.68024653
0.17089047 0.08723779 0.67834878
0.17279847 0.086995088 0.67646158
0.17469589 0.086753748 0.67458493
0.17658284 0.086513743 0.6727187
0.17845935 0.086275049 0.67086267
0.18032557 0.086037688 0.66901696
0.18218154 0.085801624 0.66718137
0.18418685 0.085641019 0.66593254
0.18742926 0.086052425 0.66913158
0.19070294 0.086467795 0.67236143
0.19400838 0.086887188 0.67562258
0.19734605 0.087310679 0.67891556
0.20071641 0.087738313 0.68224078
0.20411997 0.088170163 0.68559879
0.20755716 0.088606276 0.68898994
0.21102856 0.089046732 0.69241488
0.2145346 0.089491576 0.69587392
0.21807559 0.089940779 0.69936687
0.22165234 0.090394534 0.70289516
0.22526526 0.090852842 0.70645893
0.22891481 0.091315746 0.71005839
0.23260176 0.091783397 0.71369481
0.23632665 0.092255861 0.7173686
0.24009013 0.092733227 0.72108054
0.24389273 0.093215548 0.72483099
0.24773508 0.093702912 0.72862065
0.1280974 0.095121831 0.71992987
0.13024835 0.094841033 0.71780467
0.13238664 0.094561882 0.71569192
0.13451238 0.094284378 0.71359164
0.13662568 0.09400849 0.71150357
0.13872664 0.09373422 0.70942771
0.14081539 0.093461543 0.70736396
0.142892 0.093190439 0.70531213
0.14495662 0.092920907 0.70327216
0.14700933 0.092652939 0.70124406
0.14905022 0.092386499 0.69922751
0.1510794 0.092121586 0.69722253
0.153097 0.091858208 0.69522911
0.15510309 0.091596313 0.69324696
0.15709777 0.091335908 0.69127613
0.15908113 0.091076985 0.68931645
0.16105329 0.090819523 0.68736786
0.16301434 0.090563521 0.68543029
0.16496435 0.090308949 0.68350357
0.16690342 0.090055801 0.68158764
0.16883168 0.089804083 0.67968249
0.17074916 0.089553759 0.6777879
0.172656 0.089304827 0.67590386
0.17455226 0.089057282 0.6740303
0.17643806 0.088811107 0.67216712
0.17831346 0.088566288 0.67031425
0.18017854 0.088322818 0.66847152
0.18203339 0.088080674 0.66663885
0.18411608 0.087953538 0.66567665
0.18735689 0.088375889 0.66887319
0.19062895 0.088802308 0.67210054
0.19393273 0.089232855 0.67535913
0.19726872 0.089667603 0.67864954
0.20063739 0.090106606 0.68197215
0.2040392 0.090549946 0.68532753
0.20747462 0.090997644 0.68871593
0.21094424 0.091449812 0.6921382
0.21444827 0.091906399 0.69559389
0.21798742 0.092367552 0.6990841
0.22156225 0.092833348 0.70260948
0.22517318 0.093303807 0.70617014
0.22882077 0.093779005 0.70976669
0.23250571 0.094259068 0.71340007
0.23622856 0.094744071 0.71707082
0.23998994 0.095234104 0.7207796
0.2437904 0.095729217 0.72452688
0.127985 0.097572722 0.71929818
0.13013442 0.09728495 0.71717674
0.13227117 0.096998855 0.71506768
0.13439541 0.096714444 0.71297103
0.1365072 0.096431695 0.7108866
0.13860668 0.096150585 0.70881426
0.14069399 0.095871128 0.70675415
0.14276917 0.095593274 0.70470583
0.14483237 0.095317028 0.70266938
0.14688367 0.095042378 0.70064467
0.14892319 0.094769299 0.69863158
0.15095103 0.094497792 0.69663006
0.15296727 0.094227843 0.69463998
0.15497203 0.093959421 0.69266123
0.1569654 0.093692526 0.69069368
0.15894748 0.093427144 0.68873733
0.16091837 0.093163267 0.68679202
0.16287816 0.092900872 0.68485767
0.16482691 0.092639945 0.68293417
0.16676478 0.092380486 0.68102145
0.16869181 0.09212248 0.67911941
0.17060812 0.091865912 0.67722803
0.17251378 0.091610767 0.67534715
0.1744089 0.091357045 0.6734767
0.17629354 0.091104716 0.67161655
0.17816781 0.090853781 0.66976666
0.18003176 0.090604223 0.66792697
0.18188551 0.09035603 0.66609728
0.18404534 0.090264276 0.66542089
0.18728456 0.090697549 0.66861498
0.19055501 0.091135003 0.67183983
0.19385716 0.091576695 0.67509598
0.19719148 0.092022687 0.67838377
0.20055841 0.092473045 0.68170375
0.2039585 0.092927836 0.68505645
0.20739217 0.093387119 0.68844223
0.21085989 0.093850933 0.69186145
0.21436204 0.094319291 0.69531417
0.21789931 0.094792351 0.69880152
0.22147226 0.095270187 0.70232409
0.22508113 0.095752746 0.70588148
0.22872676 0.096240222 0.7094751
0.2324097 0.096732683 0.7131055
0.23613055 0.097230226 0.71677333
0.23988983 0.097732894 0.72047895
0.2436882 0.098240793 0.72422314
0.12787279 0.10001931 0.71866757
0.13002065 0.099724583 0.71654981
0.13215588 0.099431574 0.71444446
0.13427861 0.099140279 0.71235144
0.13638893 0.09885069 0.71027064
0.13848695 0.098562777 0.70820194
0.1405728 0.098276556 0.70614535
0.14264655 0.097991973 0.70410055
0.14470832 0.097709037 0.70206755
0.14675824 0.097427741 0.70004636
0.14879638 0.097148053 0.69803673
0.15082285 0.09686996 0.69603854
0.15283777 0.096593469 0.69405186
0.1548412 0.096318543 0.69207644
0.15683326 0.096045174 0.69011223
0.15881406 0.095773362 0.68815917
0.16078366 0.095503084 0.68621713
0.1627422 0.09523432 0.684286
0.1646897 0.09496706 0.68236566
0.16662635 0.094701305 0.68045616
0.1685522 0.094437048 0.6785574
0.17046732 0.094174251 0.67666912
0.17237179 0.093912907 0.67479128
0.17426577 0.093653031 0.67292398
0.17614923 0.093394563 0.67106682
0.17802237 0.093137532 0.66921997
0.17988522 0.092881911 0.66738325
0.18173786 0.092627682 0.66555655
0.18397467 0.09257324 0.66516536
0.1872123 0.093017429 0.66835701
0.19048113 0.093465894 0.67157936
0.19378163 0.093918703 0.67483294
0.19711427 0.094375923 0.67811817
0.20047952 0.094837621 0.68143559
0.20387787 0.095303848 0.6847856
0.20730977 0.095774688 0.6881687
0.21077554 0.096250102 0.69158471
0.21427587 0.096730247 0.69503468
0.21781129 0.097215205 0.69851923
0.22138225 0.097705014 0.70203865
0.22498921 0.09819971 0.70559317
0.22863285 0.098699428 0.70918381
0.2323138 0.099204272 0.71281123
0.23603259 0.099714302 0.71647596
0.23978981 0.10022961 0.72017854
0.1277608 0.10246164 0.71803814
0.1299071 0.10215995 0.71592402
0.13204081 0.10186005 0.71382236
0.13416202 0.10156191 0.71173298
0.13627085 0.1012655 0.70965576
0.1383674 0.10097081 0.70759064
0.1404518 0.10067784 0.70553756
0.14252412 0.10038656 0.70349628
0.14458449 0.10009696 0.7014668
0.14663303 0.099809036 0.69944906
0.14866979 0.099522747 0.69744283
0.15069491 0.099238113 0.6954481
0.15270847 0.098955095 0.69346476
0.15471059 0.098673686 0.69149268
0.15670134 0.098393865 0.68953174
0.15868084 0.098115638 0.68758196
0.16064918 0.097838975 0.68564314
0.16260648 0.097563885 0.68371534
0.16455278 0.09729033 0.68179828
0.16648819 0.097018301 0.67989194
0.16841282 0.096747793 0.67799628
0.17032674 0.096478783 0.6761111
0.17223006 0.096211277 0.67423642
0.17412286 0.095945254 0.67237216
0.17600518 0.095680676 0.67051804
0.17787719 0.095417567 0.66867423
0.17973891 0.095155895 0.66684043
0.18159047 0.094895661 0.66501677
0.18390404 0.094880424 0.66491002
0.18714009 0.095335513 0.66809922
0.19040731 0.095794976 0.67131907
0.19370617 0.096258894 0.67457014
0.19703713 0.096727319 0.67785281
0.2004007 0.097200342 0.68116766
0.2037973 0.097677991 0.684515
0.2072273 0.098160297 0.68789494
0.21069126 0.098647349 0.69130814
0.21418975 0.099139258 0.69475538
0.21772331 0.099636093 0.69823712
0.2212923 0.10013786 0.70175344
0.22489733 0.10064466 0.70530504
0.22853905 0.10115663 0.70889282
0.23221798 0.10167382 0.71251726
0.23593472 0.10219632 0.71617889
0.12764899 0.10489967 0.71740979
0.12979376 0.10459109 0.71529937
0.13192593 0.1042843 0.71320128
0.13404563 0.10397933 0.71111554
0.13615298 0.10367613 0.70904195
0.13824807 0.10337469 0.70698041
0.14033103 0.103075 0.70493084
0.14240192 0.10277704 0.70289308
0.14446087 0.10248079 0.70086706
0.14650802 0.10218626 0.69885278
0.1485434 0.10189341 0.69684994
0.15056717 0.10160224 0.69485861
0.1525794 0.10131272 0.6928786
0.15458019 0.10102485 0.69090986
0.15656964 0.10073861 0.68895227
0.15854788 0.100454 0.68700582
0.16051495 0.10017098 0.68507028
0.16247097 0.099889562 0.68314558
0.16441604 0.099609725 0.6812318
0.16635025 0.099331446 0.67932862
0.16827367 0.099054709 0.67743605
0.1701864 0.098779522 0.67555404
0.17208855 0.098505862 0.67368245
0.17398018 0.098233707 0.67182118
0.17586137 0.09796305 0.66997015
0.17773224 0.097693883 0.66812932
0.17959283 0.097426176 0.66629851
0.1814433 0.097159959 0.66447783
0.18383346 0.097185843 0.66465485
0.18706793 0.097651809 0.66784161
0.19033353 0.098122254 0.67105895
0.19363075 0.098597258 0.67430753
0.19696005 0.099076875 0.67758763
0.20032191 0.099561192 0.68089986
0.20371674 0.10005023 0.68424445
0.2071449 0.10054401 0.68762141
0.21060705 0.1010427 0.69103187
0.21410374 0.10154635 0.69447637
0.21763542 0.10205503 0.69795525
0.22120245 0.10256873 0.70146847
0.22480553 0.10308762 0.70501715
0.22844528 0.10361179 0.70860195
0.23212221 0.10414132 0.71222341
0.23583694 0.10467629 0.71588206
0.12753738 0.10733344 0.71678251
0.1296806 0.10701798 0.71467578
0.13181125 0.10670435 0.71258134
0.13392946 0.10639256 0.71049923
0.13603532 0.1060826 0.70842922
0.13812895 0.10577442 0.70637125
0.14021046 0.10546804 0.7043252
0.14227994 0.10516343 0.70229095
0.14433748 0.10486057 0.70026839
0.14638323 0.10455944 0.69825751
0.14841723 0.10426004 0.69625807
0.15043965 0.10396236 0.69427013
0.15245055 0.10366637 0.69229347
0.15445003 0.10337207 0.69032806
0.15643819 0.10307943 0.6883738
0.15841514 0.10278845 0.68643063
0.16038096 0.10249911 0.68449837
0.16233572 0.10221138 0.68257689
0.16427957 0.10192528 0.68066627
0.16621254 0.10164076 0.67876625
0.16813476 0.10135783 0.67687684
0.1700463 0.10107647 0.67499787
0.17194727 0.10079668 0.67312938
0.17383774 0.10051842 0.67127115
0.17571777 0.10024168 0.6694231
0.17758752 0.099966489 0.66758531
0.17944703 0.099692792 0.66575754
0.18129636 0.099420585 0.66393971
0.18376297 0.09948951 0.66439998
0.18699582 0.099966317 0.66758418
0.19025981 0.10044773 0.67079908
0.1935554 0.1009338 0.67404509
0.19688304 0.1014246 0.67732269
0.20024319 0.10192019 0.68063229
0.20363615 0.10242055 0.68397379
0.20706256 0.10292583 0.68734807
0.21052292 0.10343611 0.69075578
0.21401776 0.10395148 0.69419748
0.21754751 0.10447197 0.69767332
0.22111264 0.10499762 0.70118368
0.22471383 0.10552859 0.70472956
0.22835161 0.10606496 0.70831144
0.23202655 0.10660679 0.71192986
0.12527162 0.11008719 0.71827173
0.12742597 0.10976296 0.7161563
0.12956764 0.10944062 0.71405321
0.13169678 0.10912018 0.71196246
0.13381349 0.10880163 0.70988399
0.13591786 0.10848489 0.70781749
0.13801004 0.10817003 0.7057631
0.14009009 0.10785697 0.70372057
0.14215814 0.10754573 0.70168978
0.14421429 0.10723626 0.69967067
0.14625865 0.10692859 0.69766325
0.1482913 0.10662267 0.69566727
0.15031236 0.1063185 0.69368267
0.15232193 0.10601606 0.6917094
0.15432009 0.10571534 0.68974733
0.15630697 0.10541632 0.68779635
0.15828262 0.10511899 0.6858564
0.16024716 0.10482334 0.68392736
0.16220069 0.10452933 0.6820091
0.16414328 0.10423698 0.68010163
0.16607505 0.10394625 0.67820477
0.16799606 0.10365714 0.67631847
0.16990641 0.10336963 0.67444259
0.17180622 0.10308373 0.6725772
0.17369552 0.10279939 0.67072201
0.17557444 0.10251661 0.66887701
0.17744304 0.1022354 0.6670422
0.17930143 0.10195571 0.66521734
0.18114966 0.10167755 0.6634025
0.18369251 0.10179139 0.66414523
0.18692377 0.10227905 0.66732699
0.19018616 0.1027714 0.67053938
0.1934801 0.10326853 0.67378289
0.19680607 0.10377048 0.67705792
0.20016444 0.10427728 0.68036461
0.20355563 0.104789 0.6837033
0.20698026 0.10530575 0.6870749
0.21043885 0.10582763 0.69047993
0.21393187 0.10635471 0.69391888
0.21745969 0.10688697 0.69739169
0.22102292 0.10742455 0.70089918
0.22462219 0.10796757 0.70444214
0.228258 0.1085161 0.70802104
0.23193096 0.10907023 0.71163654
0.12516196 0.11251934 0.71764296
0.12731475 0.11218824 0.71553123
0.12945488 0.11185907 0.71343178
0.1315825 0.11153183 0.71134466
0.1336977 0.1112065 0.70926976
0.13580061 0.11088307 0.7072069
0.13789131 0.1105615 0.70515597
0.13996993 0.11024181 0.70311695
0.14203656 0.10992395 0.70108968
0.14409131 0.10960791 0.69907403
0.14613427 0.1092937 0.69707
0.14816558 0.1089813 0.69507748
0.1501853 0.10867066 0.69309628
0.15219353 0.1083618 0.69112635
0.15419039 0.10805469 0.68916762
0.15617596 0.10774931 0.68721992
0.15815033 0.10744564 0.68528318
0.16011362 0.10714369 0.68335736
0.16206589 0.10684343 0.68144232
0.16400725 0.10654485 0.67953795
0.16593778 0.10624792 0.67764419
0.1678576 0.10595267 0.67576104
0.16976677 0.10565904 0.67388827
0.1716654 0.10536703 0.67202592
0.17355354 0.10507664 0.67017376
0.17543133 0.10478783 0.6683318
0.1772988 0.10450061 0.66649991
0.17915608 0.10421497 0.6646781
0.18100321 0.10393088 0.66286618
0.18362211 0.10409151 0.66389066
0.1868518 0.10459001 0.66707003
0.19011258 0.10509329 0.67027998
0.19340488 0.10560144 0.67352092
0.19672918 0.10611453 0.6767934
0.2000857 0.1066325 0.68009698
0.20347515 0.10715555 0.683433
0.20689805 0.10768378 0.68680197
0.21035482 0.10821722 0.69020426
0.21384604 0.10875598 0.69364047
0.21737193 0.10930001 0.69711024
0.22093329 0.10984951 0.70061493
0.22453061 0.11040456 0.70415497
0.22816449 0.11096524 0.70773101
0.12505248 0.11494724 0.71701527
0.12720372 0.11460929 0.71490723
0.1293423 0.1142733 0.71281141
0.13146842 0.11393929 0.71072793
0.13358213 0.11360723 0.70865661
0.13568357 0.1132771 0.70659733
0.1377728 0.11294887 0.70454991
0.13984999 0.11262255 0.70251441
0.14191519 0.11229811 0.70049059
0.14396855 0.11197554 0.69847846
0.14601015 0.11165482 0.69647789
0.14804007 0.11133593 0.6944887
0.15005845 0.11101886 0.6925109
0.15206535 0.11070357 0.69054425
0.15406089 0.11039008 0.68858874
0.15604517 0.11007837 0.68664438
0.15801826 0.10976841 0.68471092
0.15998027 0.10946018 0.68278825
0.16193131 0.1091537 0.68087643
0.16387142 0.10884891 0.67897522
0.16580075 0.10854582 0.67708462
0.16771938 0.10824442 0.67520458
0.16962735 0.10794468 0.6733349
0.17152481 0.1076466 0.67147553
0.17341182 0.10735017 0.66962647
0.17528844 0.10705536 0.66778749
0.17715479 0.10676216 0.66595858
0.17901096 0.10647057 0.66413969
0.18085702 0.10618057 0.66233075
0.18355176 0.10638987 0.66363633
0.18677986 0.10689916 0.66681319
0.19003904 0.10741337 0.6700207
0.19332971 0.10793254 0.67325914
0.19665219 0.10845666 0.67652851
0.20000704 0.10898587 0.6798296
0.20339477 0.10952026 0.68316299
0.20681588 0.11005991 0.68652922
0.21027088 0.11060491 0.68992883
0.21376021 0.11115531 0.69336206
0.21728425 0.11171111 0.69682902
0.22084369 0.11227249 0.70033079
0.2244391 0.11283955 0.70386797
0.1249432 0.11737089 0.71638864
0.12709288 0.11702611 0.7142843
0.12922995 0.11668335 0.71219218
0.13135453 0.11634258 0.71011227
0.13346675 0.11600381 0.70804453
0.1355667 0.115667 0.70598876
0.1376545 0.11533214 0.70394492
0.13973024 0.11499923 0.70191294
0.14179406 0.11466823 0.69989264
0.14384601 0.11433914 0.69788396
0.14588623 0.11401193 0.69588679
0.14791478 0.11368657 0.69390094
0.14993182 0.11336308 0.69192648
0.15193738 0.11304142 0.68996316
0.15393162 0.11272158 0.68801099
0.15591459 0.11240353 0.68606979
0.1578864 0.11208729 0.68413955
0.15984714 0.11177282 0.6822201
0.16179693 0.11146011 0.68031144
0.16373584 0.11114915 0.67841345
0.16566394 0.1108399 0.67652595
0.16758135 0.11053238 0.67464894
0.16948818 0.11022658 0.67278242
0.17138444 0.10992243 0.67092603
0.17327029 0.10961998 0.66907996
0.17514579 0.10931918 0.66724402
0.17701101 0.10902002 0.66541809
0.17886607 0.10872252 0.66360217
0.18071103 0.10842662 0.66179615
0.18348145 0.10868647 0.66338217
0.18670799 0.10920656 0.6665566
0.18996556 0.10973165 0.6697616
0.19325456 0.1102618 0.67299742
0.1965753 0.11079699 0.67626399
0.19992842 0.11133739 0.67956239
0.20331442 0.11188309 0.68289316
0.20673378 0.11243416 0.68625671
0.210187 0.11299071 0.68965364
0.21367444 0.1135527 0.69308388
0.21719663 0.11412026 0.69654804
0.22075421 0.11469352 0.70004702
0.2243477 0.11527257 0.70358133
0.12483411 0.11979031 0.71576315
0.12698223 0.11943873 0.71366245
0.12911777 0.1190892 0.71157396
0.13124084 0.11874172 0.70949769
0.13335158 0.11839626 0.70743352
0.13545007 0.1180528 0.70538133
0.13753641 0.11771134 0.70334107
0.13961074 0.11737186 0.7013126
0.14167312 0.11703431 0.6992957
0.14372367 0.1166987 0.69729042
0.1457625 0.11636503 0.69529665
0.14778972 0.11603324 0.69331419
0.14980538 0.11570334 0.69134301
0.15180963 0.11537533 0.68938303
0.15380256 0.11504915 0.68743414
0.15578423 0.11472482 0.68549621
0.15775478 0.11440232 0.68356919
0.15971427 0.11408162 0.68165296
0.1616628 0.11376271 0.67974746
0.16360047 0.11344558 0.67785257
0.16552737 0.11313022 0.67596823
0.16744357 0.11281659 0.67409426
0.16934921 0.11250472 0.67223078
0.17124432 0.11219455 0.67037749
0.17312901 0.11188609 0.6685344
0.17500336 0.11157933 0.66670144
0.17686747 0.11127423 0.66487849
0.17872141 0.11097082 0.66306549
0.18056527 0.11066904 0.66126233
0.18341121 0.11098131 0.6631282
0.18663616 0.11151217 0.66630018
0.18989213 0.11204815 0.66950274
0.19317935 0.11258919 0.67273551
0.19649842 0.11313546 0.67599952
0.19984989 0.11368706 0.67929542
0.20323417 0.11424406 0.68262357
0.20665178 0.11480654 0.68598449
0.21010321 0.11537459 0.68937868
0.21358873 0.11594816 0.69280583
0.21710907 0.11652747 0.69626725
0.22066475 0.11711258 0.69976336
0.12472521 0.1222055 0.71513873
0.12687178 0.12184715 0.71304166
0.12900579 0.12149088 0.71095681
0.13112736 0.1211367 0.70888418
0.13323662 0.1207846 0.70682365
0.13533364 0.12043452 0.70477504
0.13741852 0.12008646 0.70273823
0.13949142 0.11974042 0.70071322
0.14155239 0.11939636 0.69869977
0.14360154 0.11905427 0.69669789
0.145639 0.11871415 0.69470751
0.14766486 0.11837596 0.69272846
0.14967917 0.11803968 0.69076055
0.15168209 0.11770531 0.68880385
0.15367371 0.11737283 0.68685824
0.15565409 0.11704222 0.68492353
0.15762335 0.11671348 0.68299973
0.15958159 0.11638658 0.68108672
0.16152889 0.11606149 0.67918438
0.16346532 0.11573822 0.67729259
0.16539103 0.11541676 0.6754114
0.16730604 0.11509706 0.67354059
0.16921046 0.11477912 0.67168003
0.17110442 0.11446296 0.66982985
0.17298797 0.11414852 0.66798979
0.17486118 0.1138358 0.66615975
0.17672417 0.11352479 0.66433978
0.17857701 0.11321548 0.66252971
0.18041976 0.11290786 0.66072947
0.18334101 0.11327439 0.6628744
0.18656439 0.11381601 0.66604394
0.18981867 0.11436279 0.66924369
0.19310421 0.11491477 0.67247385
0.19642162 0.1154721 0.67573529
0.19977139 0.11603488 0.67902863
0.20315395 0.11660316 0.68235415
0.20656981 0.11717702 0.6857124
0.21001939 0.11775654 0.68910366
0.21350309 0.11834171 0.69252807
0.21702158 0.11893273 0.69598669
0.22057542 0.11952969 0.69948006
0.12461649 0.12461649 0.71451539
0.12676153 0.1242514 0.71242201
0.12889403 0.12388843 0.71034092
0.13101409 0.12352758 0.70827186
0.13312185 0.12316882 0.70621485
0.13521741 0.12281214 0.70416975
0.13730085 0.12245752 0.70213646
0.1393723 0.12210494 0.70011485
0.14143187 0.12175439 0.69810492
0.14347963 0.12140584 0.69610643
0.14551571 0.12105928 0.69411939
0.1475402 0.12071471 0.69214368
0.14955318 0.12037207 0.69017911
0.15155478 0.12003139 0.68822569
0.15354508 0.11969262 0.68628335
0.15552418 0.11935576 0.68435186
0.15749216 0.11902079 0.68243122
0.15944915 0.1186877 0.68052143
0.16139519 0.11835647 0.67862225
0.16333041 0.11802708 0.67673361
0.16525488 0.11769951 0.67485541
0.16716871 0.11737377 0.6729877
0.16907196 0.11704982 0.67113024
0.17096475 0.11672765 0.66928303
0.17284715 0.11640726 0.66744602
0.17471923 0.11608861 0.66561896
0.17658108 0.1157717 0.66380191
0.17843282 0.11545654 0.66199481
0.18027449 0.11514306 0.66019744
0.18327089 0.11556572 0.66262084
0.18649267 0.11611807 0.66578788
0.1897452 0.11667562 0.66898471
0.19302912 0.11723854 0.67221236
0.19634488 0.11780693 0.67547131
0.19969295 0.11838085 0.67876202
0.2030738 0.11896039 0.68208492
0.20648791 0.11954563 0.68544054
0.20993564 0.12013657 0.68882883
0.21341752 0.12073334 0.69225049
0.21693417 0.12133607 0.69570637
0.12461554 0.12713303 0.71450996
0.12671892 0.12671892 0.71218258
0.12880865 0.12630752 0.7098704
0.13090102 0.12591432 0.70766056
0.13300729 0.12554893 0.70560706
0.13510138 0.12518567 0.70356548
0.13718338 0.12482452 0.7015357
0.13925339 0.12446543 0.69951755
0.14131154 0.12410839 0.69751096
0.14335792 0.12375341 0.69551593
0.14539261 0.12340046 0.69353223
0.14741574 0.12304951 0.69155985
0.1494274 0.12270055 0.68959862
0.15142767 0.12235355 0.68764848
0.15341666 0.12200852 0.68570936
0.15539448 0.12166544 0.68378115
0.15736118 0.12132427 0.68186373
0.1593169 0.12098502 0.67995703
0.16126172 0.12064765 0.67806101
0.1631957 0.12031216 0.67617548
0.16511898 0.11997853 0.67430043
0.16703162 0.11964677 0.67243582
0.16893367 0.11931679 0.67058134
0.1708253 0.11898866 0.66873717
0.17270656 0.11866233 0.66690314
0.1745775 0.11833777 0.66507906
0.17643824 0.11801498 0.66326493
0.17828886 0.11769395 0.6614607
0.18012945 0.11737467 0.6596663
0.18320081 0.1178553 0.66236746
0.18642087 0.11841829 0.66553158
0.18967181 0.11898667 0.66872597
0.19295411 0.11956052 0.67195112
0.1962682 0.12013993 0.6752075
0.19961458 0.12072499 0.67849565
0.20299371 0.12131577 0.68181592
0.20640609 0.12191237 0.68516892
0.20985197 0.12251472 0.68855429
0.21333203 0.12312306 0.69197321
0.21684684 0.12373746 0.69542629
0.12711202 0.12962909 0.71439189
0.12920693 0.12920693 0.71206534
0.13128823 0.1287875 0.70975387
0.13335606 0.12837079 0.70745736
0.13541058 0.12795678 0.7051757
0.13745186 0.12754542 0.70290869
0.13948007 0.12713669 0.70065618
0.14149532 0.12673059 0.69841808
0.14349772 0.12632705 0.69619423
0.14548744 0.12592611 0.69398457
0.14746454 0.12552768 0.69178879
0.14942919 0.12513176 0.6896069
0.15138148 0.12473834 0.68743873
0.15332153 0.12434739 0.6852842
0.15526497 0.12397126 0.68321133
0.15723042 0.12362392 0.68129712
0.15918489 0.12327852 0.67939359
0.16112845 0.12293504 0.67750067
0.16306123 0.12259348 0.67561829
0.16498329 0.12225381 0.67374635
0.16689472 0.121916 0.67188472
0.16879563 0.12158006 0.67003334
0.17068608 0.12124597 0.66819215
0.17256618 0.12091371 0.66636103
0.174436 0.12058328 0.66453999
0.17629564 0.12025464 0.66272885
0.17814514 0.11992777 0.66092747
0.17998464 0.1196027 0.659136
0.18313071 0.12014308 0.66211402
0.18634915 0.12071675 0.66527557
0.1895985 0.12129593 0.66846746
0.19287914 0.12188068 0.67169005
0.19619158 0.12247111 0.67494392
0.19953628 0.12306728 0.67822945
0.2029137 0.1236693 0.68154716
0.20632426 0.12427719 0.6848973
0.20976833 0.12489097 0.68827987
0.2132466 0.12551086 0.69169611
0.24182469 0.14072284 0.77553004
0.12750761 0.13255741 0.71661514
0.12960769 0.13212435 0.71427399
0.13169412 0.13169412 0.7119481
0.13376701 0.13126668 0.7096374
0.1358265 0.13084203 0.70734167
0.13787268 0.1304201 0.70506072
0.13990572 0.1300009 0.70279443
0.14192575 0.12958437 0.70054269
0.14393285 0.12917051 0.69830525
0.14592719 0.12875928 0.69608217
0.14790887 0.12835066 0.69387317
0.14987801 0.12794465 0.69167817
0.15183473 0.12754117 0.68949693
0.15377913 0.12714024 0.68732947
0.15571137 0.12674181 0.6851756
0.15763153 0.12634587 0.68303514
0.15953973 0.12595241 0.68090802
0.16143608 0.12556139 0.67879415
0.16332069 0.12517279 0.67669332
0.16519368 0.12478659 0.67460549
0.16705514 0.12440277 0.67253053
0.16890517 0.12402128 0.67046815
0.17074391 0.12364214 0.66841853
0.17257142 0.1232653 0.6663813
0.17438784 0.12289076 0.66435653
0.17619327 0.1225185 0.66234404
0.17800166 0.122158 0.66039515
0.17987414 0.12185022 0.65873128
0.18306062 0.12242907 0.66186059
0.18627746 0.12301342 0.66501963
0.1895252 0.1236034 0.66820908
0.19280426 0.12419906 0.67142928
0.19611505 0.12480048 0.67468059
0.19945805 0.12540776 0.67796355
0.20283373 0.12602095 0.68127859
0.20624249 0.12664013 0.68462586
0.20968477 0.12726533 0.68800575
0.23781006 0.14268604 0.77137125
0.24172767 0.14339776 0.7752189
0.24568456 0.14411664 0.77910519
0.12790565 0.13550401 0.71885222
0.13001098 0.13505995 0.71649647
0.13210255 0.13461879 0.71415609
0.13418049 0.13418049 0.71183091
0.13624497 0.13374506 0.70952094
0.1382961 0.13331245 0.70722598
0.140334 0.13288264 0.7049458
0.14235879 0.13245557 0.70268023
0.14437065 0.13203126 0.70042926
0.14636962 0.13160966 0.6981926
0.14835587 0.13119073 0.69597018
0.15032952 0.13077445 0.69376183
0.15229069 0.13036083 0.69156754
0.15423949 0.12994981 0.68938702
0.15617603 0.12954135 0.68722022
0.15810046 0.12913549 0.68506706
0.16001284 0.12873213 0.68292725
0.16191334 0.1283313 0.68080086
0.16380201 0.12793297 0.67868763
0.16567901 0.12753707 0.67658746
0.16754441 0.12714364 0.67450023
0.16939837 0.12675263 0.67242593
0.17124094 0.12636401 0.67036426
0.17307223 0.12597774 0.66831517
0.1748924 0.12559387 0.66627866
0.17670147 0.12521231 0.66425449
0.17849962 0.12483308 0.66224265
0.18028703 0.12445621 0.66024339
0.18299055 0.1247133 0.66160727
0.18620586 0.12530835 0.66476399
0.18945199 0.12590909 0.66795093
0.1927294 0.12651561 0.67116857
0.19603853 0.12712802 0.67441738
0.19937988 0.12774639 0.67769784
0.20275386 0.12837079 0.68101031
0.20616075 0.12900117 0.68435454
0.20960131 0.12963781 0.68773186
0.23771517 0.14534585 0.77106345
0.24163075 0.14607055 0.77490807
0.24558556 0.14680254 0.77879125
0.13041677 0.13801385 0.71873277
0.13251351 0.13756165 0.71637779
0.13459657 0.13711239 0.71403825
0.13666606 0.13666606 0.71171391
0.13872212 0.13622262 0.70940459
0.14076489 0.13578206 0.70711029
0.1427945 0.13534436 0.70483088
0.14481108 0.13490947 0.70256609
0.14681472 0.13447735 0.70031577
0.14880559 0.134048 0.69807988
0.15078376 0.13362138 0.69585818
0.1527494 0.13319747 0.6936506
0.15470259 0.13277625 0.69145691
0.15664348 0.13235766 0.68927711
0.15857217 0.13194172 0.68711102
0.16048877 0.13152839 0.68495852
0.16239341 0.13111763 0.68281943
0.16428618 0.13070944 0.68069369
0.1661672 0.13030379 0.67858112
0.16803658 0.12990062 0.6764816
0.16989444 0.12949996 0.67439508
0.17174087 0.12910175 0.67232138
0.17357598 0.12870599 0.67026037
0.17539987 0.12831266 0.668212
0.17721269 0.12792173 0.6661762
0.17901458 0.12753327 0.66415316
0.18080556 0.12714714 0.66214234
0.18292055 0.1269958 0.66135418
0.18613429 0.12760149 0.66450846
0.18937883 0.12821299 0.66769296
0.19265461 0.12883039 0.67090815
0.19596209 0.12945375 0.6741544
0.19930175 0.13008317 0.6774323
0.20267397 0.13071871 0.68074197
0.20607911 0.13136037 0.68408352
0.23374547 0.14727317 0.76695234
0.23762037 0.14800355 0.77075595
0.24153405 0.14874132 0.774598
0.24548647 0.14948617 0.77847701
0.13082512 0.14098628 0.72098321
0.13292706 0.14052288 0.71861345
0.13501523 0.14006254 0.7162593
0.13708977 0.13960519 0.71392047
0.13915081 0.13915081 0.71159685
0.14119847 0.13869938 0.7092883
0.14323288 0.13825087 0.70699471
0.14525421 0.13780528 0.70471603
0.14726254 0.13736255 0.70245194
0.14925803 0.13692266 0.70020241
0.15124075 0.13648556 0.69796717
0.15321088 0.13605127 0.69574624
0.1551685 0.13561971 0.69353938
0.15711373 0.13519089 0.69134641
0.15904671 0.13476476 0.68916726
0.16096754 0.13434133 0.68700188
0.16287634 0.13392054 0.68485004
0.16477321 0.13350238 0.6827116
0.16665827 0.13308683 0.68058652
0.16853164 0.13267384 0.67847461
0.17039342 0.13226344 0.67637581
0.17224371 0.13185553 0.67428988
0.17408264 0.13145016 0.67221683
0.17591038 0.13104732 0.67015684
0.177727 0.13064699 0.6681096
0.17953254 0.1302491 0.66607481
0.1813271 0.12985361 0.66405231
0.18311085 0.12946053 0.6620422
0.18606278 0.12989289 0.66425318
0.18930572 0.13051513 0.66743523
0.19257987 0.13114335 0.67064786
0.19588572 0.13177766 0.67389166
0.19922368 0.13241814 0.67716694
0.20259412 0.13306478 0.68047374
0.20599754 0.1337177 0.68381274
0.23365274 0.14991592 0.76664805
0.23752525 0.15065888 0.77044743
0.24143694 0.15140961 0.77428657
0.24538743 0.15216763 0.77816296
0.13334319 0.14350267 0.7208631
0.13543651 0.14303108 0.71849412
0.13751611 0.14256257 0.71614069
0.13958214 0.14209713 0.71380264
0.14163473 0.14163473 0.71147978
0.143674 0.14117531 0.70917201
0.14570008 0.14071888 0.7068792
0.14771311 0.14026539 0.70460111
0.14971323 0.13981484 0.70233786
0.15170054 0.13936716 0.70008904
0.15367515 0.13892233 0.69785452
0.15563722 0.13848035 0.69563431
0.15758683 0.13804118 0.69342816
0.15952411 0.13760476 0.6912359
0.16144918 0.1371711 0.68905747
0.16336216 0.13674018 0.68689281
0.16526313 0.13631193 0.68474156
0.16715227 0.13588637 0.68260384
0.16902962 0.13546346 0.68047941
0.17089535 0.13504319 0.67836821
0.17274953 0.13462549 0.67627001
0.17459241 0.13421048 0.67418528
0.17642395 0.13379803 0.67211336
0.17824429 0.1333881 0.6700542
0.18005349 0.13298067 0.66800755
0.18185167 0.13257574 0.66597337
0.18363893 0.13217324 0.66395152
0.18599132 0.13218251 0.66399807
0.18923268 0.13281548 0.66717768
0.19250521 0.13345453 0.67038786
0.19580939 0.13409977 0.67362911
0.19914567 0.13475128 0.67690182
0.20251435 0.135409 0.68020582
0.22972718 0.15180802 0.76258373
0.23355986 0.15255643 0.7663433
0.23743021 0.15331209 0.77013916
0.24134035 0.15407604 0.7739768
0.24528849 0.15484692 0.7778492
0.13376193 0.14650115 0.72312683
0.13586043 0.14601822 0.72074306
0.13794513 0.14553845 0.71837491
0.14001618 0.14506181 0.71602225
0.14207372 0.14458829 0.71368498
0.14411785 0.14411785 0.71136284
0.14614873 0.14365046 0.70905584
0.14816648 0.14318609 0.70676374
0.15017124 0.14272472 0.70448643
0.15216312 0.14226632 0.70222378
0.15414225 0.14181086 0.69997567
0.15610877 0.14135833 0.69774193
0.15806277 0.14090867 0.69552243
0.16000436 0.14046185 0.69331694
0.16193371 0.14001787 0.69112545
0.16385087 0.13957666 0.68894768
0.165756 0.13913825 0.68678367
0.16764921 0.13870257 0.6846332
0.16953057 0.1382696 0.68249607
0.17140029 0.13783939 0.68037254
0.1732585 0.13741191 0.67826247
0.1751052 0.13698706 0.67616546
0.17694053 0.13656485 0.67408139
0.1787646 0.13614522 0.67201012
0.18057747 0.13572817 0.66995156
0.18237926 0.13531365 0.66790551
0.1841701 0.13490167 0.66587198
0.18595007 0.13449219 0.66385078
0.18915968 0.13511406 0.6669203
0.19243059 0.13576391 0.67012799
0.19573313 0.13642006 0.67336673
0.19906768 0.13708253 0.6766367
0.22584303 0.15368016 0.75856227
0.22963609 0.15443362 0.76228136
0.23346677 0.15519468 0.76603788
0.23733649 0.15596397 0.76983511
0.24124356 0.15674017 0.77366638
0.136287 0.1490241 0.72300601
0.13837683 0.14853293 0.72062302
0.14045292 0.14804496 0.71825564
0.14251541 0.14756021 0.71590376
0.14456445 0.1470786 0.71356726
0.14660014 0.14660014 0.71124589
0.14862265 0.14612478 0.70893967
0.15063207 0.1456525 0.70664835
0.15262856 0.14518325 0.70437175
0.1546122 0.14471702 0.70210975
0.15658319 0.14425381 0.69986242
0.15854158 0.14379352 0.69762933
0.16048753 0.14333619 0.69541055
0.16242114 0.14288175 0.69320577
0.16434254 0.1424302 0.69101501
0.16625181 0.14198147 0.68883795
0.1681491 0.14153558 0.68667465
0.17003457 0.14109252 0.68452513
0.17190835 0.14065228 0.68238926
0.17377046 0.14021479 0.68026668
0.17562103 0.13978001 0.67815733
0.17746016 0.13934791 0.67606097
0.17928794 0.13891847 0.67397749
0.18110453 0.13849169 0.67190695
0.18290994 0.1380675 0.66984892
0.18470436 0.13764592 0.66780359
0.18648782 0.13722688 0.66577059
0.18908674 0.13741086 0.66666317
0.19235605 0.13807152 0.66986841
0.19565694 0.13873856 0.67310464
0.19898973 0.13941197 0.67637175
0.22575359 0.15629095 0.75826186
0.2295461 0.15705785 0.76198262
0.23337334 0.15783054 0.76573133
