# .PCD v0.7 - Point Cloud Data file format
VERSION 0.7
FIELDS x y z
SIZE 4 4 4
TYPE F F F
COUNT 1 1 1
WIDTH 890
HEIGHT 1
VIEWPOINT 0 0 0 1 0 0 0
POINTS 890
DATA ascii
-0.29729918 -0.16853265 1.0748932
-0.29438165 -0.16903204 1.0780783
-0.29144681 -0.16953442 1.0812824
-0.28849453 -0.17003982 1.0845058
-0.28552455 -0.17054823 1.0877484
-0.28253677 -0.17105968 1.0910105
-0.27953103 -0.17157422 1.0942922
-0.27650714 -0.17209186 1.0975937
-0.27346498 -0.17261265 1.1009152
-0.27040431 -0.17313656 1.1042567
-0.26732504 -0.17366371 1.1076188
-0.26422668 -0.17419389 1.1110003
-0.26111019 -0.17472787 1.114406
-0.29468527 -0.16329694 1.0654426
-0.29178554 -0.1637764 1.0685709
-0.2888687 -0.16425867 1.0717175
-0.28593469 -0.16474383 1.0748829
-0.28298378 -0.16523214 1.078069
-0.28001451 -0.16572288 1.0812708
-0.27702817 -0.16621691 1.0844941
-0.27402398 -0.16671389 1.0877367
-0.27100173 -0.16721383 1.0909986
-0.26796135 -0.16771682 1.0942804
-0.26490256 -0.1682228 1.0975817
-0.26182529 -0.16873187 1.1009032
-0.25872937 -0.16924402 1.1042447
-0.25561479 -0.16975944 1.1076076
-0.25248015 -0.1702773 1.1109865
-0.24932766 -0.17079927 1.114392
-0.24615578 -0.17132442 1.1178185
-0.29211694 -0.15815248 1.0561566
-0.28923503 -0.15861276 1.0592304
-0.28633636 -0.15907575 1.0623224
-0.28342068 -0.15954144 1.0654323
-0.28048792 -0.16000989 1.0685606
-0.27753785 -0.16048108 1.0717072
-0.27457038 -0.16095506 1.0748725
-0.27158532 -0.16143183 1.0780565
-0.26858249 -0.16191143 1.0812593
-0.26556209 -0.16239408 1.0844824
-0.26252365 -0.16287963 1.087725
-0.25946698 -0.16336809 1.090987
-0.25639191 -0.16385949 1.0942686
-0.25329825 -0.16435383 1.0975698
-0.25018588 -0.16485117 1.1008911
-0.24705467 -0.16535154 1.1042327
-0.24390291 -0.16585398 1.1075879
-0.24073388 -0.16636081 1.1109726
-0.23754543 -0.16687076 1.1143781
-0.23433737 -0.16738383 1.1178045
-0.23110953 -0.16790009 1.1212521
-0.22786172 -0.16841953 1.1247209
-0.29244068 -0.15265772 1.0440274
-0.28959292 -0.1530969 1.047031
-0.28672877 -0.15353863 1.050052
-0.28384802 -0.15398291 1.0530905
-0.28095052 -0.15442976 1.0561465
-0.27803618 -0.15487921 1.0592203
-0.27510485 -0.15533131 1.0623122
-0.27215636 -0.15578605 1.0654222
-0.26919052 -0.15624344 1.0685503
-0.26620725 -0.15670355 1.071697
-0.2632063 -0.15716636 1.0748621
-0.2601876 -0.1576319 1.078046
-0.25715059 -0.15809998 1.0812472
-0.25409627 -0.15857135 1.0844709
-0.25102353 -0.15904544 1.0877132
-0.24793242 -0.15952241 1.0909752
-0.24482268 -0.16000223 1.0942566
-0.24169418 -0.16048494 1.0975579
-0.23854673 -0.16097055 1.1008791
-0.23538166 -0.16146015 1.1042274
-0.23219267 -0.1619495 1.1075741
-0.22898789 -0.1624444 1.1109587
-0.22576348 -0.16294235 1.1143641
-0.22251925 -0.16344334 1.1177905
-0.21925499 -0.16394742 1.1212379
-0.21597055 -0.16445464 1.1247067
-0.21266572 -0.16496499 1.1281971
-0.29151666 -0.14850849 1.0407287
-0.28711206 -0.14812787 1.0380614
-0.28426552 -0.14855166 1.0410312
-0.28140268 -0.14897789 1.0440181
-0.27852243 -0.14940608 1.0470189
-0.27562699 -0.14983749 1.0500422
-0.27271414 -0.15027106 1.0530806
-0.26978436 -0.15070713 1.0561365
-0.26683757 -0.15114576 1.0592103
-0.26387358 -0.15158695 1.0623021
-0.26089221 -0.15203071 1.0654119
-0.25789335 -0.15247709 1.0685401
-0.25487679 -0.15292609 1.0716866
-0.25184244 -0.15337773 1.0748516
-0.24879013 -0.15383206 1.0780356
-0.24571966 -0.15428908 1.0812384
-0.24263127 -0.15474908 1.0844619
-0.23952371 -0.15521136 1.0877016
-0.23639812 -0.15567681 1.0909634
-0.23325372 -0.15614505 1.0942447
-0.23009036 -0.15661612 1.097546
-0.22690888 -0.15709077 1.1008722
-0.2237048 -0.157566 1.1042025
-0.22048272 -0.15804513 1.1075603
-0.2172422 -0.15852809 1.1109447
-0.21398182 -0.15901402 1.1143501
-0.21070142 -0.15950294 1.1177764
-0.20740077 -0.15999487 1.1212238
-0.20407967 -0.16048984 1.1246924
-0.20073797 -0.16098788 1.1281826
-0.19737548 -0.16148902 1.1316947
-0.19399199 -0.16199331 1.1352286
-0.2918123 -0.14498851 1.0417842
-0.28736904 -0.14459971 1.0389905
-0.28294948 -0.14421296 1.0362116
-0.27899852 -0.14405806 1.0350987
-0.27613702 -0.14446904 1.0380516
-0.2732591 -0.14488235 1.0410213
-0.2703647 -0.14529805 1.0440083
-0.26745361 -0.14571612 1.0470122
-0.26452574 -0.14613661 1.0500336
-0.26158094 -0.14655954 1.0530725
-0.25861895 -0.14698488 1.0561286
-0.25563917 -0.14741236 1.0592003
-0.25264248 -0.14784263 1.0622919
-0.24962829 -0.14827545 1.0654018
-0.24659638 -0.14871079 1.0685298
-0.24354659 -0.14914869 1.0716763
-0.24047883 -0.1495892 1.0748414
-0.23739287 -0.1500323 1.0780252
-0.23428856 -0.15047802 1.0812279
-0.23116566 -0.15092634 1.0844492
-0.22802612 -0.15137868 1.0876994
-0.22486407 -0.1518313 1.0909516
-0.22168502 -0.15228797 1.0942329
-0.21848679 -0.15274741 1.0975341
-0.21526986 -0.15321009 1.1008586
-0.21202943 -0.15367271 1.1041826
-0.20877306 -0.15414086 1.1075464
-0.20549682 -0.15461189 1.1109309
-0.20220047 -0.1550858 1.1143361
-0.19888386 -0.15556262 1.1177622
-0.19554682 -0.15604241 1.1212096
-0.1921903 -0.15652613 1.1246853
-0.18881135 -0.15701154 1.1281731
-0.18541157 -0.15750015 1.1316839
-0.2921086 -0.1414614 1.0428419
-0.28766003 -0.14108168 1.0400426
-0.28323522 -0.14070395 1.037258
-0.27883402 -0.14032823 1.0344883
-0.27445632 -0.13995454 1.0317335
-0.27093121 -0.14001143 1.0321529
-0.26805487 -0.14040971 1.0350889
-0.2651622 -0.14081027 1.0380418
-0.26225293 -0.1412131 1.0410116
-0.25932693 -0.14161825 1.0439982
-0.25638413 -0.14202574 1.0470022
-0.25342435 -0.14243558 1.0500236
-0.25044742 -0.14284779 1.0530623
-0.24745323 -0.1432624 1.0561187
-0.24444158 -0.14367941 1.0591929
-0.24141237 -0.14409886 1.0622851
-0.23836508 -0.14452057 1.0653938
-0.23529902 -0.14494421 1.0685169
-0.23221663 -0.14537138 1.071666
-0.22911541 -0.14580071 1.074831
-0.22599581 -0.14623259 1.0780147
-0.2228577 -0.14666703 1.0812174
-0.21970087 -0.14710405 1.0844392
-0.21652585 -0.14754416 1.0876836
-0.21333097 -0.14798635 1.0909433
-0.21011657 -0.14843096 1.094221
-0.20688502 -0.14887989 1.0975304
-0.20363033 -0.1493289 1.1008406
-0.20035557 -0.14978038 1.1041688
-0.1970637 -0.15023668 1.1075326
-0.19375172 -0.15069579 1.1109171
-0.19042231 -0.15115999 1.1143391
-0.18706641 -0.15162224 1.1177468
-0.18369468 -0.15209129 1.1212046
-0.18030013 -0.15256165 1.1246721
-0.17688452 -0.15303491 1.128161
-0.29240546 -0.1379271 1.0439017
-0.28795162 -0.13755649 1.0410968
-0.28352153 -0.13718784 1.0383066
-0.27911517 -0.13682117 1.0355314
-0.27473229 -0.13645644 1.032771
-0.27037272 -0.13609365 1.0300252
-0.26603627 -0.13573278 1.027294
-0.26290968 -0.13598776 1.0292238
-0.2600188 -0.13637349 1.0321432
-0.25711143 -0.1367614 1.0350791
-0.25418755 -0.13715157 1.0380321
-0.2512469 -0.13754393 1.0410017
-0.24828939 -0.13793854 1.0439883
-0.24531487 -0.13833545 1.0469923
-0.24232316 -0.13873464 1.0500135
-0.23931415 -0.13913614 1.0530523
-0.23628765 -0.13953996 1.0561086
-0.23324355 -0.13994613 1.0591828
-0.23018166 -0.14035468 1.0622748
-0.22710188 -0.14076562 1.0653851
-0.22400397 -0.14117898 1.0685135
-0.2208879 -0.14159481 1.0716608
-0.21775247 -0.14201249 1.0748219
-0.21459642 -0.14243124 1.0779914
-0.21142809 -0.14285682 1.0812123
-0.20823617 -0.14328177 1.0844285
-0.20502625 -0.14370999 1.0876695
-0.20179763 -0.14414117 1.0909328
-0.19854863 -0.14457424 1.0942106
-0.19562957 -0.14526948 1.0994725
-0.19242844 -0.14577913 1.1033298
-0.18891367 -0.14606728 1.1055106
-0.18535542 -0.14633323 1.1075236
-0.18200928 -0.14678167 1.1109176
-0.17864081 -0.14723143 1.1143216
-0.17525162 -0.14768395 1.1177465
-0.17184156 -0.14813927 1.1211926
-0.29718614 -0.134749 1.0477892
-0.29270294 -0.13438563 1.0449637
-0.28824377 -0.13402417 1.0421531
-0.28380847 -0.13366464 1.0393574
-0.27939686 -0.133307 1.0365765
-0.27500883 -0.13295129 1.0338105
-0.27064416 -0.13259746 1.0310593
-0.26630262 -0.13224553 1.0283226
-0.26198411 -0.13189544 1.0256004
-0.2578277 -0.13161834 1.0234457
-0.25493333 -0.13198675 1.0263104
-0.25202829 -0.13236018 1.0292141
-0.24910656 -0.13273561 1.0321335
-0.2461682 -0.13311318 1.0350693
-0.24321312 -0.13349292 1.0380222
-0.24024111 -0.13387482 1.0409918
-0.23725206 -0.13425891 1.0439785
-0.23424579 -0.13464522 1.0469823
-0.2312222 -0.13503376 1.0500035
-0.22818106 -0.13542454 1.0530422
-0.2251223 -0.13581759 1.0560985
-0.22204572 -0.13621292 1.0591725
-0.21895118 -0.13661057 1.0622646
-0.21583852 -0.13701054 1.0653747
-0.21270761 -0.13741288 1.0685033
-0.20955822 -0.13781756 1.07165
-0.20639025 -0.13822466 1.0748155
-0.20320347 -0.13863415 1.0779996
-0.19999796 -0.13904619 1.0812037
-0.19677177 -0.13945961 1.0844183
-0.19613433 -0.14176045 1.1023093
-0.19283503 -0.14219148 1.105661
-0.18926311 -0.14243512 1.1075555
-0.18550199 -0.14254363 1.1083993
-0.18158028 -0.14253075 1.1082991
-0.17749535 -0.14238638 1.1071764
-0.17364942 -0.14243154 1.1075276
-0.17026356 -0.14286482 1.1108968
-0.16686156 -0.14330463 1.1143167
-0.16343516 -0.14374419 1.1177346
-0.29748961 -0.13119107 1.0488592
-0.29300103 -0.13083693 1.0460279
-0.28853655 -0.13048469 1.0432117
-0.28409594 -0.13013427 1.0404102
-0.27967912 -0.12978573 1.0376236
-0.27528587 -0.12943906 1.034852
-0.2709161 -0.12909424 1.0320953
-0.2665695 -0.12875126 1.0293531
-0.26224595 -0.12841009 1.0266255
-0.25825968 -0.12822683 1.0251604
-0.25481793 -0.12831257 1.0258459
-0.25137153 -0.12839842 1.0265322
-0.24792054 -0.12848437 1.0272194
-0.24446495 -0.12857045 1.0279076
-0.24114585 -0.128732 1.0291991
-0.23819345 -0.12909721 1.032119
-0.23522425 -0.12946451 1.0350555
-0.23223811 -0.12983391 1.0380088
-0.2292349 -0.13020542 1.040979
-0.22621441 -0.13057905 1.0439662
-0.2231766 -0.13095486 1.0469707
-0.2201212 -0.13133281 1.0499924
-0.21704812 -0.13171296 1.0530317
-0.21395724 -0.13209534 1.0560887
-0.2108483 -0.13247991 1.0591633
-0.20772123 -0.13286674 1.062256
-0.20457585 -0.13325582 1.0653667
-0.20141201 -0.13364722 1.0684959
-0.19822951 -0.13404091 1.0716434
-0.19502622 -0.13443555 1.0747985
-0.19180268 -0.13483159 1.0779648
-0.19322973 -0.13857889 1.1079241
-0.18960416 -0.13878243 1.1095513
-0.18579811 -0.13885963 1.1101686
-0.18183084 -0.1388171 1.1098285
-0.17769518 -0.1386413 1.108423
-0.17332731 -0.13827235 1.1054733
-0.16871814 -0.13768952 1.1008136
-0.16534089 -0.13810827 1.1041615
-0.16194138 -0.13852817 1.1075186
-0.15852113 -0.13895062 1.110896
-0.29779369 -0.12762587 1.0499313
-0.2932997 -0.12728101 1.0470942
-0.28882989 -0.12693799 1.0442723
-0.28438401 -0.12659675 1.0414652
-0.27996197 -0.12625736 1.038673
-0.27556354 -0.12591977 1.0358958
-0.27118862 -0.12558399 1.0331335
-0.26683691 -0.12524998 1.0303857
-0.26250836 -0.12491777 1.0276527
-0.2586931 -0.12482394 1.0268809
-0.25524589 -0.12490757 1.0275688
-0.25179401 -0.12499126 1.0282574
-0.24833748 -0.12507507 1.0289469
-0.24487633 -0.12515901 1.0296373
-0.24141052 -0.12524305 1.0303288
-0.23794007 -0.12532721 1.0310211
-0.23446494 -0.12541148 1.0317143
-0.23098515 -0.12549587 1.0324086
-0.22750066 -0.12558037 1.0331037
-0.22428004 -0.12581563 1.0350392
-0.22126272 -0.12617461 1.0379924
-0.21822815 -0.12653565 1.0409625
-0.21517615 -0.12689875 1.0439496
-0.21210659 -0.12726395 1.0469539
-0.2090193 -0.12763126 1.0499756
-0.20591417 -0.12800069 1.0530149
-0.20279098 -0.12837227 1.0560716
-0.19964959 -0.12874599 1.0591462
-0.19648989 -0.12912193 1.0622388
-0.19331166 -0.12950005 1.0653495
-0.19011478 -0.1298804 1.0684785
-0.18689905 -0.13026297 1.0716258
-0.18366246 -0.13064648 1.0747808
-0.18040945 -0.13103423 1.0779706
-0.18207246 -0.13508601 1.1113032
-0.1778806 -0.1348765 1.1095796
-0.17341642 -0.13444644 1.1060417
-0.16719626 -0.13260393 1.090884
-0.16384666 -0.13300493 1.0941828
-0.16047363 -0.13340579 1.0974805
-0.15708002 -0.13380891 1.1007969
-0.29809836 -0.12405336 1.0510055
-0.29359898 -0.12371781 1.0481627
-0.28912383 -0.12338406 1.0453351
-0.28467268 -0.12305206 1.0425223
-0.28024536 -0.12272183 1.0397245
-0.27584174 -0.12239336 1.0369416
-0.27146167 -0.12206665 1.0341737
-0.26710486 -0.12174168 1.0314205
-0.26277125 -0.12141843 1.0286819
-0.25912794 -0.1214096 1.028607
-0.25567526 -0.12149108 1.0292974
-0.25221789 -0.12157265 1.0299884
-0.24875581 -0.1216543 1.0306802
-0.24528912 -0.12173608 1.031373
-0.24181773 -0.12181795 1.0320667
-0.23834172 -0.12189996 1.0327615
-0.23486096 -0.12198205 1.0334569
-0.23137555 -0.12206426 1.0341535
-0.22788543 -0.12214659 1.034851
-0.22439058 -0.12222902 1.0355493
-0.22089107 -0.12231158 1.0362488
-0.21738677 -0.12239423 1.036949
-0.21387777 -0.12247701 1.0376503
-0.21036398 -0.12255988 1.0383525
-0.20722175 -0.12286599 1.0409459
-0.20413823 -0.12321857 1.043933
-0.20103694 -0.12357317 1.0469372
-0.19791777 -0.12392982 1.0499588
-0.19478054 -0.12428854 1.0529979
-0.19162507 -0.12464932 1.0560546
-0.18845125 -0.12501222 1.0591291
-0.18525888 -0.12537722 1.0622215
-0.18204783 -0.12574439 1.0653322
-0.1788156 -0.12611206 1.0684472
-0.17556688 -0.12648366 1.0715955
-0.17229873 -0.12685731 1.0747612
-0.16901124 -0.12723318 1.0779456
-0.16570419 -0.12761126 1.0811489
-0.162378 -0.12799206 1.084375
-0.1590306 -0.1283741 1.0876117
-0.15566492 -0.12875988 1.09088
-0.29840371 -0.12047355 1.0520821
-0.29389888 -0.12014734 1.0492333
-0.2894184 -0.1198229 1.0464001
-0.28496191 -0.11950015 1.0435815
-0.28052935 -0.11917913 1.040778
-0.27612051 -0.11885983 1.0379896
-0.27173528 -0.11854223 1.0352161
-0.26737338 -0.11822633 1.0324574
-0.2630347 -0.11791211 1.0297133
-0.25956431 -0.11798377 1.0303391
-0.25610605 -0.11806307 1.0310316
-0.25264317 -0.11814249 1.0317252
-0.24917555 -0.11822198 1.0324193
-0.24570327 -0.11830158 1.0331144
-0.24222632 -0.11838128 1.0338105
-0.23874468 -0.11846109 1.0345075
-0.23525833 -0.11854102 1.0352055
-0.23176728 -0.11862105 1.0359044
-0.22827153 -0.1187012 1.0366043
-0.22477102 -0.11878143 1.037305
-0.22126581 -0.11886179 1.0380068
-0.21775581 -0.11894225 1.0387094
-0.2142411 -0.11902283 1.0394131
-0.21072158 -0.11910351 1.0401176
-0.20719732 -0.11918431 1.0408232
-0.20366828 -0.11926521 1.0415298
-0.20013443 -0.11934622 1.0422372
-0.19659577 -0.11942734 1.0429456
-0.19310065 -0.1195385 1.0439163
-0.18996766 -0.11988251 1.0469205
-0.18681659 -0.12022849 1.049942
-0.18364727 -0.12057649 1.052981
-0.18045953 -0.12092649 1.0560375
-0.17725259 -0.12127809 1.059108
-0.17402714 -0.12163188 1.0621976
-0.17078322 -0.12198802 1.0653077
-0.16752028 -0.12234628 1.0684364
-0.1642381 -0.12270663 1.0715833
-0.16093653 -0.12306912 1.0747489
-0.15761541 -0.12343375 1.0779332
-0.15427451 -0.12380053 1.0811362
-0.30324453 -0.11720493 1.0560309
-0.29870969 -0.1168864 1.0531608
-0.29419941 -0.11656958 1.0503062
-0.28971353 -0.11625448 1.0474671
-0.28525174 -0.11594103 1.0446429
-0.2808139 -0.11562925 1.0418338
-0.27639988 -0.11531916 1.0390397
-0.27200943 -0.11501069 1.0362605
-0.26764241 -0.11470389 1.0334961
-0.2634612 -0.11446935 1.0313829
-0.26000211 -0.11454638 1.032077
-0.25653833 -0.11462352 1.0327719
-0.25306988 -0.11470074 1.0334678
-0.2495967 -0.11477805 1.0341643
-0.24611884 -0.11485546 1.0348618
-0.24263629 -0.11493298 1.0355603
-0.23914903 -0.1150106 1.0362597
-0.23565707 -0.11508833 1.03696
-0.23216034 -0.11516616 1.0376612
-0.22865891 -0.1152441 1.0383635
-0.22515276 -0.11532214 1.0390667
-0.22164184 -0.1154003 1.0397708
-0.21812613 -0.11547854 1.0404758
-0.21460566 -0.1155569 1.0411818
-0.21108043 -0.11563537 1.0418888
-0.20755041 -0.11571394 1.0425968
-0.20401555 -0.11579261 1.0433056
-0.20047592 -0.1158714 1.0440155
-0.19693145 -0.11595029 1.0447264
-0.19338217 -0.11602931 1.0454383
-0.18982804 -0.11610841 1.046151
-0.18626904 -0.11618762 1.0468647
-0.18270521 -0.11626695 1.0475795
-0.17913648 -0.11634637 1.0482951
-0.17571576 -0.11652729 1.0499252
-0.17251417 -0.11686444 1.0529629
-0.16940171 -0.1172781 1.0566901
-0.16647758 -0.11784368 1.0617861
-0.16352515 -0.11841477 1.0669316
-0.16054396 -0.11899141 1.0721272
-0.1575336 -0.1195737 1.0773737
-0.15449364 -0.12016172 1.0826719
-0.30355659 -0.11360094 1.0571177
-0.29901624 -0.11329187 1.0542417
-0.29450053 -0.11298448 1.0513812
-0.29000926 -0.11267876 1.0485363
-0.28554216 -0.11237466 1.0457065
-0.28109902 -0.11207216 1.0428916
-0.27667975 -0.11177129 1.0400919
-0.27228412 -0.11147203 1.037307
-0.267912 -0.11117437 1.0345372
-0.26390603 -0.11102254 1.0331243
-0.26044136 -0.11109737 1.0338206
-0.25697201 -0.1111723 1.0345179
-0.25349802 -0.11124733 1.0352161
-0.25001931 -0.11132246 1.0359153
-0.24653584 -0.11139768 1.0366151
-0.24304765 -0.11147299 1.037316
-0.23955476 -0.1115484 1.0380177
-0.23605715 -0.11162392 1.0387205
-0.23255475 -0.11169953 1.0394241
-0.22904764 -0.11177525 1.0401287
-0.22553575 -0.11185107 1.0408342
-0.22201912 -0.111927 1.0415407
-0.21849768 -0.11200301 1.0422481
-0.21497147 -0.11207914 1.0429566
-0.21144049 -0.11215539 1.0436661
-0.20790465 -0.11223172 1.0443764
-0.20436405 -0.11230817 1.0450878
-0.20081858 -0.11238471 1.0458001
-0.19726829 -0.11246136 1.0465133
-0.19371316 -0.11253812 1.0472276
-0.19015315 -0.11261497 1.0479428
-0.18658829 -0.11269194 1.048659
-0.18301855 -0.11276901 1.0493761
-0.17944388 -0.11284615 1.050094
-0.17586431 -0.1129234 1.0508128
-0.1727673 -0.11332049 1.054508
-0.16986549 -0.11386587 1.0595831
-0.16693556 -0.11441651 1.064707
-0.16397719 -0.11497252 1.069881
-0.16098994 -0.11553396 1.0751054
-0.15797335 -0.1161009 1.0803812
-0.15492703 -0.11667344 1.085709
-0.30386934 -0.10998952 1.0582068
-0.29932347 -0.10968997 1.0553248
-0.29480228 -0.10939205 1.0524585
-0.29030561 -0.10909574 1.0496078
-0.28583318 -0.10880101 1.0467722
-0.28138474 -0.10850784 1.0439516
-0.27696022 -0.10821624 1.0411462
-0.27255943 -0.10792622 1.0383558
-0.26818213 -0.10763773 1.0355803
-0.26435235 -0.10756407 1.0348716
-0.26088214 -0.10763669 1.0355703
-0.25740722 -0.10770941 1.0362699
-0.25392762 -0.10778223 1.0369705
-0.25044331 -0.10785514 1.037672
-0.24695425 -0.10792815 1.0383744
-0.24346043 -0.10800124 1.0390776
-0.23996185 -0.10807442 1.0397817
-0.23645855 -0.10814771 1.0404868
-0.23295051 -0.1082211 1.0411929
-0.22943769 -0.10829459 1.0418999
-0.2259201 -0.10836817 1.0426079
-0.2223977 -0.10844185 1.0433167
-0.21887052 -0.10851564 1.0440266
-0.21533854 -0.10858952 1.0447375
-0.21180177 -0.10866351 1.0454494
-0.20826015 -0.1087376 1.0461621
-0.20471369 -0.10881178 1.0468758
-0.20116241 -0.10888608 1.0475906
-0.19760628 -0.10896047 1.0483063
-0.19404528 -0.10903496 1.049023
-0.19047934 -0.10910953 1.0497404
-0.18690853 -0.10918419 1.0504588
-0.18333283 -0.10925896 1.0511781
-0.17975223 -0.10933384 1.0518985
-0.17616671 -0.1094088 1.0526197
-0.17323923 -0.10990445 1.0573884
-0.17033179 -0.1104349 1.0624918
-0.16739608 -0.11097044 1.0676442
-0.16443175 -0.11151119 1.0728468
-0.16143838 -0.11205723 1.0781002
-0.15841557 -0.11260866 1.0834055
-0.15536286 -0.11316554 1.0887632
-0.30418271 -0.10637064 1.059298
-0.29963133 -0.10608065 1.0564102
-0.29510465 -0.10579223 1.053538
-0.29060254 -0.10550538 1.0506814
-0.28612477 -0.10522008 1.0478401
-0.28167105 -0.10493626 1.0450138
-0.27724126 -0.10465399 1.0422027
-0.27283522 -0.10437321 1.0394065
-0.26845279 -0.10409394 1.0366254
-0.26480022 -0.10409388 1.0366248
-0.26132441 -0.10416427 1.0373259
-0.25784391 -0.10423477 1.0380279
-0.25435868 -0.10430536 1.0387309
-0.25086874 -0.10437605 1.0394348
-0.24737407 -0.10444683 1.0401397
-0.24387459 -0.10451768 1.0408453
-0.24037036 -0.10458863 1.0415518
-0.23686135 -0.10465966 1.0422592
-0.23334758 -0.10473081 1.0429677
-0.22982904 -0.10480204 1.0436771
-0.22630571 -0.10487337 1.0443875
-0.22277759 -0.10494482 1.0450989
-0.21924464 -0.10501634 1.0458112
-0.21570688 -0.10508797 1.0465245
-0.21216428 -0.10515969 1.0472387
-0.20861685 -0.10523151 1.047954
-0.20506456 -0.10530343 1.0486702
-0.20150737 -0.10537542 1.0493871
-0.19794531 -0.10544751 1.050105
-0.19437838 -0.10551969 1.0508238
-0.19080655 -0.10559198 1.0515437
-0.18722981 -0.10566435 1.0522645
-0.18364818 -0.10573684 1.0529863
-0.18006165 -0.10580942 1.0537091
-0.17659891 -0.10595934 1.0552021
-0.17371374 -0.10646972 1.0602847
-0.17080067 -0.10698504 1.0654166
-0.16785914 -0.10750529 1.0705975
-0.16488881 -0.1080306 1.0758289
-0.16188934 -0.10856109 1.0811118
-0.15886027 -0.10909681 1.0864468
-0.30449671 -0.10274429 1.0603915
-0.29993978 -0.1024639 1.0574977
-0.29540765 -0.10218503 1.0546197
-0.29090011 -0.10190769 1.0517572
-0.28641698 -0.10163184 1.0489103
-0.28195789 -0.10135742 1.0460781
-0.27752286 -0.10108449 1.0432613
-0.27311164 -0.10081302 1.0404595
-0.26872626 -0.10054384 1.0376815
-0.26524958 -0.10061191 1.038384
-0.26176819 -0.10068007 1.0390874
-0.25828207 -0.10074832 1.0397918
-0.2547912 -0.10081667 1.0404972
-0.25129563 -0.1008851 1.0412035
-0.24779528 -0.10095363 1.0419108
-0.24429016 -0.10102224 1.0426189
-0.24078022 -0.10109094 1.0433278
-0.23726554 -0.10115973 1.0440378
-0.23374605 -0.1012286 1.0447487
-0.23022176 -0.10129757 1.0454605
-0.22669268 -0.10136665 1.0461733
-0.22315876 -0.1014358 1.046887
-0.21962003 -0.10150506 1.0476018
-0.21607646 -0.10157441 1.0483176
-0.21252799 -0.10164382 1.049034
-0.20897467 -0.10171334 1.0497514
-0.2054165 -0.10178295 1.0504699
-0.20185342 -0.10185265 1.0511892
-0.19828546 -0.10192243 1.0519094
-0.19471262 -0.10199232 1.0526308
-0.1911349 -0.10206232 1.0533532
-0.18755223 -0.1021324 1.0540764
-0.18396463 -0.10220256 1.0548006
-0.1803721 -0.10227284 1.0555259
-0.17708161 -0.10252094 1.0580864
-0.17419086 -0.10301611 1.0631969
-0.17127207 -0.10351608 1.068357
-0.16832477 -0.10402092 1.0735673
-0.16534847 -0.10453065 1.078828
-0.16234283 -0.10504536 1.0841402
-0.15930746 -0.10556519 1.0895052
-0.3195495 -0.10264318 1.0993234
-0.30481139 -0.099110454 1.0614874
-0.30024889 -0.098839693 1.0585876
-0.29571128 -0.098570421 1.0557036
-0.29119828 -0.098302603 1.0528352
-0.28670976 -0.098036237 1.0499824
-0.2822454 -0.09777128 1.0471447
-0.27780503 -0.09750773 1.044322
-0.27338859 -0.097245604 1.0415146
-0.26918277 -0.097052291 1.0394442
-0.26570049 -0.097118102 1.0401491
-0.26221347 -0.09718401 1.0408549
-0.25872171 -0.09725 1.0415617
-0.25522521 -0.097316086 1.0422695
-0.25172395 -0.097382255 1.0429782
-0.24821794 -0.097448528 1.0436879
-0.24470714 -0.097514875 1.0443985
-0.24119152 -0.097581305 1.04511
-0.23767108 -0.097647808 1.0458223
-0.23414585 -0.097714409 1.0465356
-0.23061581 -0.097781107 1.0472499
-0.22708094 -0.097847886 1.0479652
-0.22354122 -0.097914748 1.0486813
-0.2199966 -0.097981676 1.0493981
-0.21644716 -0.098048717 1.0501161
-0.21289285 -0.098115832 1.0508349
-0.20933364 -0.098183036 1.0515547
-0.20576958 -0.098250344 1.0522755
-0.20220064 -0.098317742 1.0529974
-0.19862677 -0.098385222 1.0537201
-0.19504802 -0.098452806 1.054444
-0.19146433 -0.09852048 1.0551687
-0.18787573 -0.098588258 1.0558946
-0.18428217 -0.09865611 1.0566213
-0.18068366 -0.09872406 1.0573491
-0.17756701 -0.099063694 1.0609866
-0.17467062 -0.099543475 1.0661252
-0.17174608 -0.10002793 1.0713137
-0.16879292 -0.10051712 1.0765531
-0.16581066 -0.10101109 1.0818435
-0.16279888 -0.10150989 1.0871857
-0.1597572 -0.10201363 1.0925809
-0.30971989 -0.095731609 1.0655073
-0.3051267 -0.095469095 1.0625855
-0.30055863 -0.095208012 1.0596796
-0.2960155 -0.094948366 1.0567898
-0.29149705 -0.094690129 1.0539155
-0.28700313 -0.094433293 1.0510569
-0.28253344 -0.094177812 1.0482134
-0.27808779 -0.093923695 1.045385
-0.27366608 -0.093670942 1.0425718
-0.2696408 -0.093548849 1.0412129
-0.26615289 -0.093612395 1.0419202
-0.26266024 -0.093676031 1.0426284
-0.25916284 -0.093739755 1.0433377
-0.25566068 -0.093803555 1.0440478
-0.25215375 -0.093867458 1.044759
-0.24864204 -0.093931444 1.0454712
-0.24512552 -0.093995504 1.0461842
-0.24160421 -0.094059654 1.0468982
-0.23807804 -0.094123878 1.047613
-0.23454702 -0.094188169 1.0483286
-0.23101111 -0.094252534 1.049045
-0.2274704 -0.094316997 1.0497625
-0.22392483 -0.094381541 1.0504808
-0.22037439 -0.094446167 1.0512002
-0.21681909 -0.094510891 1.0519205
-0.21325892 -0.094575696 1.0526419
-0.20969386 -0.09464059 1.0533642
-0.20612389 -0.094705574 1.0540874
-0.20254904 -0.094770648 1.0548117
-0.19896927 -0.094835825 1.0555371
-0.19538456 -0.09490107 1.0562633
-0.19179492 -0.094966419 1.0569906
-0.18820034 -0.095031857 1.057719
-0.1846008 -0.095097385 1.0584483
-0.18099628 -0.095162995 1.0591786
-0.17805502 -0.095587432 1.0639026
-0.17515303 -0.096051663 1.0690696
-0.17222269 -0.096520409 1.0742868
-0.16926365 -0.096993774 1.0795554
-0.16627544 -0.097471811 1.0848761
-0.16325748 -0.097954489 1.0902483
-0.16020948 -0.098441966 1.095674
-0.31004149 -0.092072934 1.0666137
-0.30544266 -0.091820188 1.0636858
-0.30086902 -0.091568835 1.060774
-0.29632035 -0.091318846 1.057878
-0.29179645 -0.091070227 1.0549979
-0.2872971 -0.090822957 1.0521334
-0.28282204 -0.090576999 1.0492841
-0.27837113 -0.090332352 1.04645
-0.27394417 -0.090089023 1.0436312
-0.27010041 -0.090033472 1.0429877
-0.2666069 -0.090094745 1.0436975
-0.26310858 -0.090156086 1.0444081
-0.25960553 -0.090217516 1.0451198
-0.25609764 -0.090279028 1.0458323
-0.25258502 -0.090340622 1.0465459
-0.24906757 -0.090402305 1.0472604
-0.24554536 -0.090464078 1.047976
-0.23494938 -0.090649761 1.050127
-0.23140769 -0.09071181 1.0508459
-0.22786112 -0.090773948 1.0515656
-0.22430976 -0.090836182 1.0522866
-0.22075348 -0.090898491 1.0530084
-0.21719231 -0.090960883 1.0537312
-0.21362627 -0.091023363 1.054455
-0.21005531 -0.091085933 1.0551798
-0.20647946 -0.091148593 1.0559057
-0.20289865 -0.091211319 1.0566324
-0.19931296 -0.091274157 1.0573603
-0.1957223 -0.09133707 1.0580891
-0.19212668 -0.091400065 1.0588189
-0.18852608 -0.091463149 1.0595497
-0.18492055 -0.09152633 1.0602816
-0.18142533 -0.091647848 1.0616894
-0.17854576 -0.092092022 1.0668348
-0.17563811 -0.09254051 1.0720303
-0.17270201 -0.092993394 1.0772767
-0.16973703 -0.093450718 1.0825746
-0.16674273 -0.093912564 1.0879248
-0.16371867 -0.094379 1.0933282
-0.3103638 -0.08840666 1.0677224
-0.30575931 -0.088163726 1.0647885
-0.30118006 -0.087922126 1.0618706
-0.29662582 -0.087681852 1.0589687
-0.29209647 -0.08744289 1.0560826
-0.28759167 -0.087205216 1.0532122
-0.2831113 -0.086968832 1.0503572
-0.27865502 -0.086733684 1.0475173
-0.27422279 -0.086499803 1.0446926
-0.27056161 -0.086506091 1.0447686
-0.26706243 -0.086565062 1.0454807
-0.26355842 -0.086624093 1.0461937
-0.26004964 -0.086683221 1.0469078
-0.25653613 -0.086742431 1.0476229
-0.25301778 -0.086801723 1.048339
-0.2494946 -0.086861081 1.0490559
-0.24596645 -0.086920477 1.0497732
-0.21756682 -0.087398641 1.0555482
-0.21399488 -0.087458774 1.0562745
-0.21041802 -0.087518997 1.0570018
-0.20683621 -0.087579295 1.0577301
-0.20324948 -0.087639682 1.0584594
-0.19965781 -0.087700158 1.0591898
-0.19606118 -0.087760717 1.0599211
-0.19245955 -0.08782135 1.0606534
-0.18885297 -0.087882072 1.0613868
-0.18524137 -0.087942876 1.0621212
-0.18192433 -0.088148899 1.0646094
-0.1790392 -0.088577285 1.0697832
-0.17612587 -0.089009851 1.0750074
-0.17318396 -0.089446664 1.080283
-0.17021306 -0.089887798 1.0856107
-0.16721268 -0.09033329 1.0909911
-0.16418244 -0.090783231 1.0964253
-0.31068674 -0.084732749 1.0688335
-0.30607659 -0.084499672 1.0658934
-0.30149174 -0.084267877 1.0629694
-0.29693195 -0.084037349 1.0600616
-0.29239708 -0.083808079 1.0571696
-0.28788689 -0.083580062 1.0542933
-0.28340113 -0.083353274 1.0514325
-0.27893952 -0.08312767 1.0485867
-0.27452445 -0.082910061 1.0458418
-0.27102435 -0.082966633 1.0465554
-0.2675195 -0.083023287 1.0472701
-0.2640098 -0.083080009 1.0479856
-0.26049536 -0.083136819 1.0487021
-0.2569761 -0.083193697 1.0494196
-0.253452 -0.083250657 1.0501381
-0.24992284 -0.083307616 1.0508566
-0.24638885 -0.083364651 1.051576
-0.20000386 -0.084113777 1.0610256
-0.19640122 -0.084171951 1.0617595
-0.19279359 -0.084230214 1.0624944
-0.18918097 -0.084288552 1.0632303
-0.18556333 -0.084346965 1.0639671
-0.18242604 -0.084630638 1.0675454
-0.17953536 -0.085043065 1.0727478
-0.17661637 -0.085459538 1.0780013
-0.17366864 -0.085880093 1.0833063
-0.31101036 -0.081051186 1.0699468
-0.30639452 -0.080827996 1.0670005
-0.30180404 -0.080606051 1.0640706
-0.29723871 -0.080385312 1.0611566
-0.29269832 -0.080165781 1.0582587
-0.28818265 -0.079947442 1.0553764
-0.28369153 -0.079730295 1.0525099
-0.27922457 -0.07951428 1.0496583
-0.27499446 -0.07936082 1.0476325
-0.2714887 -0.079415061 1.0483485
-0.26797813 -0.079469375 1.0490655
-0.26446274 -0.079523765 1.0497835
-0.26094258 -0.079578236 1.0505025
-0.25741753 -0.079632759 1.0512223
-0.25388741 -0.079687297 1.0519422
-0.25035247 -0.079741903 1.0526631
-0.2468127 -0.07979659 1.053385
-0.30671313 -0.077148698 1.0681101
-0.30211699 -0.076936625 1.065174
-0.29754609 -0.076725721 1.0622541
-0.29300016 -0.076515965 1.05935
-0.28847906 -0.076307364 1.0564619
-0.28398252 -0.076099887 1.0535895
-0.27951023 -0.075893506 1.0507321
-0.27546608 -0.075799391 1.0494292
-0.27195463 -0.075851291 1.0501477
-0.26843837 -0.075903259 1.0508672
-0.26491728 -0.075955302 1.0515877
-0.26139122 -0.076007381 1.0523087
-0.25786021 -0.07605949 1.0530301
-0.25432435 -0.076111667 1.0537525
-0.25078362 -0.076163918 1.0544759
-0.24723801 -0.076216228 1.0552002
-0.29785413 -0.07305856 1.0633538
-0.29330269 -0.072858624 1.0604438
-0.28877607 -0.072659783 1.0575496
-0.2842741 -0.072462022 1.0546713
-0.27979645 -0.072265312 1.0518081
-0.27593935 -0.072225735 1.0512321
-0.27242216 -0.072275266 1.0519531
-0.26890019 -0.072324879 1.0526751
-0.26537314 -0.072374493 1.0533973
-0.26184121 -0.072424158 1.0541202
-0.25830442 -0.072473899 1.0548441
-0.25476274 -0.072523698 1.0555689
-0.25121623 -0.07257358 1.0562949
-0.29360577 -0.069193721 1.0615396
-0.28907368 -0.069004685 1.0586395
-0.28456628 -0.068816677 1.0557553
-0.28008327 -0.068629682 1.0528864
-0.27641422 -0.06863977 1.0530412
-0.27289131 -0.068686932 1.0537647
-0.26936331 -0.068734087 1.0544882
-0.26583046 -0.068781309 1.0552126
-0.26229274 -0.06882859 1.055938
-0.25875014 -0.068875939 1.0566643
-0.25520268 -0.068923354 1.0573918
-0.2516503 -0.068970829 1.0581201
-0.28485906 -0.065163836 1.0568415
-0.28041455 -0.064996749 1.0541316
-0.2768907 -0.065041438 1.0548564
-0.27336174 -0.065086126 1.0555812
-0.26982799 -0.065130889 1.0563072
-0.26628932 -0.065175705 1.057034
-0.26274583 -0.065220594 1.057762
-0.25919741 -0.065265536 1.0584909
-0.25564411 -0.065310538 1.0592208
-0.25208592 -0.065355614 1.0599518
-0.27383378 -0.061472893 1.057404
-0.27029425 -0.061515242 1.0581325
-0.26674983 -0.061557651 1.058862
-0.26320049 -0.061600111 1.0595924
-0.25964624 -0.061642628 1.0603237
-0.25608709 -0.061685216 1.0610563
-0.25252303 -0.061727852 1.0617896
-0.2565316 -0.058047295 1.0628979
-0.25296167 -0.058087498 1.063634
