# .PCD v0.7 - Point Cloud Data file format
VERSION 0.7
FIELDS x y z
SIZE 4 4 4
TYPE F F F
COUNT 1 1 1
WIDTH 470
HEIGHT 1
VIEWPOINT 0 0 0 1 0 0 0
POINTS 470
DATA ascii
0.15777089 -0.21286549 1.4215351
0.16278973 -0.21287888 1.4216245
0.16780919 -0.21289225 1.4217138
0.17282927 -0.21290562 1.4218031
0.17784999 -0.21291901 1.4218925
0.18287136 -0.21293239 1.4219819
0.18789336 -0.2129458 1.4220715
0.19291587 -0.21295908 1.4221601
0.11688181 -0.20640831 1.4116282
0.12059624 -0.20427527 1.3970404
0.12552629 -0.20428789 1.3971267
0.13045695 -0.20430051 1.397213
0.13538823 -0.20431314 1.3972994
0.14032009 -0.20432575 1.3973856
0.14525259 -0.20433839 1.397472
0.15018567 -0.20435101 1.3975583
0.15511927 -0.20436348 1.3976437
0.16005348 -0.20437598 1.3977292
0.16498829 -0.20438848 1.3978146
0.16992369 -0.20440096 1.3979
0.1748597 -0.20441346 1.3979855
0.17979632 -0.20442596 1.3980709
0.18473354 -0.20443845 1.3981564
0.18967138 -0.20445096 1.398242
0.19460979 -0.20446345 1.3983274
0.11695736 -0.20156482 1.4125407
0.1198491 -0.19811791 1.3883852
0.12391026 -0.19679865 1.37914
0.12881699 -0.19687125 1.3796488
0.13372734 -0.19694391 1.3801579
0.13864131 -0.19701661 1.3806674
0.14355893 -0.19708939 1.3811774
0.14848018 -0.19716221 1.3816878
0.15340506 -0.19723506 1.3821983
0.15833357 -0.19730799 1.3827094
0.16326573 -0.19738096 1.3832208
0.16820155 -0.19745399 1.3837326
0.17314102 -0.19752707 1.3842447
0.17808415 -0.19760022 1.3847573
0.18303093 -0.19767341 1.3852702
0.1879814 -0.19774666 1.3857836
0.19293551 -0.19781996 1.3862972
0.19789338 -0.19789338 1.3868117
0.11403774 -0.20019957 1.4384916
0.117033 -0.19671504 1.4134542
0.1199255 -0.19334927 1.3892702
0.12368409 -0.19158907 1.3766227
0.12858178 -0.19165963 1.3771296
0.13348307 -0.19173023 1.3776369
0.13838798 -0.19180088 1.3781445
0.1432965 -0.19187158 1.3786526
0.14820866 -0.19194236 1.3791611
0.15312442 -0.19201317 1.3796699
0.15804382 -0.19208403 1.380179
0.16296685 -0.19215494 1.3806885
0.16789351 -0.19222592 1.3811985
0.17282382 -0.19229692 1.3817087
0.17775777 -0.192368 1.3822194
0.18269539 -0.19243914 1.3827306
0.18763669 -0.19251037 1.3832424
0.19258168 -0.19258168 1.3837548
0.19753033 -0.19265305 1.3842676
0.11411285 -0.19525976 1.4394391
0.11710874 -0.19185901 1.414369
0.12000199 -0.18857455 1.3901563
0.12345875 -0.18639851 1.3741146
0.12834743 -0.18646701 1.3746196
0.13323969 -0.18653557 1.3751251
0.13813557 -0.18660419 1.3756309
0.14303504 -0.18667284 1.376137
0.14793813 -0.18674158 1.3766437
0.15284483 -0.18681034 1.3771507
0.15775512 -0.18687914 1.3776579
0.16266906 -0.18694802 1.3781656
0.16758661 -0.18701693 1.3786737
0.17250778 -0.18708591 1.3791821
0.17743264 -0.18715498 1.3796912
0.18236117 -0.18722413 1.3802011
0.18729335 -0.18729335 1.3807113
0.19222915 -0.1873626 1.3812218
0.19716863 -0.18743192 1.3817328
0.11418805 -0.1903134 1.4403876
0.11718458 -0.18699667 1.4152849
0.12007844 -0.18379354 1.391042
0.12323422 -0.18122679 1.3716155
0.12811393 -0.18129329 1.3721188
0.1329972 -0.18135981 1.3726224
0.13788408 -0.18142642 1.3731264
0.14277452 -0.18149304 1.3736306
0.14766859 -0.18155974 1.3741355
0.15256624 -0.18162648 1.3746406
0.1574675 -0.18169326 1.375146
0.16237235 -0.18176009 1.3756518
0.16728084 -0.18182699 1.3761582
0.17219301 -0.18189402 1.3766655
0.17710879 -0.18196109 1.3771731
0.18202822 -0.18202822 1.3776811
0.18695123 -0.18209536 1.3781893
0.19187792 -0.18216258 1.3786981
0.19680825 -0.18222986 1.3792073
0.20174219 -0.18229716 1.3797166
0.11426307 -0.18536009 1.441334
0.11726051 -0.18212803 1.4162019
0.12015493 -0.17900634 1.3919281
0.12301051 -0.17607386 1.3691256
0.12788126 -0.17613834 1.369627
0.13275559 -0.17620286 1.3701288
0.13763349 -0.17626746 1.370631
0.14251497 -0.17633207 1.3711334
0.14740002 -0.17639674 1.3716363
0.15228868 -0.17646149 1.3721397
0.15718092 -0.17652628 1.3726435
0.16207683 -0.17659117 1.3731481
0.16697632 -0.17665611 1.3736531
0.17187944 -0.17672111 1.3741585
0.17678615 -0.17678615 1.3746643
0.18169646 -0.17685121 1.3751702
0.1866104 -0.17691636 1.3756768
0.19152798 -0.17698155 1.3761836
0.19644916 -0.17704678 1.3766909
0.20137398 -0.17711206 1.3771985
0.11433797 -0.18039991 1.4422789
0.1173363 -0.17725272 1.4171174
0.12023151 -0.17421299 1.3928151
0.12302867 -0.17127521 1.3693278
0.12764944 -0.17100209 1.3671442
0.13251485 -0.17106463 1.3676442
0.13738382 -0.1711272 1.3681445
0.14225633 -0.17118983 1.3686452
0.14713247 -0.17125255 1.3691466
0.1520122 -0.17131533 1.3696486
0.15689552 -0.17137818 1.370151
0.16178241 -0.17144106 1.3706537
0.1666729 -0.17150401 1.3711569
0.17156699 -0.17156699 1.3716606
0.17646466 -0.17163001 1.3721644
0.18136594 -0.17169309 1.3726686
0.18627082 -0.17175621 1.3731734
0.19117931 -0.17181937 1.3736783
0.1960914 -0.17188258 1.3741837
0.20100711 -0.17194584 1.3746895
0.11441297 -0.17543322 1.4432249
0.11741193 -0.17237072 1.4180307
0.12030798 -0.16941328 1.3937011
0.12310597 -0.16655514 1.3701881
0.12741847 -0.16588444 1.3646705
0.132275 -0.16594499 1.3651687
0.13713506 -0.16600561 1.3656673
0.14199874 -0.16606632 1.3661668
0.14686598 -0.1661271 1.3666668
0.15173678 -0.1661879 1.367167
0.15661113 -0.16624874 1.3676676
0.16148907 -0.16630964 1.3681685
0.16637059 -0.16637059 1.3686699
0.17125568 -0.16643158 1.3691716
0.17614433 -0.1664926 1.3696736
0.18103661 -0.16655368 1.3701761
0.18593247 -0.1666148 1.370679
0.1908319 -0.16667596 1.3711821
0.19573493 -0.16673717 1.3716856
0.20064159 -0.16679843 1.3721896
0.11448807 -0.17046002 1.4441721
0.11748765 -0.16748239 1.4189452
0.12038424 -0.16460702 1.3945844
0.12318305 -0.16182871 1.3710461
0.12718835 -0.16078527 1.3622059
0.13203606 -0.16084392 1.3627027
0.13688731 -0.16090263 1.3632001
0.14174213 -0.16096139 1.3636979
0.14660046 -0.16102017 1.3641959
0.15146233 -0.16107899 1.3646942
0.15632778 -0.16113788 1.3651931
0.16119678 -0.16119678 1.3656923
0.16607165 -0.16125798 1.3662107
0.17096017 -0.16132861 1.3668091
0.17585301 -0.16139933 1.3674083
0.18075012 -0.1614701 1.3680078
0.1856515 -0.16154091 1.3686078
0.19055721 -0.16161181 1.3692085
0.19546723 -0.16168277 1.3698096
0.20038156 -0.16175379 1.3704113
0.11456324 -0.16548024 1.4451205
0.11756346 -0.16258778 1.4198608
0.12046037 -0.15979436 1.3954663
0.12325941 -0.15709533 1.3718959
0.12727222 -0.15608856 1.363104
0.13213268 -0.15615681 1.3636999
0.13699739 -0.15622509 1.3642962
0.14186633 -0.15629342 1.364893
0.14673957 -0.15636183 1.3654904
0.15161705 -0.15643029 1.3660883
0.15649882 -0.15649882 1.3666867
0.16138485 -0.15656739 1.3672856
0.16627519 -0.15663604 1.3678851
0.17116979 -0.15670474 1.368485
0.17606871 -0.15677351 1.3690856
0.18097192 -0.15684234 1.3696866
0.18587944 -0.15691122 1.3702881
0.19079128 -0.15698017 1.3708903
0.19570743 -0.15704916 1.3714929
0.20062788 -0.15711822 1.3720958
0.1146381 -0.16049334 1.4460647
0.11763871 -0.15768592 1.4207696
0.12053615 -0.15497504 1.3963442
0.12333564 -0.15235579 1.3727444
0.12742783 -0.15147081 1.3647707
0.13229431 -0.15153712 1.365368
0.13716505 -0.15160348 1.365966
0.14204003 -0.15166987 1.3665642
0.1469193 -0.15173633 1.3671629
0.15180287 -0.15180287 1.3677624
0.15669067 -0.15186943 1.3683622
0.1615828 -0.15193607 1.3689626
0.16647923 -0.15200278 1.3695637
0.17137994 -0.15206952 1.3701651
0.17628495 -0.15213633 1.370767
0.18119429 -0.1522032 1.3713696
0.18610793 -0.15227012 1.3719726
0.19102588 -0.1523371 1.372576
0.19594817 -0.15240413 1.3731799
0.20087476 -0.1524712 1.3737843
0.11771405 -0.15277782 1.4216796
0.12061202 -0.15014966 1.3972231
0.12341197 -0.1476104 1.3735939
0.12758382 -0.14684176 1.3664414
0.13245632 -0.14690611 1.3670402
0.13733311 -0.14697051 1.3676395
0.14221416 -0.14703497 1.3682394
0.14709949 -0.14709949 1.3688397
0.15198912 -0.14716408 1.3694407
0.15688303 -0.14722869 1.370042
0.16178124 -0.14729337 1.3706439
0.16668375 -0.1473581 1.3712462
0.17159058 -0.14742289 1.3718492
0.17650172 -0.14748774 1.3724526
0.18141718 -0.14755264 1.3730565
0.18633696 -0.14761759 1.3736609
0.19126108 -0.14768261 1.3742659
0.19618949 -0.14774765 1.3748711
0.2011223 -0.14781277 1.3754772
0.12068798 -0.14531818 1.3981031
0.12348837 -0.1428591 1.3744444
0.12774019 -0.14220135 1.3681161
0.13261876 -0.14226376 1.3687165
0.13750158 -0.14232619 1.3693173
0.1423887 -0.1423887 1.3699186
0.14728013 -0.14245127 1.3705206
0.15217583 -0.14251387 1.371123
0.15707584 -0.14257653 1.3717258
0.16198015 -0.14263925 1.3723291
0.1668888 -0.14270201 1.372933
0.17180175 -0.14276484 1.3735374
0.17671904 -0.14282772 1.3741424
0.18164062 -0.14289062 1.3747476
0.18656653 -0.14295357 1.3753533
0.19149682 -0.14301661 1.3759598
0.19643143 -0.14307968 1.3765665
0.2013704 -0.14314282 1.377174
0.1235649 -0.13810195 1.3752961
0.12789695 -0.13754956 1.3697951
0.13278158 -0.13761 1.370397
0.13767047 -0.13767047 1.3709992
0.14256367 -0.137731 1.3716021
0.14746118 -0.13779159 1.3722054
0.15236299 -0.13785224 1.3728093
0.15726914 -0.13791293 1.3734138
0.16217957 -0.13797367 1.3740185
0.16709433 -0.13803445 1.3746239
0.17201342 -0.13809529 1.3752297
0.17693684 -0.13815616 1.375836
0.18186459 -0.13821708 1.3764427
0.18679669 -0.13827807 1.37705
0.19173314 -0.1383391 1.3776578
0.19667396 -0.1384002 1.3782662
0.20161915 -0.13846134 1.3788751
0.12364151 -0.13333888 1.3761487
0.12805411 -0.13288634 1.3714782
0.13294478 -0.13294478 1.3720814
0.13783976 -0.13300329 1.3726852
0.14273907 -0.13306186 1.3732896
0.14764267 -0.13312045 1.3738943
0.15255061 -0.1331791 1.3744997
0.15746287 -0.13323781 1.3751056
0.16237946 -0.13329656 1.375712
0.16730036 -0.13335536 1.3763188
0.17222559 -0.13341419 1.3769261
0.17715517 -0.13347307 1.3775337
0.18208911 -0.13353202 1.378142
0.18702739 -0.133591 1.3787508
0.19197007 -0.13365005 1.3793602
0.1969171 -0.13370915 1.3799701
0.2018685 -0.13376829 1.3805805
0.15291747 -0.13736655 1.4712157
0.15562922 -0.13521883 1.4482135
0.15825726 -0.13313706 1.4259174
0.16080561 -0.13111843 1.4042975
0.16327707 -0.12915948 1.3833169
0.16750689 -0.12866472 1.3780179
0.17243829 -0.12872154 1.3786265
0.17737406 -0.12877843 1.3792357
0.18231419 -0.12883537 1.3798455
0.18725869 -0.12889235 1.3804559
0.19220756 -0.12894937 1.3810667
0.19716083 -0.12900646 1.3816781
0.20211847 -0.12906361 1.38229
0.15300737 -0.13226062 1.4720807
0.15571935 -0.13019159 1.4490522
0.1583475 -0.12818608 1.4267305
0.16089591 -0.12624142 1.405086
0.16336702 -0.124354 1.3840789
0.16771393 -0.12396246 1.379721
0.17265153 -0.12401729 1.3803313
0.17759348 -0.12407216 1.380942
0.18253984 -0.12412708 1.3815533
0.18749055 -0.12418205 1.3821651
0.19244568 -0.12423708 1.3827776
0.19740517 -0.12429214 1.3833904
0.20236906 -0.12434726 1.3840039
0.15309738 -0.12714867 1.4729466
0.15580609 -0.1251557 1.4498593
0.15843785 -0.12322944 1.4275445
0.1609863 -0.12135891 1.4058754
0.16345744 -0.1195435 1.3848449
0.16792147 -0.11924858 1.3814285
0.17286529 -0.11930139 1.3820403
0.17781347 -0.11935425 1.3826525
0.18276602 -0.11940714 1.3832653
0.18772298 -0.11946008 1.3838786
0.19268435 -0.11951308 1.3844925
0.1976501 -0.11956611 1.3851069
0.20262028 -0.11961921 1.3857219
0.15318748 -0.12203071 1.4738135
0.15589625 -0.12011678 1.4506983
0.15852831 -0.11826715 1.4283595
0.1610744 -0.11646917 1.4066447
0.16354795 -0.11472767 1.3856118
0.16812953 -0.11452302 1.3831401
0.17307955 -0.11457378 1.3837533
0.17803396 -0.11462461 1.3843671
0.18299277 -0.11467547 1.3849814
0.18795601 -0.11472639 1.3855964
0.19292362 -0.11477734 1.3862118
0.19789566 -0.11482835 1.3868277
0.20287211 -0.11487938 1.3874441
0.1532777 -0.11690672 1.4746815
0.15598963 -0.11507432 1.4515673
0.15861885 -0.11329918 1.4291754
0.16116275 -0.11157422 1.4074163
0.16363855 -0.10990649 1.3863794
0.16833811 -0.10978572 1.384856
0.17329437 -0.10983445 1.3854707
0.17825504 -0.10988324 1.3860861
0.1832201 -0.10993207 1.3867019
0.1881896 -0.10998093 1.3873184
0.19316348 -0.11002984 1.3879353
0.19814183 -0.11007879 1.3885528
0.2031246 -0.11012779 1.3891709
0.15336803 -0.1117767 1.4755505
0.15608162 -0.11002474 1.4524232
0.1587069 -0.10832376 1.4299687
0.16125345 -0.10667536 1.4082084
0.16372928 -0.10507999 1.387148
0.16854721 -0.10503667 1.3865762
0.17350972 -0.10508335 1.3871925
0.17847666 -0.10513008 1.3878094
0.18344799 -0.10517684 1.3884267
0.18842377 -0.10522366 1.3890446
0.19340396 -0.1052705 1.3896631
0.19838859 -0.10531741 1.3902822
0.20337766 -0.10536434 1.3909017
0.15345633 -0.10663915 1.4764001
0.15617026 -0.1049669 1.4532481
0.15879633 -0.10334364 1.4307743
0.16134426 -0.10177099 1.4090014
0.16382009 -0.10024811 1.3879174
0.16875681 -0.10027579 1.3883005
0.17372561 -0.10032041 1.3889184
0.17869881 -0.10036509 1.3895369
0.18367645 -0.10040979 1.3901558
0.18865851 -0.10045453 1.3907752
0.19364503 -0.10049932 1.3913953
0.19863598 -0.10054414 1.3920158
0.15354605 -0.10149654 1.4772632
0.15654267 -0.10008465 1.4567136
0.16174905 -0.10013037 1.4573789
0.16143516 -0.096861094 1.4097952
0.16399631 -0.095460542 1.3894104
0.16896695 -0.095503055 1.3900292
0.17394201 -0.095545612 1.3906486
0.17892152 -0.095588207 1.3912686
0.18390547 -0.095630839 1.3918891
0.18889385 -0.095673516 1.3925102
0.1938867 -0.095716216 1.3931317
0.198884 -0.095758967 1.3937539
0.15363748 -0.096348934 1.478143
0.15671143 -0.09505447 1.4582839
0.16191716 -0.095094204 1.4588935
0.16152616 -0.091945663 1.4105899
0.16420068 -0.090677984 1.3911418
0.16917761 -0.090718426 1.3917623
0.17415898 -0.090758905 1.3923832
0.17914478 -0.090799414 1.3930047
0.18413505 -0.09083996 1.3936267
0.18912977 -0.090880543 1.3942493
0.19412898 -0.090921164 1.3948725
0.19913261 -0.090961814 1.3954961
0.15372907 -0.091195211 1.4790241
0.15668695 -0.089902341 1.4580561
0.16188683 -0.089937128 1.4586202
0.1616174 -0.087024756 1.4113867
0.16440555 -0.085883498 1.3928776
0.16938879 -0.085921846 1.3934995
0.17437646 -0.085960232 1.394122
0.17936862 -0.085998647 1.3947451
0.18436521 -0.086037099 1.3953687
0.18936628 -0.086075589 1.3959929
0.19437185 -0.086114109 1.3966177
0.19938186 -0.08615265 1.3972428
0.15652806 -0.084679112 1.4565775
0.16163233 -0.084664553 1.4563272
0.16171148 -0.082099676 1.4122083
0.16461094 -0.081077032 1.3946177
0.16960049 -0.081113279 1.3952411
0.17459451 -0.081149556 1.3958652
0.179593 -0.08118587 1.3964899
0.18459596 -0.081222221 1.3971151
0.1896034 -0.081258602 1.3977408
0.19461533 -0.081295013 1.3983672
0.19963177 -0.081331462 1.3989941
0.15662462 -0.079596117 1.4574761
0.15925328 -0.078362733 1.4348917
0.16180041 -0.077166356 1.412985
0.16485532 -0.076276347 1.3966881
0.16988191 -0.076323755 1.3975563
0.17491473 -0.076371215 1.3984253
0.17995383 -0.07641875 1.3992957
0.1849992 -0.076466337 1.400167
0.19005086 -0.076513983 1.4010395
0.1951088 -0.076561682 1.4019129
0.20017307 -0.07660944 1.4027874
0.15671536 -0.074504025 1.4583205
0.15934432 -0.073348969 1.4357119
0.16189343 -0.072229378 1.4137973
0.16599248 -0.071847491 1.4063224
0.17105445 -0.071892448 1.4072024
0.17612277 -0.071937472 1.4080836
0.18119745 -0.071982548 1.4089659
0.18627849 -0.072027683 1.4098494
0.19136593 -0.072072878 1.4107341
0.19646002 -0.072118238 1.4116218
0.20156051 -0.072163641 1.4125105
0.15680738 -0.069406539 1.4591768
0.15943648 -0.068329923 1.4365423
0.16205394 -0.067314714 1.415199
0.16714542 -0.067357108 1.4160903
0.17224333 -0.067399561 1.4169828
0.17734765 -0.06744206 1.4178762
0.18245846 -0.06748464 1.4187714
0.18757595 -0.067527339 1.4196692
0.19269989 -0.067570098 1.420568
0.19783036 -0.067612909 1.4214681
0.15952829 -0.063304879 1.4373695
0.16318668 -0.062764116 1.4250911
0.1683145 -0.062803917 1.425995
0.17344895 -0.062843822 1.426901
0.17859003 -0.062883809 1.427809
0.18373767 -0.062923856 1.4287182
0.18889184 -0.062963948 1.4296285
0.19405264 -0.063004099 1.4305402
0.19921997 -0.063044295 1.4314529
