# .PCD v0.7 - Point Cloud Data file format
VERSION 0.7
FIELDS x y z
SIZE 4 4 4
TYPE F F F
COUNT 1 1 1
WIDTH 1378
HEIGHT 1
VIEWPOINT 0 0 0 1 0 0 0
POINTS 1378
DATA ascii
-0.22664109 -0.24377547 0.44209635
-0.22526075 -0.24396753 0.44244465
-0.22387822 -0.24415986 0.44279346
-0.2224935 -0.2443525 0.44314283
-0.22110663 -0.2445455 0.44349283
-0.21971755 -0.24473876 0.44384331
-0.21832624 -0.24493231 0.44419432
-0.21693276 -0.24512619 0.44454592
-0.21553707 -0.24532038 0.4448981
-0.21413916 -0.24551487 0.44525081
-0.21273902 -0.24570964 0.44560406
-0.21133667 -0.24590476 0.4459579
-0.27682233 -0.25546512 0.46627536
-0.27023783 -0.2508775 0.45790204
-0.26388565 -0.24645177 0.44982418
-0.25775865 -0.24218412 0.44203487
-0.25209236 -0.23830009 0.43494573
-0.25075406 -0.23848476 0.4352828
-0.2494137 -0.23866972 0.4356204
-0.24807124 -0.23885497 0.4359585
-0.24672669 -0.23904051 0.43629715
-0.24538007 -0.23922634 0.43663633
-0.24403132 -0.23941243 0.43697599
-0.2426805 -0.23959886 0.43731624
-0.24132755 -0.23978554 0.43765697
-0.23997255 -0.23997255 0.43799829
-0.23861538 -0.24015981 0.4383401
-0.23725607 -0.24034736 0.43868241
-0.23589468 -0.24053523 0.43902531
-0.23453113 -0.24072337 0.43936872
-0.23316549 -0.24091186 0.43971273
-0.23179768 -0.24110059 0.44005722
-0.23042771 -0.24128963 0.44040224
-0.22905561 -0.24147896 0.44074783
-0.22768137 -0.24166861 0.44109398
-0.22630496 -0.24185857 0.44144067
-0.22492641 -0.24204884 0.44178796
-0.22354567 -0.24223939 0.44213575
-0.22216275 -0.24243024 0.44248408
-0.22077766 -0.24262139 0.44283298
-0.21939041 -0.24281287 0.44318247
-0.21800092 -0.24300461 0.44353244
-0.21660925 -0.24319668 0.443883
-0.21521537 -0.24338903 0.44423407
-0.21381932 -0.24358171 0.44458577
-0.21242103 -0.24377468 0.44493797
-0.21102051 -0.24396797 0.44529074
-0.28007314 -0.25680295 0.47175097
-0.27334997 -0.25213474 0.46317539
-0.26687041 -0.2476365 0.45491204
-0.26062447 -0.24330199 0.44694948
-0.25458321 -0.23910701 0.43924326
-0.25038791 -0.23660509 0.43464717
-0.2490492 -0.23678832 0.43498376
-0.24770844 -0.23697184 0.43532091
-0.24636556 -0.23715563 0.43565854
-0.24502061 -0.23733972 0.43599671
-0.24367359 -0.23752411 0.43633541
-0.24232446 -0.23770875 0.43667462
-0.24097326 -0.23789373 0.43701443
-0.23961991 -0.23807895 0.43735468
-0.23826446 -0.23826446 0.43769547
-0.23690693 -0.2384503 0.43803686
-0.23554723 -0.23863637 0.43837869
-0.23418547 -0.2388228 0.43872115
-0.23282152 -0.23900947 0.43906406
-0.23145546 -0.23919643 0.43940753
-0.23008725 -0.2393837 0.43975154
-0.22871694 -0.2395713 0.44009617
-0.22734447 -0.23975919 0.44044131
-0.22596985 -0.23994736 0.44078699
-0.22459306 -0.24013583 0.4411332
-0.22321412 -0.2403246 0.44147998
-0.22183298 -0.24051365 0.44182727
-0.22044969 -0.24070302 0.44217512
-0.21906421 -0.24089268 0.44252354
-0.21767657 -0.24108265 0.44287252
-0.2162867 -0.2412729 0.44322202
-0.21489467 -0.24146345 0.44357207
-0.21350044 -0.24165434 0.44392273
-0.21210398 -0.2418455 0.44427389
-0.21070531 -0.24203695 0.44462559
-0.20930442 -0.2422287 0.44497785
-0.27653682 -0.2534233 0.46857533
-0.26992345 -0.24884835 0.46011633
-0.26354668 -0.24443755 0.45196083
-0.25739956 -0.24018742 0.44410244
-0.25145295 -0.23607355 0.43649596
-0.24868578 -0.23491241 0.43434903
-0.24734668 -0.23509422 0.43468517
-0.24600548 -0.23527627 0.43502179
-0.24466224 -0.23545864 0.435359
-0.24331689 -0.23564129 0.43569669
-0.24196948 -0.23582423 0.43603495
-0.24061994 -0.23600742 0.43637368
-0.23926833 -0.23619093 0.43671298
-0.23791462 -0.23637472 0.43705282
-0.23655878 -0.23655878 0.43739313
-0.23520085 -0.23674315 0.43773404
-0.23384078 -0.23692779 0.43807542
-0.23247857 -0.2371127 0.43841732
-0.23111428 -0.23729795 0.43875983
-0.22974783 -0.23748346 0.43910283
-0.22837929 -0.23766929 0.43944645
-0.22700857 -0.23785539 0.43979055
-0.22563571 -0.2380418 0.44013521
-0.2242607 -0.2382285 0.44048041
-0.22288355 -0.23841551 0.44082618
-0.22150421 -0.23860277 0.44117245
-0.22012268 -0.23879033 0.44151923
-0.218739 -0.23897821 0.44186661
-0.21735318 -0.23916641 0.44221458
-0.21596514 -0.23935485 0.44256303
-0.2145749 -0.23954362 0.44291204
-0.21318248 -0.23973268 0.44326162
-0.21178788 -0.23992206 0.44361177
-0.21039103 -0.24011171 0.44396242
-0.20899199 -0.24030165 0.44431365
-0.20759074 -0.24049191 0.44466543
-0.27980095 -0.25474417 0.47410622
-0.27305254 -0.25009319 0.46545026
-0.2665419 -0.24560508 0.45709741
-0.26026642 -0.24128042 0.44904876
-0.25420892 -0.23710617 0.44128004
-0.24836162 -0.23307782 0.43378285
-0.246986 -0.23322207 0.43405131
-0.24564649 -0.23340243 0.43438697
-0.2443049 -0.23358305 0.43472314
-0.24296126 -0.23376399 0.43505988
-0.24161552 -0.23394518 0.43539709
-0.24026768 -0.23412666 0.43573484
-0.23891778 -0.23430844 0.43607315
-0.23756577 -0.2344905 0.43641198
-0.23621167 -0.23467283 0.43675134
-0.23485544 -0.23485544 0.4370912
-0.23349711 -0.23503835 0.4374316
-0.23213667 -0.23522155 0.43777254
-0.23077409 -0.23540501 0.43811399
-0.2294094 -0.23558877 0.438456
-0.22804259 -0.23577285 0.43879858
-0.22667366 -0.23595722 0.43914172
-0.22530256 -0.23614186 0.43948534
-0.22392932 -0.2363268 0.43982953
-0.22255394 -0.23651202 0.44017425
-0.2211764 -0.23669754 0.44051954
-0.21979669 -0.23688334 0.44086534
-0.2184148 -0.23706944 0.44121167
-0.21703072 -0.2372558 0.44155851
-0.21564451 -0.23744251 0.44190601
-0.21425609 -0.23762949 0.44225398
-0.21286547 -0.23781674 0.44260249
-0.21147268 -0.23800431 0.44295156
-0.2100777 -0.23819219 0.44330123
-0.2086805 -0.23838034 0.44365141
-0.2072811 -0.2385688 0.44400215
-0.27624866 -0.2513614 0.47089842
-0.26960602 -0.24679947 0.46235213
-0.26320964 -0.24240889 0.45412683
-0.25703594 -0.23817092 0.44618747
-0.25106657 -0.2340713 0.43850726
-0.24662633 -0.23135535 0.43341923
-0.24528849 -0.23153399 0.43375391
-0.24394861 -0.23171295 0.43408915
-0.24260664 -0.23189215 0.43442488
-0.24126261 -0.23207167 0.43476117
-0.23991649 -0.23225142 0.43509793
-0.23856826 -0.23243146 0.43543521
-0.23721796 -0.23261179 0.43577304
-0.23586556 -0.23279239 0.43611139
-0.23451105 -0.23297328 0.43645024
-0.23315448 -0.23315448 0.43678969
-0.23179574 -0.23333593 0.43712962
-0.23043492 -0.23351768 0.43747011
-0.22907197 -0.23369969 0.43781111
-0.22770691 -0.23388201 0.43815267
-0.22633971 -0.23406461 0.43849474
-0.2249704 -0.23424752 0.43883741
-0.22359891 -0.23443069 0.43918055
-0.22222529 -0.23461416 0.43952426
-0.22084953 -0.23479791 0.43986851
-0.21947162 -0.23498197 0.44021332
-0.21809152 -0.2351663 0.44055864
-0.21670926 -0.23535092 0.4409045
-0.21532482 -0.23553582 0.44125089
-0.21393822 -0.23572102 0.44159785
-0.21254943 -0.23590651 0.44194534
-0.21115845 -0.23609228 0.44229338
-0.20976529 -0.23627837 0.44264197
-0.20836993 -0.23646475 0.44299114
-0.20697236 -0.23665142 0.44334084
-0.20557258 -0.23683837 0.44369107
-0.27952608 -0.25266472 0.47648513
-0.27275056 -0.24802996 0.46774474
-0.26621026 -0.24355407 0.45930392
-0.25990817 -0.2392427 0.45117337
-0.25383112 -0.23508668 0.44333577
-0.24796347 -0.23107432 0.43576911
-0.24493158 -0.22967103 0.43312275
-0.24359335 -0.22984827 0.43345699
-0.24225309 -0.2300258 0.43379179
-0.24091072 -0.23020357 0.43412703
-0.23956628 -0.23038162 0.43446282
-0.23821978 -0.23055999 0.43479916
-0.23687118 -0.2307386 0.43513599
-0.2355205 -0.23091748 0.43547335
-0.2341677 -0.23109664 0.43581122
-0.23281281 -0.23127609 0.43614963
-0.2314558 -0.2314558 0.43648854
-0.23009673 -0.23163584 0.43682805
-0.22873555 -0.23181617 0.43716812
-0.22737223 -0.23199674 0.43750867
-0.22600676 -0.2321776 0.43784973
-0.22463919 -0.23235875 0.43819135
-0.22326951 -0.23254021 0.43853354
-0.22189763 -0.23272191 0.43887621
-0.22052364 -0.23290391 0.43921944
-0.21914749 -0.2330862 0.43956318
-0.21776919 -0.23326878 0.43990752
-0.21638873 -0.23345163 0.44025236
-0.2150061 -0.23363478 0.44059774
-0.21362129 -0.23381822 0.44094366
-0.21223432 -0.23400193 0.44129014
-0.21084514 -0.23418593 0.44163713
-0.20945379 -0.23437023 0.44198468
-0.20806026 -0.23455483 0.4423328
-0.20666455 -0.23473974 0.44268149
-0.20526661 -0.2349249 0.44303069
-0.20386647 -0.23511036 0.44338045
-0.28287771 -0.25399533 0.48219842
-0.27596214 -0.24928303 0.47325236
-0.26929316 -0.24473757 0.464623
-0.26287231 -0.24036336 0.45631877
-0.25666893 -0.23613542 0.44829223
-0.25067663 -0.23205051 0.44053721
-0.24489893 -0.22811458 0.43306503
-0.24323915 -0.22798903 0.4328267
-0.24190052 -0.22816484 0.43316045
-0.24055985 -0.22834092 0.43349475
-0.23921712 -0.22851731 0.43382961
-0.23787229 -0.22869393 0.43416491
-0.23652542 -0.22887087 0.43450081
-0.23517641 -0.22904804 0.43483716
-0.23382534 -0.22922549 0.43517405
-0.23247217 -0.22940323 0.43551147
-0.23111689 -0.22958124 0.4358494
-0.22975953 -0.22975953 0.43618789
-0.2284001 -0.22993815 0.43652698
-0.2270385 -0.23011699 0.43686652
-0.22567481 -0.23029613 0.43720663
-0.22430898 -0.23047556 0.43754724
-0.22294104 -0.23065527 0.43788841
-0.22157094 -0.23083523 0.43823007
-0.22019872 -0.2310155 0.43857229
-0.21882433 -0.23119603 0.43891501
-0.21744783 -0.23137687 0.43925834
-0.21606915 -0.23155798 0.43960217
-0.21468832 -0.23173937 0.43994653
-0.21330529 -0.23192103 0.4402914
-0.21192014 -0.23210302 0.4406369
-0.2105328 -0.23228526 0.44098288
-0.20914325 -0.23246779 0.44132939
-0.20775153 -0.23265059 0.44167644
-0.20635764 -0.23283373 0.44202411
-0.20496154 -0.23301712 0.44237226
-0.20356324 -0.2332008 0.44272098
-0.20217739 -0.2334017 0.44310239
-0.27924836 -0.25056422 0.47888792
-0.27243659 -0.24593821 0.47004649
-0.26709336 -0.2425894 0.46364611
-0.25955492 -0.23719326 0.45333281
-0.25344977 -0.23304825 0.4454107
-0.24756171 -0.22905242 0.43777373
-0.24288592 -0.22613516 0.43219817
-0.241549 -0.22630931 0.432531
-0.24021001 -0.22648372 0.43286434
-0.23886895 -0.2266584 0.43319818
-0.23752584 -0.22683336 0.43353257
-0.23618062 -0.22700857 0.43386742
-0.23483334 -0.22718404 0.43420282
-0.23348399 -0.22735982 0.43453875
-0.23213251 -0.22753583 0.43487516
-0.23077898 -0.22771214 0.43521214
-0.22942334 -0.22788873 0.43554965
-0.2280656 -0.2280656 0.43588766
-0.22670577 -0.22824275 0.43622628
-0.22534381 -0.22842018 0.43656537
-0.22397974 -0.22859788 0.436905
-0.22261353 -0.22877584 0.43724513
-0.22124521 -0.22895411 0.43758583
-0.21987475 -0.22913264 0.43792704
-0.21850215 -0.22931144 0.43826878
-0.21712738 -0.22949052 0.43861103
-0.21575052 -0.2296699 0.43895388
-0.21437146 -0.22984955 0.43929723
-0.21299024 -0.23002946 0.43964109
-0.21160688 -0.23020968 0.43998551
-0.21022135 -0.23039019 0.44033054
-0.20883362 -0.23057096 0.440676
-0.20744373 -0.23075202 0.44102207
-0.20606312 -0.23094621 0.44139323
-0.2048346 -0.23131511 0.44209826
-0.20360214 -0.23168519 0.44280559
-0.20236574 -0.23205647 0.44351518
-0.28261378 -0.25187632 0.48465934
-0.2756685 -0.24717997 0.47562265
-0.26897269 -0.24265119 0.4669084
-0.26778713 -0.24306832 0.46771103
-0.25629842 -0.2340806 0.45041689
-0.25028306 -0.23001091 0.442586
-0.24448562 -0.22609171 0.43504471
-0.24119851 -0.22445917 0.43190339
-0.23986118 -0.22463189 0.43223572
-0.23852181 -0.22480491 0.43256864
-0.23718037 -0.22497816 0.43290201
-0.23583683 -0.22515167 0.43323588
-0.23449127 -0.2253255 0.43357036
-0.2331436 -0.22549956 0.43390527
-0.23179384 -0.22567387 0.4342407
-0.23044205 -0.22584851 0.43457675
-0.22908813 -0.22602341 0.43491328
-0.22773212 -0.22619857 0.43525031
-0.226374 -0.226374 0.43558788
-0.22501379 -0.22654973 0.43592602
-0.22365145 -0.22672571 0.43626463
-0.222287 -0.22690196 0.43660378
-0.22092041 -0.22707848 0.43694344
-0.21955174 -0.22725531 0.43728369
-0.21818089 -0.22743239 0.43762442
-0.21680792 -0.22760974 0.43796569
-0.21543279 -0.22778736 0.43830746
-0.21405554 -0.2279653 0.43864983
-0.21267612 -0.22814348 0.43899271
-0.21129453 -0.22832194 0.43933609
-0.20991904 -0.22850965 0.4396973
-0.20870136 -0.22887324 0.4403969
-0.20747982 -0.229238 0.44109878
-0.20625435 -0.22960389 0.44180283
-0.20502499 -0.22997099 0.4425092
-0.20379168 -0.23033926 0.44321781
-0.20255442 -0.2307087 0.44392869
-0.27896786 -0.2484425 0.48131517
-0.27213639 -0.24384087 0.47240028
-0.26884955 -0.24237821 0.46956661
-0.26782742 -0.2429518 0.47067785
-0.25306487 -0.23099068 0.44750521
-0.24715622 -0.22701183 0.43979686
-0.24144767 -0.22316772 0.43234956
-0.23951337 -0.22278546 0.43160897
-0.23817566 -0.22295678 0.43194088
-0.23683588 -0.22312835 0.43227327
-0.23549409 -0.22330022 0.43260625
-0.23415019 -0.22347233 0.43293968
-0.23280424 -0.22364472 0.43327367
-0.23145619 -0.22381738 0.43360814
-0.23010607 -0.22399029 0.43394315
-0.22875389 -0.2241635 0.43427873
-0.2273996 -0.22433698 0.43461481
-0.22604322 -0.22451073 0.43495139
-0.22468472 -0.22468472 0.43528849
-0.22332413 -0.22485901 0.43562615
-0.22196142 -0.22503355 0.43596429
-0.2205966 -0.22520837 0.43630296
-0.21922964 -0.22538346 0.43664217
-0.21786058 -0.22555885 0.43698195
-0.21648939 -0.22573449 0.43732223
-0.21511604 -0.2259104 0.43766302
-0.2137454 -0.2260917 0.43801427
-0.21253844 -0.22645006 0.43870851
-0.21132767 -0.22680956 0.43940499
-0.21011308 -0.22717023 0.44010374
-0.20889461 -0.22753204 0.44080469
-0.20767221 -0.22789498 0.44150782
-0.20644593 -0.22825909 0.44221321
-0.20521574 -0.22862437 0.44292089
-0.20398158 -0.22899081 0.44363081
-0.20274347 -0.22935845 0.44434303
-0.2015014 -0.22972727 0.44505757
-0.28234714 -0.24973562 0.48714557
-0.27537191 -0.24505574 0.47801679
-0.26973364 -0.24151534 0.47111073
-0.26866087 -0.24204431 0.47214258
-0.2559244 -0.23200624 0.45256186
-0.24988578 -0.22795224 0.44465393
-0.24406855 -0.22405031 0.43704265
-0.23916654 -0.22094433 0.43098399
-0.23783053 -0.22111401 0.43131498
-0.23649246 -0.22128394 0.43164644
-0.23515229 -0.2214541 0.43197837
-0.23381011 -0.22162457 0.43231088
-0.23246583 -0.22179526 0.43264386
-0.23111951 -0.22196627 0.43297741
-0.22977109 -0.2221375 0.43331143
-0.22842062 -0.22230902 0.43364602
-0.22706807 -0.22248083 0.43398115
-0.2257134 -0.22265288 0.43431675
-0.22435662 -0.22282518 0.43465286
-0.22299775 -0.22299775 0.43498948
-0.2216368 -0.22317062 0.4353267
-0.22027372 -0.22334374 0.43566439
-0.21890852 -0.22351712 0.43600258
-0.21754257 -0.22369219 0.43634409
-0.21634625 -0.22404541 0.43703309
-0.21514614 -0.22439975 0.43772426
-0.21394221 -0.22475518 0.43841761
-0.21273449 -0.22511177 0.43911317
-0.21152291 -0.22546947 0.43981093
-0.21030748 -0.22582832 0.44051093
-0.20908819 -0.22618835 0.44121319
-0.20786498 -0.22654948 0.44191763
-0.20663787 -0.22691178 0.44262436
-0.20540684 -0.22727525 0.44333336
-0.20417184 -0.22763985 0.44404459
-0.20293286 -0.22800565 0.44475812
-0.20168991 -0.22837263 0.44547397
-0.27868453 -0.24629916 0.48376712
-0.27182183 -0.24171232 0.47475791
-0.26938778 -0.24103117 0.47342002
-0.26826382 -0.24152102 0.47438216
-0.25267634 -0.22891368 0.44961953
-0.24674697 -0.22495228 0.44183877
-0.24101931 -0.22112565 0.43432271
-0.23748639 -0.21927658 0.43069085
-0.23614997 -0.21944483 0.43102133
-0.23481153 -0.21961337 0.43135238
-0.23347099 -0.21978214 0.43168387
-0.23212843 -0.2199512 0.43201593
-0.23078379 -0.22012052 0.43234849
-0.2294371 -0.22029011 0.43268159
-0.22808832 -0.22045994 0.43301517
-0.22673747 -0.22063006 0.43334931
-0.22538452 -0.22080043 0.43368393
-0.2240295 -0.22097106 0.43401909
-0.22267236 -0.22114196 0.43435475
-0.22131315 -0.22131315 0.43469098
-0.22012506 -0.22165903 0.43537036
-0.21893546 -0.22200824 0.43605626
-0.21774212 -0.22235857 0.43674433
-0.21654503 -0.22271001 0.43743464
-0.21534413 -0.22306256 0.43812707
-0.21413942 -0.22341621 0.4388217
-0.21293087 -0.22377099 0.43951854
-0.2117185 -0.22412691 0.44021761
-0.21050225 -0.22448395 0.44091889
-0.20928212 -0.22484213 0.44162241
-0.2080581 -0.22520147 0.44232821
-0.20683017 -0.22556196 0.44303626
-0.20559829 -0.2259236 0.44374657
-0.20436244 -0.22628638 0.44445914
-0.20312263 -0.22665034 0.44517401
-0.20187882 -0.22701547 0.44589117
-0.20063099 -0.2273818 0.44661069
-0.28207776 -0.24757285 0.48965746
-0.27507231 -0.24291001 0.48043516
-0.27001771 -0.23992285 0.47452706
-0.26887211 -0.24039343 0.47545779
-0.26771063 -0.24085563 0.47637194
-0.24948482 -0.22587426 0.44674131
-0.24364763 -0.22199006 0.43905902
-0.23800781 -0.21823721 0.43163648
-0.23580851 -0.21761107 0.43039811
-0.23447171 -0.21777794 0.43072814
-0.23313287 -0.21794505 0.43105868
-0.23179199 -0.21811247 0.43138978
-0.23044907 -0.21828014 0.43172142
-0.22910407 -0.21844806 0.43205354
-0.22775699 -0.21861623 0.43238616
-0.22640783 -0.21878468 0.43271929
-0.22505662 -0.21895339 0.43305299
-0.22387524 -0.21929076 0.43372026
-0.22269607 -0.21963495 0.43440101
-0.22151315 -0.2199802 0.43508384
-0.22032654 -0.22032654 0.43576884
-0.21913618 -0.22067398 0.43645602
-0.21794207 -0.22102252 0.43714538
-0.21674418 -0.22137217 0.43783695
-0.2155425 -0.22172292 0.43853065
-0.21433698 -0.22207478 0.43922657
-0.21312763 -0.22242776 0.43992469
-0.21191445 -0.22278185 0.44062504
-0.21069738 -0.22313708 0.44132763
-0.20947643 -0.22349343 0.44203243
-0.2082516 -0.22385097 0.44273958
-0.20702282 -0.22420962 0.44344893
-0.2057901 -0.22456942 0.44416055
-0.20455341 -0.22493038 0.44487447
-0.20331274 -0.2252925 0.44559067
-0.20206806 -0.22565578 0.44630918
-0.20081939 -0.22602025 0.44703004
-0.28555471 -0.24887794 0.49569303
-0.27839825 -0.24413386 0.48624417
-0.27150953 -0.23956725 0.4771488
-0.26940492 -0.23919129 0.47640002
-0.26821843 -0.23963088 0.47727555
-0.25228411 -0.22681694 0.45175388
-0.24633388 -0.22287352 0.44389972
-0.24058703 -0.21906486 0.43631399
-0.23546802 -0.2157826 0.42977664
-0.23413292 -0.21594784 0.43010575
-0.23279575 -0.21611331 0.43043533
-0.23145655 -0.21627907 0.43076548
-0.23011528 -0.21644507 0.43109611
-0.22877201 -0.21661137 0.43142733
-0.22759709 -0.21694037 0.43208259
-0.22642818 -0.21727957 0.43275818
-0.22525561 -0.21761984 0.43343589
-0.2240794 -0.21796118 0.43411577
-0.22289945 -0.21830359 0.43479773
-0.22171578 -0.21864705 0.43548182
-0.22052839 -0.21899161 0.43616807
-0.21933725 -0.21933725 0.43685651
-0.21814238 -0.21968402 0.43754715
-0.21694368 -0.22003184 0.43823993
-0.2157412 -0.2203808 0.43893495
-0.21453489 -0.22073086 0.43963215
-0.21332476 -0.22108202 0.44033158
-0.21211077 -0.22143431 0.44103324
-0.21089287 -0.22178771 0.44173709
-0.20967111 -0.22214225 0.44244325
-0.20844543 -0.22249793 0.44315165
-0.20721585 -0.22285476 0.44386238
-0.20598227 -0.22321272 0.44457531
-0.20474473 -0.22357184 0.44529057
-0.20350321 -0.2239321 0.44600812
-0.20225768 -0.22429354 0.44672799
-0.20100813 -0.22465613 0.44745019
-0.19975452 -0.22501992 0.44817472
-0.2818056 -0.24538766 0.4921954
-0.27476966 -0.24074246 0.48287812
-0.26987365 -0.23792599 0.47722888
-0.26867107 -0.23835082 0.47808099
-0.26745325 -0.23876742 0.47891659
-0.24908005 -0.22377668 0.44884837
-0.2432228 -0.21991071 0.44109407
-0.23756452 -0.21617608 0.43360317
-0.23379506 -0.21412298 0.42948511
-0.23245959 -0.21428685 0.4298138
-0.23129095 -0.21460767 0.43045729
-0.23013219 -0.21494195 0.43112779
-0.22896983 -0.21527728 0.4318004
-0.22780384 -0.21561368 0.43247512
-0.2266342 -0.2159511 0.43315193
-0.22546087 -0.21628959 0.43383086
-0.2242839 -0.21662916 0.43451196
-0.2231032 -0.21696977 0.43519518
-0.22191876 -0.21731146 0.43588051
-0.22073062 -0.21765424 0.43656805
-0.21953872 -0.2179981 0.43725777
-0.21834303 -0.21834303 0.43794963
-0.21714355 -0.21868907 0.43864369
-0.21594028 -0.21903619 0.43933997
-0.2147332 -0.21938446 0.4400385
-0.21352224 -0.2197338 0.44073921
-0.21230744 -0.22008426 0.44144216
-0.21108873 -0.22043583 0.44214734
-0.20986614 -0.22078854 0.44285479
-0.20863964 -0.22114238 0.44356453
-0.20740917 -0.22149734 0.44427651
-0.20617479 -0.22185348 0.44499084
-0.20493641 -0.22221075 0.44570744
-0.20369403 -0.22256915 0.44642633
-0.20244764 -0.22292872 0.44714755
-0.20119722 -0.22328946 0.44787112
-0.19994274 -0.22365136 0.44859701
-0.28529739 -0.24667251 0.49829406
-0.27810904 -0.24194625 0.4887467
-0.271191 -0.23739773 0.47955841
-0.26906419 -0.23701264 0.47878051
-0.26782575 -0.23741022 0.47958362
-0.25189969 -0.22471051 0.45392942
-0.24592604 -0.22078344 0.44599649
-0.24015483 -0.21698877 0.43833101
-0.23458001 -0.21332356 0.43092707
-0.23265612 -0.21295235 0.43017718
-0.23150027 -0.21328385 0.43084684
-0.23034079 -0.21361639 0.43151858
-0.2291777 -0.21394993 0.43219239
-0.22801097 -0.21428455 0.43286833
-0.22684057 -0.2146202 0.43354636
-0.22566651 -0.21495692 0.43422654
-0.22448877 -0.21529469 0.43490887
-0.22330731 -0.21563353 0.43559334
-0.22212213 -0.21597342 0.43627995
-0.22093321 -0.21631441 0.43696874
-0.21974052 -0.21665645 0.43765971
-0.21854407 -0.21699958 0.43835285
-0.21734381 -0.21734381 0.4390482
-0.21613973 -0.21768913 0.43974578
-0.21493186 -0.21803556 0.4404456
-0.2137201 -0.21838309 0.44114763
-0.21250448 -0.2187317 0.44185185
-0.21128495 -0.21908145 0.44255835
-0.21006155 -0.21943232 0.44326714
-0.2088342 -0.21978432 0.44397819
-0.20760292 -0.22013743 0.44469151
-0.20636767 -0.22049169 0.44540715
-0.20512845 -0.2208471 0.44612509
-0.20388523 -0.22120366 0.44684535
-0.20263796 -0.22156134 0.44756791
-0.20138666 -0.22192021 0.44829282
-0.20013133 -0.22228023 0.44902012
-0.19887188 -0.22264142 0.44974974
-0.28153059 -0.24317966 0.49475971
-0.27446395 -0.23855278 0.48534608
-0.26940051 -0.23561989 0.479379
-0.2681466 -0.23600283 0.48015812
-0.26688123 -0.2363805 0.48092651
-0.24867992 -0.22166677 0.45099077
-0.24280067 -0.21781796 0.44316021
-0.23711979 -0.21409847 0.43559271
-0.2328665 -0.21162786 0.43056616
-0.23170994 -0.21195762 0.43123707
-0.23054975 -0.21228839 0.43191004
-0.22938593 -0.21262018 0.43258509
-0.22821847 -0.21295302 0.43326226
-0.22704734 -0.21328689 0.43394154
-0.22587252 -0.21362181 0.43462294
-0.22469401 -0.21395779 0.43530649
-0.2235118 -0.21429482 0.43599221
-0.22232588 -0.21463294 0.43668014
-0.2211362 -0.21497212 0.43737021
-0.21994273 -0.21531235 0.43806243
-0.21874548 -0.21565367 0.43875685
-0.21754444 -0.21599607 0.43945348
-0.21633957 -0.21633957 0.44015235
-0.21513087 -0.21668415 0.44085342
-0.21391831 -0.21702985 0.44155675
-0.21270187 -0.21737665 0.44226232
-0.21148156 -0.21772456 0.44297016
-0.21025731 -0.21807356 0.44368023
-0.20902912 -0.21842369 0.44439259
-0.20779701 -0.21877496 0.44510725
-0.20656091 -0.21912736 0.44582421
-0.20532085 -0.21948092 0.44654354
-0.20407677 -0.21983559 0.44726515
-0.20282865 -0.2201914 0.44798908
-0.20157647 -0.22054838 0.44871536
-0.20032024 -0.22090651 0.449444
-0.19905993 -0.22126582 0.45017502
-0.28503734 -0.24444379 0.50092244
-0.27781299 -0.2397327 0.49126834
-0.2708576 -0.2351961 0.48197177
-0.26841629 -0.23454674 0.48064107
-0.26712775 -0.2349028 0.48137075
-0.25150484 -0.22257777 0.45611387
-0.24550006 -0.21866082 0.44808713
-0.23971519 -0.21489032 0.44036049
-0.23412292 -0.21124445 0.43288925
-0.23191999 -0.21062897 0.43162799
-0.23075907 -0.21095796 0.43230218
-0.22959454 -0.21128801 0.43297851
-0.22842634 -0.21161905 0.4336569
-0.22725448 -0.21195115 0.43433744
-0.22607891 -0.21228427 0.43502009
-0.22489965 -0.21261844 0.43570489
-0.22371668 -0.21295369 0.43639186
-0.22252999 -0.21328999 0.43708104
-0.22133952 -0.21362735 0.43777236
-0.22014529 -0.21396577 0.43846586
-0.21894725 -0.21430527 0.43916157
-0.21774542 -0.21464585 0.43985951
-0.21653977 -0.21498752 0.44055966
-0.21533024 -0.21533024 0.44126201
-0.2141169 -0.2156741 0.44196665
-0.21289966 -0.21601906 0.44267353
-0.2116785 -0.21636511 0.44338268
-0.21045344 -0.21671227 0.44409409
-0.20922443 -0.21706055 0.4448078
-0.20799147 -0.21740995 0.4455238
-0.20675452 -0.21776047 0.44624209
-0.20551358 -0.21811213 0.44696271
-0.20426866 -0.21846494 0.44768572
-0.20301968 -0.21881887 0.44841102
-0.20176664 -0.21917397 0.44913867
-0.20050955 -0.21953021 0.44986871
-0.19924834 -0.21988761 0.4506011
-0.19798303 -0.22024617 0.45133588
-0.28124616 -0.24094296 0.49733934
-0.27414486 -0.23633178 0.48782122
-0.26862594 -0.23303513 0.48101649
-0.26732248 -0.23337679 0.4817217
-0.26601157 -0.23371622 0.48242235
-0.24826568 -0.21952753 0.45313495
-0.24236943 -0.21570094 0.44523636
-0.23666942 -0.2120003 0.43759769
-0.23213039 -0.2092979 0.43201959
-0.23096877 -0.20962512 0.43269503
-0.2298035 -0.20995337 0.43337256
-0.22863461 -0.21028267 0.43405229
-0.22746199 -0.21061295 0.43473405
-0.22628568 -0.21094428 0.43541795
-0.22510567 -0.21127665 0.436104
-0.22392192 -0.21161006 0.43679222
-0.22273447 -0.21194457 0.43748266
-0.22154325 -0.21228011 0.43817529
-0.22034822 -0.21261671 0.43887007
-0.21914941 -0.21295437 0.43956706
-0.2179468 -0.21329312 0.44026628
-0.21674033 -0.21363294 0.44096771
-0.21553001 -0.21397384 0.44167137
-0.21431583 -0.21431583 0.4423773
-0.21309781 -0.21465896 0.44308555
-0.21187583 -0.21500315 0.44379601
-0.21064992 -0.21534844 0.44450873
-0.20942008 -0.21569484 0.44522375
-0.2081863 -0.21604238 0.44594112
-0.2069485 -0.21639101 0.44666076
-0.20570672 -0.2167408 0.44738275
-0.20446092 -0.21709171 0.44810709
-0.20321108 -0.21744376 0.44883376
-0.20195718 -0.21779697 0.44956282
-0.20069918 -0.21815129 0.4502942
-0.1994371 -0.21850678 0.45102799
-0.19817089 -0.21886344 0.45176417
-0.28477001 -0.24218757 0.50357074
-0.27751097 -0.23749372 0.49381098
-0.27052459 -0.23297544 0.48441631
-0.26746547 -0.2318034 0.48197934
-0.26612952 -0.23211937 0.4826363
-0.25109708 -0.22041641 0.45830283
-0.24508347 -0.21653005 0.45022207
-0.23927192 -0.21277276 0.44240969
-0.23366161 -0.20914629 0.43486932
-0.23117884 -0.20828983 0.43308854
-0.23001286 -0.20861632 0.43376738
-0.2288432 -0.20894378 0.43444827
-0.22766986 -0.2092723 0.43513134
-0.22649282 -0.20960183 0.43581653
-0.22531207 -0.2099324 0.43650386
-0.22412758 -0.21026401 0.43719336
-0.22293931 -0.21059665 0.43788502
-0.22174729 -0.21093036 0.43857887
-0.22055154 -0.21126515 0.439275
-0.21935195 -0.21160099 0.43997329
-0.21814853 -0.21193789 0.4406738
-0.21694127 -0.21227586 0.44137654
-0.21573016 -0.21261492 0.44208151
-0.21451516 -0.21295506 0.44278875
-0.21329629 -0.21329629 0.44349825
-0.21207352 -0.21363863 0.44421008
-0.2108468 -0.21398206 0.44492415
-0.20961611 -0.21432659 0.4456405
-0.20838147 -0.21467224 0.44635922
-0.20714284 -0.215019 0.44708022
-0.20590021 -0.21536689 0.44780356
-0.20465353 -0.21571589 0.44852921
-0.20340285 -0.21606605 0.44925731
-0.20214805 -0.21641733 0.44998771
-0.2008892 -0.21676977 0.45072052
-0.19962622 -0.21712334 0.45145568
-0.19835912 -0.21747807 0.45219326
-0.19708787 -0.21783397 0.45293325
-0.28096321 -0.23868662 0.49995399
-0.27383333 -0.23409727 0.49034113
-0.26754516 -0.23017378 0.48212296
-0.26619083 -0.23047192 0.48274747
-0.26482788 -0.23076642 0.48336431
-0.24785891 -0.21737789 0.45532063
-0.2419323 -0.2135624 0.44732869
-0.23621486 -0.20988271 0.43962121
-0.2313893 -0.20695214 0.43348283
-0.23022257 -0.20727681 0.43416286
-0.22905217 -0.20760247 0.434845
-0.22787811 -0.20792919 0.43552935
-0.22670032 -0.2082569 0.43621579
-0.22551882 -0.20858568 0.43690443
-0.22433358 -0.20891547 0.43759522
-0.22314456 -0.20924629 0.43828815
-0.22195178 -0.20957816 0.43898329
-0.22075523 -0.20991111 0.4396807
-0.21955484 -0.2102451 0.44038028
-0.21835063 -0.21058014 0.44108206
-0.21714257 -0.21091625 0.44178608
-0.21593067 -0.21125346 0.4424924
-0.21471487 -0.21159174 0.44320095
-0.21349518 -0.21193111 0.44391179
-0.21227157 -0.21227157 0.44462493
-0.21104401 -0.21261312 0.44534034
-0.20981252 -0.21295577 0.44605806
-0.20857704 -0.21329953 0.44677809
-0.20733754 -0.21364439 0.44750044
-0.20609406 -0.21399038 0.44822514
-0.20484653 -0.21433748 0.4489522
-0.20359497 -0.21468575 0.44968167
-0.20233931 -0.21503511 0.45041344
-0.20107956 -0.21538562 0.45114762
-0.19981569 -0.21573727 0.45188418
-0.19854769 -0.21609007 0.45262316
-0.19727555 -0.21644402 0.45336455
-0.28450385 -0.23991078 0.50625432
-0.27721012 -0.23523508 0.49638778
-0.27019769 -0.23074025 0.48690286
-0.26619029 -0.22877057 0.48274651
-0.26479763 -0.22903718 0.48330909
-0.25069797 -0.21824516 0.46053603
-0.24465254 -0.21436982 0.45235837
-0.2388245 -0.21063538 0.44447803
-0.23319606 -0.20702885 0.43686762
-0.23043266 -0.20593484 0.43455905
-0.22926155 -0.20625871 0.4352425
-0.22808672 -0.20658359 0.43592805
-0.22690819 -0.20690951 0.43661577
-0.22572593 -0.20723644 0.43730566
-0.22453997 -0.20756443 0.43799779
-0.22335018 -0.20789342 0.438692
-0.22215661 -0.20822345 0.43938842
-0.22095926 -0.20855454 0.44008708
-0.21975812 -0.2088867 0.440788
-0.21855311 -0.20921987 0.44149107
-0.21734425 -0.20955414 0.44219643
-0.21613155 -0.20988949 0.44290406
-0.21491493 -0.21022588 0.44361392
-0.21369442 -0.21056336 0.44432607
-0.21246998 -0.21090195 0.44504052
-0.21124162 -0.21124162 0.4457573
-0.21000928 -0.21158238 0.44647637
-0.20877296 -0.21192424 0.44719777
-0.20753263 -0.21226721 0.44792148
-0.20628826 -0.21261127 0.44864753
-0.20503987 -0.21295647 0.44937596
-0.20378743 -0.21330281 0.45010677
-0.20253092 -0.21365026 0.45083997
-0.20127028 -0.21399884 0.45157552
-0.20000553 -0.21434857 0.45231351
-0.19873664 -0.21469943 0.45305389
-0.1974636 -0.21505144 0.45379671
-0.19618635 -0.21540461 0.45454195
-0.28067824 -0.23640722 0.50259799
-0.27351019 -0.23183244 0.49287209
-0.26661131 -0.22742881 0.48351002
-0.26469806 -0.22724882 0.48312736
-0.26326433 -0.22748081 0.48362058
-0.2474346 -0.21519557 0.45750234
-0.24149249 -0.2114049 0.44944346
-0.23575605 -0.20774543 0.44166347
-0.23064315 -0.20459044 0.43495601
-0.22947128 -0.20491248 0.43564066
-0.22829571 -0.20523554 0.43632749
-0.22711642 -0.20555961 0.43701646
-0.22593345 -0.20588475 0.43770769
-0.22474667 -0.20621087 0.43840101
-0.22355615 -0.20653804 0.43909657
-0.22236185 -0.20686625 0.43979433
-0.2211637 -0.20719548 0.44049427
-0.21996175 -0.20752576 0.44119644
-0.21875598 -0.2078571 0.44190088
-0.21754633 -0.2081895 0.44260755
-0.21633279 -0.20852295 0.44331646
-0.21511538 -0.20885748 0.44402766
-0.21389405 -0.20919308 0.44474116
-0.21266878 -0.20952976 0.44545692
-0.21143956 -0.20986752 0.44617501
-0.21020642 -0.21020642 0.44689548
-0.20896924 -0.21054637 0.44761822
-0.20772806 -0.21088742 0.44834328
-0.20648286 -0.21122958 0.44907072
-0.2052336 -0.21157286 0.44980052
-0.20398028 -0.21191725 0.4505327
-0.20272288 -0.21226278 0.45126727
-0.20146139 -0.21260944 0.45200428
-0.20019574 -0.21295722 0.45274365
-0.19892594 -0.21330613 0.45348543
-0.19765198 -0.21365619 0.45422965
-0.19637385 -0.21400742 0.45497635
-0.28423429 -0.23760909 0.50896561
-0.2769075 -0.23295392 0.49899411
-0.26986229 -0.22847767 0.48940584
-0.26449853 -0.22537656 0.48276317
-0.26303795 -0.22558269 0.48320472
-0.25028068 -0.21604034 0.46276471
-0.24422072 -0.21219178 0.45452097
-0.23837291 -0.20847796 0.44656587
-0.23272626 -0.20489189 0.43888441
-0.2296814 -0.20356378 0.43603957
-0.22850509 -0.203885 0.43672764
-0.22732508 -0.20420727 0.43741795
-0.2261413 -0.20453054 0.43811038
-0.22495377 -0.20485482 0.43880498
-0.22376248 -0.20518012 0.43950182
-0.22256742 -0.2055065 0.44020092
-0.22136852 -0.2058339 0.4409022
-0.22016577 -0.20616229 0.44160566
-0.21895921 -0.20649178 0.44231144
-0.21774876 -0.20682231 0.44301942
-0.21653444 -0.20715389 0.44372967
-0.21531621 -0.20748653 0.44444218
-0.21409404 -0.20782022 0.44515699
-0.21286796 -0.20815502 0.44587412
-0.21163791 -0.20849088 0.44659355
-0.21040392 -0.20882785 0.44731537
-0.2091659 -0.2091659 0.44803947
-0.20792386 -0.20950504 0.4487659
-0.20667781 -0.20984527 0.44949472
-0.20542768 -0.21018663 0.45022589
-0.20417349 -0.21052909 0.45095944
-0.20291521 -0.21087267 0.45169541
-0.20165282 -0.21121739 0.45243382
-0.20038629 -0.21156321 0.45317459
-0.1991156 -0.21191019 0.4539178
-0.19784075 -0.21225829 0.45466346
-0.19656168 -0.21260753 0.45541155
-0.19527841 -0.21295793 0.45616212
-0.28039029 -0.23410363 0.50527018
-0.27319047 -0.22954983 0.49544162
-0.26626536 -0.22516973 0.48598799
-0.26267892 -0.22357461 0.4825452
-0.26114017 -0.22371291 0.4828437
-0.24701135 -0.21299666 0.45971462
-0.24104846 -0.20922688 0.45157823
-0.23529302 -0.20558825 0.4437249
-0.22989191 -0.20221262 0.43643922
-0.22871488 -0.20253202 0.4371286
-0.2275341 -0.20285243 0.43782014
-0.22634955 -0.20317383 0.43851382
-0.22516128 -0.20349628 0.43920976
-0.22396922 -0.20381975 0.43990791
-0.22277336 -0.20414422 0.44060823
-0.22157368 -0.20446976 0.44131082
-0.22037019 -0.20479633 0.44201568
-0.21916281 -0.20512392 0.44272271
-0.21795158 -0.20545258 0.44343206
-0.21673644 -0.20578225 0.44414362
-0.2155174 -0.206113 0.44485748
-0.21429442 -0.20644481 0.44557363
-0.21306752 -0.20677769 0.4462921
-0.21183662 -0.20711164 0.44701287
-0.21060176 -0.20744668 0.447736
-0.20936292 -0.20778283 0.4484615
-0.20812005 -0.20812005 0.44918934
-0.20687313 -0.20845836 0.44991952
-0.20562214 -0.20879777 0.45065206
-0.20436707 -0.20913829 0.45138702
-0.20310792 -0.20947993 0.45212439
-0.20184463 -0.20982267 0.45286414
-0.20057721 -0.21016657 0.45360637
-0.19930564 -0.21051158 0.45435101
-0.19802986 -0.2108577 0.45509806
-0.1967499 -0.21120499 0.45584762
-0.1954657 -0.21155341 0.45659962
-0.28396183 -0.23528264 0.51170617
-0.2766017 -0.2306487 0.50162798
-0.26952595 -0.22619382 0.49193925
-0.26272327 -0.22191188 0.48262665
-0.26051193 -0.22147757 0.48168209
-0.24986883 -0.21382217 0.4650327
-0.24378479 -0.20999284 0.45670444
-0.23791702 -0.20630015 0.44867337
-0.23225206 -0.20273508 0.44091985
-0.22892502 -0.20117654 0.43753025
-0.22774348 -0.20149508 0.43822303
-0.22655821 -0.20181465 0.43891805
-0.22536916 -0.20213522 0.43961525
-0.22417633 -0.20245682 0.44031468
-0.22297968 -0.20277943 0.44101632
-0.22177923 -0.20310308 0.44172022
-0.22057493 -0.20342776 0.44242635
-0.21936679 -0.20375349 0.44313475
-0.21815476 -0.20408025 0.44384542
-0.21693882 -0.20440806 0.44455835
-0.21571897 -0.2047369 0.44527355
-0.21449517 -0.20506682 0.44599104
-0.21326743 -0.20539778 0.44671085
-0.21203572 -0.20572983 0.44743299
-0.21080001 -0.20606293 0.44815746
-0.2095603 -0.20639713 0.44888431
-0.20831659 -0.20673244 0.44961354
-0.20706882 -0.20706882 0.4503451
-0.20581695 -0.20740628 0.45107904
-0.20456102 -0.20774485 0.4518154
-0.20330098 -0.20808454 0.45255417
-0.20203681 -0.20842533 0.45329532
-0.20076849 -0.20876724 0.45403892
-0.19949602 -0.20911029 0.45478502
-0.19821934 -0.20945445 0.45553353
-0.19693846 -0.20979975 0.45628449
-0.19565335 -0.21014619 0.45703796
-0.19436398 -0.21049377 0.45779389
-0.28009924 -0.23177542 0.50797093
-0.27286735 -0.22724323 0.49803796
-0.26591289 -0.22288491 0.48848605
-0.25943023 -0.21886784 0.47968203
-0.25278869 -0.21466318 0.47046688
-0.24658394 -0.21077636 0.46194834
-0.24060023 -0.20702811 0.45373344
-0.23482561 -0.2034108 0.44580561
-0.2292493 -0.19991775 0.43815002
-0.22795327 -0.20013525 0.43862671
-0.22676723 -0.20045294 0.43932298
-0.22557741 -0.20077164 0.44002149
-0.2243838 -0.20109136 0.4407222
-0.22318639 -0.20141211 0.44142514
-0.22198515 -0.20173386 0.44213033
-0.22078006 -0.20205666 0.44283777
-0.21957111 -0.20238049 0.44354752
-0.21835829 -0.20270537 0.44425952
-0.21714155 -0.20303127 0.4449738
-0.21592091 -0.20335825 0.44569039
-0.21469629 -0.20368622 0.44640923
-0.21346773 -0.20401528 0.44713041
-0.21223518 -0.20434539 0.44785389
-0.21099864 -0.20467658 0.44857973
-0.20975809 -0.20500885 0.44930795
-0.20851351 -0.2053422 0.45003855
-0.20726487 -0.20567663 0.45077151
-0.20601216 -0.20601216 0.45150685
-0.20475534 -0.20634876 0.45224458
-0.20349441 -0.20668648 0.45298475
-0.20222937 -0.2070253 0.45372733
-0.20096014 -0.20736524 0.45447236
-0.19968677 -0.20770632 0.45521986
-0.19840918 -0.20804851 0.45596981
-0.19712739 -0.20839182 0.45672223
-0.19584134 -0.20873626 0.45747712
-0.19455105 -0.20908183 0.45823452
-0.28368637 -0.23293097 0.5144763
-0.27629268 -0.22831902 0.50428987
-0.26918608 -0.22388615 0.49449894
-0.26235768 -0.21962841 0.48509485
-0.25579327 -0.21553728 0.47605872
-0.24945417 -0.21158324 0.46732542
-0.24334462 -0.20777266 0.45890895
-0.23745681 -0.20410168 0.45080084
-0.23177345 -0.20055817 0.44297427
-0.22816345 -0.19877289 0.43903112
-0.22697663 -0.19908872 0.43972868
-0.22578605 -0.19940555 0.44042847
-0.22459167 -0.19972339 0.44113049
-0.22339347 -0.20004223 0.44183472
-0.22219144 -0.2003621 0.44254121
-0.22098558 -0.20068301 0.44325
-0.21977584 -0.20100495 0.44396108
-0.2185622 -0.20132791 0.44467437
-0.21734466 -0.2016519 0.44538999
-0.21612319 -0.20197694 0.44610792
-0.2148978 -0.20230307 0.44682822
-0.21366839 -0.20263018 0.44755071
-0.21243502 -0.20295836 0.4482756
-0.21119763 -0.20328762 0.4490028
-0.20995624 -0.20361793 0.44973239
-0.20871079 -0.20394933 0.45046434
-0.20746131 -0.20428182 0.45119873
-0.20620771 -0.20461537 0.45193544
-0.20495003 -0.20495003 0.4526746
-0.20368822 -0.20528577 0.45341617
-0.20242228 -0.20562261 0.45416015
-0.20115216 -0.20596059 0.45490661
-0.19987787 -0.20629965 0.45565552
-0.1985994 -0.20663987 0.45640695
-0.19731668 -0.20698117 0.4571608
-0.19602972 -0.20732361 0.45791715
-0.19473849 -0.20766719 0.45867601
-0.19344297 -0.2080119 0.45943737
-0.27980506 -0.22942217 0.5107007
-0.27254087 -0.22491236 0.50066173
-0.26555675 -0.22057645 0.49100986
-0.25884214 -0.21640901 0.48173302
-0.25237969 -0.21239874 0.47280604
-0.24615237 -0.20853439 0.46420389
-0.24014768 -0.20480822 0.45590931
-0.23435378 -0.20121284 0.4479059
-0.22875984 -0.19774155 0.44017869
-0.22718643 -0.19772197 0.44013512
-0.22599509 -0.19803694 0.44083622
-0.22479992 -0.19835286 0.4415395
-0.22360094 -0.19866982 0.44224507
-0.22239812 -0.1989878 0.44295287
-0.22119148 -0.1993068 0.443663
-0.21998093 -0.19962682 0.44437537
-0.2187665 -0.19994786 0.44509003
-0.21754815 -0.20026997 0.44580701
-0.21632588 -0.20059308 0.44652629
-0.21509963 -0.20091723 0.44724786
-0.21386942 -0.20124245 0.44797179
-0.21263523 -0.20156871 0.44869807
-0.21139702 -0.20189603 0.44942668
-0.21015476 -0.20222439 0.45015761
-0.20890845 -0.20255382 0.45089096
-0.2076581 -0.20288435 0.45162672
-0.20640364 -0.20321594 0.45236486
-0.20514509 -0.20354863 0.45310542
-0.2038824 -0.2038824 0.45384839
-0.20261554 -0.20421726 0.45459381
-0.20134455 -0.20455323 0.4553417
-0.20006935 -0.2048903 0.45609203
-0.19878997 -0.20522851 0.4568449
-0.19750634 -0.20556782 0.45760021
-0.19621845 -0.20590825 0.45835802
-0.19492629 -0.2062498 0.45911834
-0.19362983 -0.2065925 0.45988119
-0.27598032 -0.22596446 0.50698006
-0.26884267 -0.22155438 0.49708548
-0.26198724 -0.21732055 0.48758635
-0.25538677 -0.21324374 0.47843951
-0.24902149 -0.20931041 0.4696146
-0.24290021 -0.20553094 0.46113485
-0.23699224 -0.20188229 0.45294863
-0.23129036 -0.19836088 0.44504791
-0.22739662 -0.19635272 0.44054234
-0.22620448 -0.19666576 0.44124469
-0.22500856 -0.19697981 0.44194931
-0.22380883 -0.19729489 0.44265622
-0.22260521 -0.19761094 0.44336534
-0.22139776 -0.19792803 0.44407675
-0.2201864 -0.19824612 0.44479042
-0.21897118 -0.19856526 0.44550645
-0.21775202 -0.19888541 0.44622478
-0.21652892 -0.19920661 0.4469454
-0.21530186 -0.19952883 0.44766834
-0.21407084 -0.19985211 0.44839367
-0.2128358 -0.20017643 0.44912133
-0.21159676 -0.2005018 0.44985133
-0.21035366 -0.20082821 0.45058367
-0.20910649 -0.20115568 0.45131838
-0.20785525 -0.20148422 0.45205551
-0.20659997 -0.20181386 0.45279512
-0.20534052 -0.20214456 0.45353708
-0.20407695 -0.20247634 0.45428148
-0.20280921 -0.20280921 0.45502833
-0.20153731 -0.20314318 0.45577762
-0.20026122 -0.20347826 0.45652941
-0.19898088 -0.20381443 0.45728365
-0.19769634 -0.20415173 0.45804045
-0.19640754 -0.20449015 0.45879972
-0.19511445 -0.20482969 0.45956153
-0.19381705 -0.20517035 0.46032584
-0.19251534 -0.20551215 0.46109271
-0.2795077 -0.22704346 0.51345992
-0.2722109 -0.2225568 0.5033133
-0.26519692 -0.21824402 0.49355993
-0.25846258 -0.21410596 0.4842017
-0.25196755 -0.21011248 0.4751704
-0.24571939 -0.2062728 0.46648696
-0.23969077 -0.20256694 0.45810613
-0.23387752 -0.1989941 0.45002612
-0.22826579 -0.19554509 0.4422262
-0.22641429 -0.19529206 0.44165394
-0.2252176 -0.19560422 0.44235989
-0.22401707 -0.19591737 0.44306809
-0.22281268 -0.19623151 0.44377854
-0.22160441 -0.19654667 0.44449127
-0.22039227 -0.19686285 0.44520631
-0.21917623 -0.19718005 0.44592366
-0.21795626 -0.19749828 0.44664332
-0.21673234 -0.19781752 0.44736528
-0.21550447 -0.1981378 0.44808963
-0.2142726 -0.19845913 0.4488163
-0.21303673 -0.19878149 0.44954532
-0.21179684 -0.19910489 0.4502767
-0.21055293 -0.19942938 0.45101053
-0.20930491 -0.19975488 0.45174664
-0.20805281 -0.20008144 0.45248517
-0.20679662 -0.20040908 0.45322612
-0.20553632 -0.2007378 0.45396954
-0.20427185 -0.20106758 0.45471534
-0.20300324 -0.20139848 0.45546365
-0.20173043 -0.20173043 0.45621437
-0.20045343 -0.2020635 0.45696759
-0.1991722 -0.20239766 0.45772329
-0.19788672 -0.20273294 0.45848152
-0.19659701 -0.20306934 0.45924231
-0.19530298 -0.20340683 0.46000555
-0.19400464 -0.20374545 0.46077135
-0.19270198 -0.20408522 0.46153972
-0.27566463 -0.22358467 0.50969917
-0.26849562 -0.21919806 0.49969918
-0.26160675 -0.21498376 0.49009195
-0.25498417 -0.21093374 0.48085925
-0.24859947 -0.20702764 0.47195464
-0.24245146 -0.20326738 0.46338248
-0.23652318 -0.1996416 0.4551169
-0.23080273 -0.19614293 0.44714108
-0.2266245 -0.19391581 0.44206399
-0.22542702 -0.19422606 0.44277123
-0.2242257 -0.19453728 0.44348073
-0.22302052 -0.19484951 0.4441925
-0.22181147 -0.19516274 0.44490659
-0.22059853 -0.19547699 0.44562295
-0.21938168 -0.19579224 0.44634163
-0.21816088 -0.19610852 0.44706264
-0.21693616 -0.19642583 0.447786
-0.21570744 -0.19674414 0.44851166
-0.21447474 -0.19706351 0.4492397
-0.21323803 -0.19738391 0.4499701
-0.21199732 -0.19770536 0.45070291
-0.21075253 -0.19802785 0.45143807
-0.20950368 -0.1983514 0.45217565
-0.20825075 -0.19867601 0.45291564
-0.20699367 -0.19900164 0.45365798
-0.20573249 -0.19932838 0.45440283
-0.20446715 -0.19965616 0.45515007
-0.20319764 -0.19998503 0.4558998
-0.20192394 -0.20031498 0.45665199
-0.20064603 -0.20064603 0.45740664
-0.19936387 -0.20097816 0.4581638
-0.19807747 -0.20131139 0.45892346
-0.19678682 -0.20164576 0.45968571
-0.19549187 -0.20198123 0.46045047
-0.19419259 -0.20231779 0.46121773
-0.19288898 -0.20265549 0.46198758
-0.191581 -0.20299433 0.46276
-0.27920711 -0.22463895 0.51624918
-0.27187747 -0.22017618 0.50599313
-0.26483336 -0.21588726 0.49613667
-0.25807291 -0.21177411 0.48668411
-0.25155446 -0.20780584 0.47756454
-0.24527904 -0.20398629 0.46878669
-0.23922943 -0.20030396 0.46032423
-0.23339671 -0.19675423 0.4521665
-0.22776711 -0.1933281 0.44429281
-0.22563682 -0.19284531 0.4431833
-0.22443472 -0.19315462 0.44389412
-0.22322875 -0.19346492 0.44460726
-0.22201891 -0.19377622 0.44532266
-0.22080515 -0.19408852 0.44604036
-0.21958749 -0.19440183 0.44676039
-0.21836589 -0.19471617 0.44748276
-0.21714035 -0.19503151 0.44820747
-0.21591081 -0.19534788 0.44893453
-0.21467727 -0.19566526 0.44966391
-0.21343975 -0.19598371 0.45039573
-0.21219815 -0.19630316 0.45112988
-0.21095252 -0.19662367 0.45186645
-0.20970283 -0.19694525 0.45260549
-0.20844904 -0.19726786 0.45334688
-0.20719109 -0.19759151 0.45409068
-0.20592903 -0.19791622 0.45483691
-0.20466281 -0.19824202 0.45558563
-0.2033924 -0.19856887 0.45633677
-0.2021178 -0.1988968 0.45709041
-0.20083898 -0.19922581 0.45784652
-0.19955592 -0.19955592 0.45860514
-0.19826861 -0.19988713 0.45936629
-0.19697699 -0.20021942 0.46012995
-0.19568112 -0.20055285 0.46089622
-0.19438089 -0.20088737 0.46166497
-0.19307633 -0.201223 0.46243632
-0.19176739 -0.20155977 0.46321025
-0.27534553 -0.2211792 0.5124476
-0.26814494 -0.21681687 0.50234056
-0.26122969 -0.21262883 0.49263734
-0.25457746 -0.20860027 0.48330361
-0.24816875 -0.20471834 0.47430959
-0.24199829 -0.20098163 0.46565208
-0.23604965 -0.19737941 0.45730612
-0.2303105 -0.19390403 0.44925407
-0.22584704 -0.19146201 0.44359618
-0.22464414 -0.19176939 0.44430834
-0.22343738 -0.19207774 0.44502276
-0.22222674 -0.1923871 0.44573951
-0.2210122 -0.19269748 0.44645861
-0.21979372 -0.19300883 0.44717997
-0.21857131 -0.1933212 0.44790369
-0.21734492 -0.19363457 0.44862974
-0.21611457 -0.19394897 0.4493582
-0.2148802 -0.1942644 0.45008898
-0.21364182 -0.19458084 0.45082214
-0.21239938 -0.19489831 0.4515577
-0.21115291 -0.19521683 0.45229569
-0.20990233 -0.19553639 0.45303607
-0.20864767 -0.195857 0.45377889
-0.20738886 -0.19617864 0.4545241
-0.20612596 -0.19650139 0.45527187
-0.20485882 -0.19682515 0.45602196
-0.20358755 -0.19714999 0.45677459
-0.20231204 -0.1974759 0.45752966
-0.20103231 -0.19780287 0.45828724
-0.19974834 -0.19813094 0.45904735
-0.1984601 -0.1984601 0.45980996
-0.19716756 -0.19879034 0.4605751
-0.19587071 -0.19912168 0.46134278
-0.19456957 -0.19945417 0.46211311
-0.19326405 -0.19978774 0.46288595
-0.19195415 -0.20012242 0.46366137
-0.19063985 -0.20045821 0.46443939
-0.27890325 -0.22220817 0.5190689
-0.27154043 -0.21777004 0.50870162
-0.26446658 -0.21350624 0.49874157
-0.25767797 -0.20941721 0.48918977
-0.25114155 -0.20547944 0.47999129
-0.24483234 -0.20167544 0.47110534
-0.23876359 -0.19801895 0.4625639
-0.23291129 -0.19449294 0.45432729
-0.22726378 -0.1910903 0.44637889
-0.22485393 -0.19038156 0.44472328
-0.22364639 -0.19068797 0.44543904
-0.22243497 -0.1909954 0.44615719
-0.2212196 -0.19130379 0.44687757
-0.22000033 -0.19161318 0.44760031
-0.21877708 -0.19192357 0.44832537
-0.21754989 -0.19223499 0.44905284
-0.21631871 -0.19254743 0.44978264
-0.21508349 -0.19286084 0.45051479
-0.21384425 -0.1931753 0.45124933
-0.21260101 -0.1934908 0.45198634
-0.21135366 -0.19380732 0.45272571
-0.21010222 -0.19412486 0.45346749
-0.20884667 -0.19444346 0.45421171
-0.20758702 -0.19476311 0.45495841
-0.20632321 -0.19508381 0.45570755
-0.20505522 -0.19540556 0.45645913
-0.20378304 -0.19572838 0.45721322
-0.20250665 -0.19605225 0.45796978
-0.20122601 -0.19637719 0.45872882
-0.19994113 -0.19670321 0.45949039
-0.19865195 -0.19703031 0.46025446
-0.19735849 -0.19735849 0.4610211
-0.1960607 -0.19768776 0.46179026
-0.19475861 -0.19801816 0.46256208
-0.19345213 -0.19834967 0.46333644
-0.19214128 -0.19868226 0.46411338
-0.19082603 -0.19901597 0.46489292
-0.27502298 -0.21874766 0.51522583
-0.2677905 -0.21441033 0.50500995
-0.26085243 -0.2102523 0.49521634
-0.25416657 -0.20624292 0.48577288
-0.24773362 -0.20238577 0.47668797
-0.24154526 -0.19867715 0.46795291
-0.23557153 -0.19509533 0.45951647
-0.22981358 -0.19164385 0.45138705
-0.22506413 -0.18899113 0.44513899
-0.22385581 -0.1892956 0.44585615
-0.22264357 -0.18960106 0.44657558
-0.22142741 -0.18990749 0.44729733
-0.2202073 -0.1902149 0.44802141
-0.21898328 -0.19052336 0.4487479
-0.21775524 -0.19083278 0.44947672
-0.21652323 -0.19114321 0.45020789
-0.21528716 -0.19145465 0.45094141
-0.21404712 -0.19176713 0.45167741
-0.21280299 -0.1920806 0.45241576
-0.21155478 -0.19239511 0.45315653
-0.21030249 -0.19271065 0.45389974
-0.2090461 -0.19302724 0.45464543
-0.20778556 -0.19334486 0.45539352
-0.20652084 -0.19366351 0.45614406
-0.20525196 -0.19398323 0.45689711
-0.20397891 -0.19430402 0.45765269
-0.20270161 -0.19462585 0.45841071
-0.2014201 -0.19494876 0.45917127
-0.20013428 -0.19527271 0.45993429
-0.19884419 -0.19559775 0.46069986
-0.19754979 -0.19592386 0.46146795
-0.19625106 -0.19625106 0.46223864
-0.19494802 -0.19657938 0.46301192
-0.1936406 -0.1969088 0.46378782
-0.19232878 -0.19723929 0.46456626
-0.19101253 -0.19757091 0.46534732
-0.27859604 -0.21975067 0.52191955
-0.27119976 -0.21533802 0.51143926
-0.26409757 -0.21110141 0.50137711
-0.25727817 -0.2070353 0.49171987
-0.25070885 -0.20311666 0.48241287
-0.24438359 -0.19934361 0.4734517
-0.23829322 -0.19571161 0.46482551
-0.23242125 -0.19220996 0.4565089
-0.22675568 -0.18883139 0.4484846
-0.2240656 -0.18790063 0.44627401
-0.22285256 -0.18820411 0.44699478
-0.22163558 -0.18850856 0.44771788
-0.2204147 -0.18881403 0.44844338
-0.21918982 -0.18912047 0.44917119
-0.21796098 -0.18942791 0.44990137
-0.21672812 -0.18973634 0.45063391
-0.21549127 -0.1900458 0.4513689
-0.21425034 -0.19035625 0.45210624
-0.21300538 -0.19066773 0.45284602
-0.2117563 -0.19098021 0.45358819
-0.21050315 -0.19129375 0.45433283
-0.20924588 -0.19160829 0.45507991
-0.20798445 -0.19192387 0.45582944
-0.20671886 -0.19224051 0.45658144
-0.20544912 -0.1925582 0.45733598
-0.20417513 -0.19287691 0.45809293
-0.20289694 -0.1931967 0.45885244
-0.20161451 -0.19351755 0.45961449
-0.2003278 -0.19383946 0.46037903
-0.19903679 -0.19416241 0.46114609
-0.19774146 -0.19448645 0.4619157
-0.1964418 -0.19481158 0.46268788
