# .PCD v0.7 - Point Cloud Data file format
VERSION 0.7
FIELDS x y z
SIZE 4 4 4
TYPE F F F
COUNT 1 1 1
WIDTH 1420
HEIGHT 1
VIEWPOINT 0 0 0 1 0 0 0
POINTS 1420
DATA ascii
0.27072099 -0.33548677 0.73527008
0.27043205 -0.33195212 0.72752339
0.27014914 -0.32849118 0.71993822
0.26987207 -0.3251017 0.71250963
0.26960066 -0.32178143 0.70523274
0.2693367 -0.31853062 0.69810808
0.26907578 -0.31534219 0.69112021
0.26882002 -0.31221697 0.6842708
0.26856926 -0.30915308 0.6775558
0.27034891 -0.30845976 0.6760363
0.27271256 -0.30843911 0.675991
0.27507585 -0.30841839 0.67594564
0.27743885 -0.30839771 0.67590028
0.27980152 -0.308377 0.67585492
0.28216392 -0.30835634 0.67580962
0.28452593 -0.30833563 0.67576426
0.28688768 -0.30831498 0.67571896
0.28924909 -0.3082943 0.67567366
0.29161015 -0.30827361 0.6756283
0.29397097 -0.30825296 0.67558306
0.29633141 -0.30823228 0.67553771
0.2986916 -0.30821165 0.67549253
0.30105144 -0.308191 0.67544729
0.30341098 -0.30817038 0.67540205
0.30577019 -0.30814973 0.67535681
0.30812907 -0.30812907 0.67531157
0.31048766 -0.30810845 0.67526633
0.31284592 -0.3080878 0.67522109
0.27057087 -0.34595379 0.76411062
0.27027401 -0.34216955 0.75575233
0.26998261 -0.33846599 0.74757224
0.26969692 -0.3348411 0.73956591
0.26941714 -0.33129287 0.73172891
0.26914325 -0.32781902 0.72405624
0.26887506 -0.32441732 0.71654284
0.26861233 -0.32108542 0.70918369
0.26835498 -0.31782135 0.70197427
0.26810291 -0.31462306 0.69491017
0.26785704 -0.31148985 0.68798989
0.26761445 -0.30841666 0.68120211
0.2683188 -0.30647969 0.67692387
0.27068564 -0.30645907 0.67687833
0.27305222 -0.30643851 0.67683291
0.27541843 -0.30641791 0.67678744
0.27778435 -0.30639732 0.67674196
0.28014997 -0.30637676 0.67669654
0.28251523 -0.30635616 0.67665106
0.28488019 -0.3063356 0.67660564
0.28724483 -0.306315 0.67656016
0.28960916 -0.30629447 0.6765148
0.29197317 -0.30627388 0.67646933
0.29433692 -0.30625337 0.67642403
0.29670027 -0.30623281 0.67637861
0.29906335 -0.30621228 0.67633325
0.30142611 -0.30619174 0.67628789
0.30378854 -0.30617121 0.67624253
0.30615067 -0.30615067 0.67619717
0.30851248 -0.30613014 0.67615181
0.31087399 -0.30610964 0.67610651
0.26950508 -0.34534571 0.76875001
0.26921818 -0.34154543 0.7602905
0.26893839 -0.33782899 0.75201762
0.26866075 -0.33418778 0.7439121
0.26839042 -0.33062589 0.73598325
0.26812577 -0.32713911 0.7282216
0.26786667 -0.32372513 0.72062194
0.2676129 -0.32038167 0.71317929
0.26736435 -0.31710654 0.70588881
0.26712078 -0.3138977 0.69874579
0.26688355 -0.31075484 0.69174969
0.26664931 -0.30767229 0.68488783
0.26641965 -0.30465028 0.67816079
0.26865339 -0.30447385 0.67776805
0.27102321 -0.30445337 0.67772245
0.27339268 -0.3044329 0.67767686
0.27576184 -0.30441242 0.67763132
0.27813068 -0.30439195 0.67758572
0.28049922 -0.30437151 0.67754018
0.2828674 -0.304351 0.67749459
0.28523532 -0.30433056 0.67744905
0.28760287 -0.30431008 0.67740351
0.28997016 -0.30428967 0.67735803
0.29233712 -0.30426922 0.67731255
0.29470375 -0.30424881 0.67726707
0.29707006 -0.30422837 0.6772216
0.29943603 -0.30420792 0.67717606
0.30180171 -0.30418748 0.67713058
0.30416709 -0.30416709 0.67708516
0.30653211 -0.30414665 0.67703968
0.30889684 -0.30412623 0.6769942
0.22168139 -0.31332621 0.70298725
0.22140174 -0.30947316 0.69434243
0.22112885 -0.30571365 0.68590754
0.22146581 -0.30286944 0.67952621
0.26814955 -0.34091377 0.76488346
0.26787889 -0.33718088 0.75650829
0.26761237 -0.33352673 0.74830973
0.26735166 -0.32995108 0.7402873
0.26709652 -0.3264513 0.73243511
0.26684675 -0.32302502 0.72474778
0.26660213 -0.31966987 0.71722007
0.26636258 -0.31638369 0.70984715
0.26612785 -0.31316441 0.70262426
0.26589894 -0.31001121 0.69554967
0.26567364 -0.30691978 0.68861365
0.26545238 -0.30388892 0.68181354
0.26661581 -0.30248341 0.67866009
0.26898888 -0.30246305 0.67861438
0.27136162 -0.3024427 0.67856872
0.273734 -0.30242229 0.67852294
0.27610612 -0.30240193 0.67847729
0.27847791 -0.3023816 0.67843163
0.28084937 -0.30236125 0.67838597
0.2832205 -0.30234087 0.67834026
0.2855913 -0.30232051 0.6782946
0.28796184 -0.30230018 0.678249
0.29033202 -0.30227983 0.67820334
0.2927019 -0.3022595 0.67815775
0.29507148 -0.30223921 0.67811215
0.29744074 -0.30221891 0.67806661
0.29980966 -0.30219859 0.67802101
0.30217826 -0.30217826 0.67797542
0.30454654 -0.30215794 0.67792982
0.30691448 -0.30213761 0.67788422
0.30928215 -0.30211732 0.67783868
0.2224737 -0.33842969 0.76536041
0.22215895 -0.33390358 0.75512457
0.22185251 -0.32949692 0.74515891
0.22155406 -0.32520509 0.73545289
0.22126326 -0.32102355 0.72599638
0.22097987 -0.31694826 0.71678007
0.22070357 -0.31297511 0.70779479
0.22043411 -0.30910033 0.69903195
0.22017126 -0.30532035 0.69048351
0.21991472 -0.30163166 0.68214148
0.22174311 -0.30085146 0.68037707
0.22412525 -0.30083123 0.68033129
0.2265071 -0.30081099 0.68028557
0.26706797 -0.34027442 0.76953226
0.26680759 -0.33652616 0.76105553
0.26655152 -0.33285785 0.7527597
0.26630074 -0.32926843 0.74464214
0.26605535 -0.32575557 0.73669779
0.26581511 -0.32231686 0.72892118
0.26557988 -0.31895 0.72130698
0.26534951 -0.31565273 0.7138502
0.26512387 -0.31242296 0.70654607
0.2649028 -0.30925861 0.69938987
0.26468822 -0.30616009 0.69238257
0.26447469 -0.30311939 0.68550599
0.26457286 -0.30048773 0.67955446
0.26694921 -0.30046749 0.67950869
0.2693252 -0.30044723 0.67946285
0.27170089 -0.30042696 0.67941707
0.27407622 -0.30040669 0.67937124
0.27645129 -0.30038646 0.67932546
0.278826 -0.30036619 0.67927963
0.28120038 -0.30034596 0.67923385
0.28357446 -0.30032572 0.67918807
0.28594825 -0.30030549 0.67914236
0.2883217 -0.30028525 0.67909658
0.29069483 -0.30026504 0.67905086
0.29306766 -0.30024481 0.67900515
0.29544014 -0.3002246 0.67895943
0.29781231 -0.3002044 0.67891371
0.30018419 -0.30018419 0.678868
0.30255571 -0.30016395 0.67882228
0.30492693 -0.30014378 0.67877662
0.30729786 -0.30012357 0.67873096
0.22141437 -0.33823425 0.77106231
0.22111158 -0.33367747 0.76067442
0.22081685 -0.32924187 0.75056273
0.22052982 -0.32492265 0.74071628
0.22025025 -0.32071528 0.73112488
0.21997783 -0.31661549 0.72177869
0.21971229 -0.31261918 0.71266848
0.21945333 -0.3087225 0.7037853
0.2192008 -0.30492178 0.69512093
0.21895437 -0.30121347 0.6866672
0.21963568 -0.29884854 0.68127596
0.22202112 -0.29882842 0.68123007
0.22440623 -0.29880828 0.68118417
0.22679102 -0.29878819 0.68113834
0.22917551 -0.29876807 0.6810925
0.26572332 -0.33586347 0.76565778
0.26547742 -0.33218029 0.75726134
0.26523736 -0.32857761 0.74904841
0.26500189 -0.32505161 0.74101025
0.26477146 -0.32160047 0.73314279
0.26454586 -0.31822181 0.72544062
0.26432493 -0.31491345 0.71789861
0.26410857 -0.31167313 0.7105118
0.26389661 -0.30849883 0.70327544
0.26368892 -0.30538857 0.69618505
0.2634863 -0.30234143 0.68923855
0.26328647 -0.29935312 0.68242621
0.26490411 -0.29846662 0.68040532
0.26728338 -0.29844648 0.68035936
0.26966232 -0.2984263 0.68031341
0.27204096 -0.29840618 0.68026751
0.27441928 -0.29838604 0.68022156
0.27679726 -0.29836589 0.68017566
0.27917498 -0.29834577 0.68012983
0.28155231 -0.29832566 0.68008393
0.28392935 -0.29830551 0.68003803
0.28630608 -0.29828542 0.6799922
0.28868249 -0.29826531 0.67994636
0.29105854 -0.29824516 0.67990047
0.29343429 -0.29822508 0.67985463
0.29580975 -0.29820496 0.6798088
0.29818484 -0.29818484 0.67976296
0.30055964 -0.29816476 0.67971712
0.30293414 -0.29814467 0.67967135
0.30530828 -0.29812455 0.67962551
0.22004871 -0.33344805 0.76630646
0.21976602 -0.3289831 0.7560454
0.21949084 -0.32463616 0.7460556
0.21922283 -0.32040259 0.73632634
0.21896173 -0.31627804 0.72684759
0.21870723 -0.3122583 0.7176097
0.21845914 -0.30833948 0.70860374
0.21821719 -0.30451778 0.699821
0.21798117 -0.30078965 0.6912533
0.21775085 -0.29715171 0.6828928
0.2199114 -0.29682028 0.68213117
0.22229981 -0.29680029 0.68208522
0.22468792 -0.29678029 0.68203926
0.22707565 -0.29676026 0.68199319
0.22946312 -0.29674026 0.68194723
0.23185024 -0.29672027 0.68190128
0.23423705 -0.29670027 0.68185532
0.26439232 -0.33149695 0.76182258
0.26416132 -0.32787862 0.7535072
0.2639361 -0.32433939 0.74537361
0.26371568 -0.32087576 0.7374137
0.26349992 -0.31748527 0.72962195
0.26328868 -0.31416571 0.72199321
0.26308182 -0.31091487 0.71452236
0.26287919 -0.30773062 0.70720452
0.26268068 -0.30461091 0.70003504
0.26248652 -0.30155429 0.69301051
0.26229611 -0.29855824 0.68612522
0.26285365 -0.29646051 0.68130434
0.2652362 -0.29644045 0.68125826
0.26761845 -0.29642043 0.68121225
0.27000034 -0.29640037 0.68116611
0.27238193 -0.29638034 0.6811201
0.27476323 -0.29636034 0.68107414
0.27714419 -0.29634032 0.68102813
0.2795248 -0.29632029 0.68098211
0.28190511 -0.29630026 0.6809361
0.28428513 -0.29628026 0.68089014
0.28666478 -0.29626024 0.68084413
0.28904414 -0.29624027 0.68079817
0.29142317 -0.29622027 0.68075222
0.29380187 -0.29620028 0.68070626
0.29618028 -0.29618028 0.68066031
0.29855832 -0.29616028 0.68061435
0.30093607 -0.29614028 0.6805684
0.30331349 -0.29612029 0.6805225
0.30569059 -0.29610032 0.68047655
0.21896996 -0.33321515 0.77202243
0.21869977 -0.32872051 0.76160884
0.21843678 -0.32434553 0.75147247
0.21818067 -0.32008541 0.7416023
0.21793124 -0.31593582 0.73198813
0.21768817 -0.31189242 0.72262001
0.21745124 -0.30795118 0.71348864
0.21722023 -0.30410832 0.70458513
0.21699488 -0.30036014 0.69590104
0.21677503 -0.29670325 0.68742841
0.21779612 -0.2948069 0.68303478
0.22018783 -0.29478699 0.68298864
0.22257923 -0.29476708 0.68294251
0.22497028 -0.29474717 0.68289638
0.22736104 -0.29472727 0.6828503
0.22975145 -0.29470736 0.68280417
0.23214157 -0.29468748 0.68275809
0.23453137 -0.2946676 0.68271208
0.23692083 -0.29464772 0.682666
0.23930994 -0.29462782 0.68261987
0.26264754 -0.32014254 0.74173462
0.26244193 -0.31674024 0.73385191
0.26224059 -0.31340948 0.7261349
0.26204345 -0.31014806 0.71857852
0.26185039 -0.30695379 0.71117777
0.26166123 -0.30382466 0.70392793
0.26147592 -0.30075869 0.69682443
0.26129413 -0.29775378 0.68986237
0.26111662 -0.29480907 0.68303984
0.26318359 -0.29442912 0.68215954
0.26556912 -0.29440919 0.68211335
0.26795432 -0.29438925 0.68206716
0.27033919 -0.29436934 0.68202102
0.27272379 -0.29434946 0.68197495
0.27510804 -0.29432955 0.68192881
0.27749196 -0.29430965 0.68188268
0.27987555 -0.29428974 0.68183655
0.28225884 -0.29426983 0.68179047
0.28464177 -0.29424992 0.68174434
0.28702441 -0.29423004 0.68169826
0.28940672 -0.29421017 0.68165219
0.29178873 -0.29419026 0.68160611
0.29417038 -0.29417038 0.68156004
0.29655173 -0.2941505 0.68151397
0.29893273 -0.29413059 0.68146789
0.30131343 -0.29411072 0.68142182
0.30369383 -0.29409087 0.6813758
0.21761769 -0.32845405 0.76725477
0.21736729 -0.32405061 0.75696856
0.21712349 -0.31976369 0.7469545
0.21688607 -0.31558871 0.73720193
0.21665478 -0.31152138 0.72770077
0.21642932 -0.30755746 0.71844125
0.21620956 -0.30369321 0.70941448
0.21599525 -0.29992485 0.70061177
0.21578619 -0.29624882 0.69202477
0.21567519 -0.29278812 0.68394065
0.21807022 -0.2927683 0.6838944
0.22046494 -0.29274854 0.6838482
0.22285934 -0.29272875 0.68380201
0.22525339 -0.29270896 0.68375576
0.22764713 -0.29268914 0.6837095
0.23004054 -0.29266939 0.68366331
0.23243363 -0.2926496 0.68361712
0.2348264 -0.29262984 0.68357092
0.23721886 -0.29261005 0.68352473
0.23961098 -0.29259029 0.68347859
0.24200276 -0.2925705 0.68343234
0.24439426 -0.29255074 0.68338621
0.26099318 -0.3093724 0.72268087
0.26080993 -0.30616817 0.71519589
0.26063037 -0.30302957 0.70786428
0.26045448 -0.29995471 0.70068151
0.26028213 -0.29694161 0.69364303
0.26011363 -0.29398888 0.68674564
0.26112553 -0.29241246 0.68306315
0.26351434 -0.29239264 0.68301684
0.26590285 -0.29237282 0.68297058
0.26829106 -0.29235303 0.68292433
0.27067891 -0.29233322 0.68287808
0.27306646 -0.29231343 0.68283182
0.27545369 -0.29229364 0.68278563
0.27784058 -0.29227385 0.68273938
0.28022715 -0.29225409 0.68269318
0.2826134 -0.29223427 0.68264693
0.28499934 -0.29221451 0.68260074
0.2873849 -0.29219469 0.68255448
0.28977019 -0.29217494 0.68250829
0.29215515 -0.29215515 0.6824621
0.29453978 -0.29213539 0.6824159
0.29692408 -0.2921156 0.68236971
0.29930809 -0.29209584 0.68232358
0.30169174 -0.29207608 0.68227738
0.30407509 -0.29205632 0.68223125
0.21651945 -0.32818356 0.77298498
0.21628202 -0.32375136 0.76254559
0.21605092 -0.31943727 0.75238442
0.21582592 -0.31523666 0.74249053
0.21560672 -0.31114504 0.73285335
0.21539314 -0.30715826 0.72346318
0.21518497 -0.3032724 0.71431059
0.21498199 -0.29948357 0.70538664
0.21478401 -0.29578826 0.69668293
0.21459088 -0.29218307 0.68819141
0.21594702 -0.2907443 0.68480265
0.21834505 -0.29072461 0.68475628
0.22074276 -0.29070497 0.68470997
0.22314014 -0.29068527 0.68466359
0.2255372 -0.29066557 0.68461722
0.22793393 -0.29064593 0.68457091
0.23033035 -0.29062626 0.6845246
0.23272644 -0.29060659 0.68447828
0.23512217 -0.29058689 0.68443191
0.23751764 -0.29056725 0.68438566
0.23991275 -0.29054761 0.68433934
0.24230756 -0.29052797 0.68429309
0.24470201 -0.2905083 0.68424678
0.24709614 -0.29048863 0.68420047
0.24948996 -0.29046899 0.68415421
0.25942168 -0.29914173 0.7045815
0.25925881 -0.29612026 0.69746488
0.25909922 -0.29315919 0.69049054
0.25906202 -0.29039046 0.6839692
0.26145416 -0.29037076 0.68392283
0.26384598 -0.29035103 0.6838764
0.26623747 -0.29033136 0.68383002
0.26862863 -0.29031166 0.68378365
0.27101949 -0.29029199 0.68373728
0.27340999 -0.2902723 0.68369091
0.2758002 -0.2902526 0.68364453
0.27819008 -0.29023296 0.68359822
0.28057963 -0.29021326 0.68355185
0.28296888 -0.29019362 0.68350559
0.28535777 -0.29017392 0.68345922
0.28774634 -0.29015428 0.68341291
0.29013461 -0.29013461 0.6833666
0.29252252 -0.29011494 0.68332028
0.29491013 -0.29009527 0.68327397
0.29729742 -0.2900756 0.68322766
0.29968441 -0.29005599 0.68318141
0.30207101 -0.29003632 0.68313509
0.21518067 -0.32344767 0.76820546
0.21496266 -0.31910607 0.75789392
0.21475042 -0.31487945 0.74785548
0.21454373 -0.31076333 0.73807949
0.21434237 -0.30675346 0.7285558
0.21414612 -0.30284572 0.7192747
0.21395482 -0.29903626 0.71022707
0.21376827 -0.29532149 0.70140427
0.21358632 -0.29169789 0.69279802
0.21381815 -0.28871492 0.68571329
0.21621951 -0.28869534 0.6856668
0.21862057 -0.28867579 0.68562037
0.22102126 -0.28865618 0.68557382
0.22342166 -0.28863662 0.68552738
0.22582173 -0.28861707 0.68548095
0.22822146 -0.28859749 0.68543446
0.23062088 -0.28857794 0.68538803
0.23301996 -0.28855839 0.6853416
0.23541875 -0.28853887 0.68529522
0.23781717 -0.28851929 0.68524873
0.2402153 -0.28849977 0.68520236
0.24261308 -0.28848022 0.68515593
0.24501055 -0.2884607 0.68510956
0.24740769 -0.28844115 0.68506312
0.24980451 -0.28842163 0.68501675
0.25220102 -0.28840211 0.68497038
0.2580741 -0.29232091 0.6942777
0.257927 -0.28941104 0.68736666
0.25938848 -0.28834349 0.68483114
0.26178363 -0.28832391 0.68478465
0.26417845 -0.28830433 0.68473816
0.26657292 -0.28828475 0.68469167
0.26896709 -0.2882652 0.68464518
0.27136093 -0.28824562 0.68459868
0.27375445 -0.28822604 0.68455219
0.27614763 -0.28820649 0.68450576
0.27854046 -0.28818688 0.68445921
0.28093299 -0.28816733 0.68441278
0.28332523 -0.28814778 0.68436635
0.2857171 -0.2881282 0.68431985
0.28810865 -0.28810865 0.68427342
0.29049993 -0.28808913 0.68422705
0.29289085 -0.28806958 0.68418062
0.29528141 -0.28805003 0.68413419
0.29767168 -0.28803048 0.68408775
0.30006161 -0.28801095 0.68404138
0.21406284 -0.32313946 0.77394998
0.21385834 -0.31876996 0.76348466
0.21365929 -0.31451708 0.75329858
0.21346545 -0.31037617 0.74338067
0.21327667 -0.30634287 0.73372054
0.21309273 -0.30241305 0.72430825
0.21291345 -0.29858276 0.71513438
0.21273868 -0.29484832 0.70619005
0.21256818 -0.29120612 0.69746661
0.21240187 -0.28765282 0.68895608
0.21408832 -0.28666064 0.6865797
0.2164927 -0.28664118 0.68653309
0.21889676 -0.28662172 0.68648654
0.22130051 -0.28660229 0.68643999
0.22370391 -0.28658283 0.68639338
0.22610697 -0.28656337 0.68634677
0.22850972 -0.28654394 0.68630022
0.23091215 -0.2865245 0.68625367
0.23331425 -0.28650507 0.68620712
0.23571603 -0.28648564 0.68616056
0.23811749 -0.28646621 0.68611407
0.24051858 -0.28644675 0.68606746
0.2429194 -0.28642735 0.68602097
0.24531987 -0.28640795 0.68597448
0.24772003 -0.28638852 0.68592799
0.25011984 -0.28636909 0.68588144
0.25251934 -0.28634968 0.68583494
0.25491852 -0.28633025 0.68578845
0.25731733 -0.28631082 0.6857419
0.25971583 -0.28629139 0.68569535
0.26211393 -0.2862719 0.68564868
0.26451176 -0.28625244 0.68560207
0.26690924 -0.28623298 0.68555546
0.26930639 -0.28621352 0.68550885
0.27170321 -0.28619406 0.68546224
0.27409974 -0.2861746 0.68541563
0.2764959 -0.28615516 0.68536907
0.27889177 -0.2861357 0.68532246
0.28128731 -0.28611627 0.68527591
0.2836825 -0.28609681 0.6852293
0.28607738 -0.28607738 0.68518275
0.28847194 -0.28605795 0.6851362
0.29086617 -0.28603849 0.68508965
0.29326004 -0.28601906 0.6850431
0.29565361 -0.28599963 0.68499655
0.29804689 -0.28598022 0.68495005
0.30043983 -0.28596079 0.68490356
0.21292815 -0.32282653 0.77978098
0.21273759 -0.31842887 0.76915848
0.21255215 -0.31414938 0.75882149
0.2123716 -0.3099834 0.74875861
0.21219578 -0.30592644 0.73895913
0.21202452 -0.30197433 0.72941285
0.21185762 -0.298123 0.72011006
0.21169493 -0.29436868 0.71104157
0.21153626 -0.29070774 0.70219862
0.21138151 -0.28713673 0.69357294
0.21195145 -0.28462052 0.68749511
0.21435918 -0.28460118 0.68744838
0.21676658 -0.28458184 0.68740165
0.21917365 -0.2845625 0.68735492
0.22158042 -0.28454316 0.68730825
0.22398685 -0.28452384 0.68726158
0.22639294 -0.2845045 0.68721485
0.22879872 -0.28448519 0.68716818
0.23120417 -0.28446585 0.68712151
0.23360926 -0.28444651 0.68707478
0.23601407 -0.28442723 0.68702817
0.23841853 -0.28440788 0.6869815
0.24082269 -0.2843886 0.68693489
0.24322648 -0.28436926 0.68688822
0.24562995 -0.28434995 0.68684155
0.24803311 -0.28433064 0.68679488
0.25043595 -0.28431132 0.68674827
0.25283843 -0.28429201 0.6867016
0.25524059 -0.2842727 0.68665493
0.25764245 -0.28425339 0.68660831
0.26004395 -0.28423408 0.68656164
0.26244509 -0.28421474 0.68651491
0.26484591 -0.28419539 0.68646818
0.2672464 -0.28417602 0.68642145
0.26964656 -0.28415668 0.68637472
0.27204639 -0.28413734 0.68632799
0.27444589 -0.284118 0.68628126
0.27684507 -0.28409865 0.68623453
0.27924395 -0.28407934 0.68618786
0.28164244 -0.28405997 0.68614113
0.28404066 -0.28404066 0.68609446
0.28643855 -0.28402135 0.68604779
0.28883609 -0.28400201 0.68600112
0.29123333 -0.28398269 0.68595445
0.29363021 -0.28396338 0.68590778
0.29602677 -0.28394404 0.68586111
0.29842302 -0.28392473 0.68581444
0.21160008 -0.31808269 0.77491736
0.21142866 -0.31377628 0.76442599
0.21126179 -0.30958489 0.75421488
0.21109934 -0.30550402 0.74427301
0.21094112 -0.30152932 0.73458982
0.21078695 -0.29765674 0.72515535
0.21063671 -0.29388234 0.71596014
0.21049023 -0.2902025 0.70699525
0.21034735 -0.28661364 0.69825202
0.21020798 -0.2831125 0.68972248
0.21221994 -0.2825557 0.688366
0.21463072 -0.28253648 0.68831921
0.21704116 -0.28251725 0.68827236
0.21945126 -0.28249803 0.68822551
0.22186105 -0.28247884 0.68817872
0.22427051 -0.28245962 0.68813193
0.22667964 -0.28244042 0.68808514
0.22908843 -0.28242117 0.68803829
0.2314969 -0.28240198 0.6879915
0.23390505 -0.28238276 0.68794471
0.23631285 -0.28236356 0.68789792
0.23872031 -0.28234434 0.68785107
0.24112749 -0.28232515 0.68780434
0.24353431 -0.28230596 0.68775755
0.24594079 -0.2822867 0.6877107
0.24834695 -0.28226751 0.68766391
0.25075281 -0.28224832 0.68761718
0.25315833 -0.28222916 0.68757045
0.2555635 -0.28220993 0.68752366
0.25796837 -0.28219077 0.68747693
0.26037291 -0.28217158 0.6874302
0.26277706 -0.28215232 0.68738329
0.26518089 -0.2821331 0.68733644
0.26758438 -0.28211385 0.6872896
0.26998755 -0.28209463 0.68724275
0.27239043 -0.28207541 0.6871959
0.27479294 -0.28205618 0.68714911
0.27719513 -0.28203696 0.68710226
0.27959698 -0.28201774 0.68705541
0.28199854 -0.28199854 0.68700862
0.28439975 -0.28197932 0.68696183
0.28680062 -0.2819601 0.68691498
0.28920117 -0.28194088 0.68686819
0.29160139 -0.28192168 0.6868214
0.29400128 -0.28190246 0.68677461
0.2964009 -0.2818833 0.68672788
0.29880014 -0.28186408 0.68668109
0.21044539 -0.31773126 0.78076303
0.21028844 -0.31339762 0.77011389
0.21013571 -0.30918056 0.75975132
0.20998703 -0.3050755 0.74966389
0.20984225 -0.30107802 0.73984087
0.20970123 -0.29718393 0.73027194
0.20956378 -0.29338929 0.72094733
0.2094298 -0.28969035 0.71185786
0.20929918 -0.28608349 0.70299476
0.20917177 -0.28256539 0.69434965
0.21007502 -0.28050479 0.68928617
0.21248913 -0.28048566 0.68923914
0.21490295 -0.28046656 0.68919224
0.21731642 -0.28044745 0.68914527
0.21972959 -0.28042835 0.68909836
0.22214238 -0.28040925 0.68905139
0.22455488 -0.28039014 0.68900448
0.22696704 -0.28037104 0.68895751
0.22937885 -0.28035194 0.68891054
0.23179036 -0.28033283 0.68886364
0.23420151 -0.28031373 0.68881667
0.23661235 -0.28029463 0.68876976
0.23902285 -0.28027552 0.68872279
0.24143305 -0.28025645 0.68867594
0.2438429 -0.28023738 0.68862903
0.2462524 -0.28021824 0.68858206
0.24866162 -0.2801992 0.68853521
0.2510705 -0.28018013 0.68848836
0.25347903 -0.28016102 0.68844146
0.25588724 -0.28014195 0.68839455
0.25829512 -0.28012288 0.6883477
0.26070267 -0.2801038 0.68830085
0.26310989 -0.28008473 0.68825394
0.26551673 -0.2800656 0.68820691
0.26792324 -0.28004646 0.68815994
0.27032945 -0.28002736 0.68811297
0.27273533 -0.28000826 0.68806607
0.27514085 -0.27998915 0.6880191
0.27754605 -0.27997005 0.68797213
0.27995095 -0.27995095 0.68792522
0.28235549 -0.27993184 0.68787825
0.28475973 -0.27991274 0.68783134
0.28716362 -0.27989367 0.68778443
0.2895672 -0.27987456 0.68773752
0.29197043 -0.27985549 0.68769062
0.29437333 -0.27983639 0.68764371
0.29677594 -0.27981731 0.6875968
0.20913142 -0.3130137 0.77588814
0.20899321 -0.30877063 0.76537055
0.2088587 -0.30464104 0.75513428
0.20872775 -0.30062047 0.74516821
0.20860019 -0.29670462 0.73546177
0.20847593 -0.29288951 0.72600496
0.20835482 -0.28917122 0.71678823
0.20823674 -0.28554618 0.70780259
0.20812158 -0.28201091 0.69903946
0.2080103 -0.2785635 0.69049412
0.21034184 -0.27842936 0.69016165
0.21275902 -0.27841038 0.69011456
0.21517587 -0.27839136 0.69006747
0.21759239 -0.27837238 0.69002038
0.22000857 -0.27835339 0.68997329
0.2224244 -0.27833435 0.68992615
0.22483994 -0.2783154 0.68987912
0.22725514 -0.27829638 0.68983203
0.22966999 -0.2782774 0.68978494
0.23208454 -0.27825841 0.68973792
0.23449875 -0.27823946 0.68969089
0.23691261 -0.27822044 0.6896438
0.23932616 -0.27820149 0.68959677
0.24173939 -0.27818251 0.68954974
0.24415228 -0.27816355 0.68950272
0.24656484 -0.27814457 0.68945569
0.24897708 -0.27812561 0.68940872
0.25138897 -0.27810666 0.68936169
0.25380054 -0.27808768 0.68931466
0.25621176 -0.27806869 0.68926764
0.25862271 -0.27804977 0.68922073
0.2610333 -0.27803081 0.6891737
0.26344353 -0.27801183 0.68912667
0.2658534 -0.27799284 0.68907958
0.26826298 -0.27797386 0.68903255
0.2706722 -0.27795488 0.68898547
0.27308109 -0.27793586 0.68893838
0.27548966 -0.27791688 0.68889129
0.27789786 -0.27789786 0.6888442
0.2803058 -0.27787891 0.68879718
0.28271335 -0.2778599 0.68875009
0.28512061 -0.27784094 0.68870306
0.28752753 -0.27782196 0.68865603
0.28993413 -0.277803 0.688609
0.2923404 -0.27778402 0.68856198
0.29474631 -0.27776504 0.68851495
0.20783384 -0.30835479 0.77107406
0.20771396 -0.30420044 0.76068568
0.20759727 -0.30015656 0.75057352
0.20748363 -0.29621875 0.74072665
0.20737296 -0.29238299 0.73113489
0.20726509 -0.28864527 0.72178829
0.20715997 -0.2850019 0.71267766
0.20705745 -0.28144935 0.70379412
0.20695746 -0.27798429 0.69512939
0.20876294 -0.27712977 0.69299257
0.21091768 -0.27675325 0.69205105
0.21306653 -0.27637774 0.69111204
0.21544945 -0.27631089 0.69094485
0.21786901 -0.276292 0.69089764
0.22028825 -0.2762731 0.69085038
0.22270717 -0.27625424 0.69080323
0.22512573 -0.27623537 0.69075602
0.22754398 -0.27621648 0.69070882
0.22996189 -0.27619761 0.69066161
0.23237948 -0.27617875 0.69061446
0.23479675 -0.27615991 0.69056731
0.23721366 -0.27614102 0.69052011
0.23963025 -0.27612215 0.69047296
0.24204652 -0.27610332 0.69042581
0.24446245 -0.27608445 0.69037867
0.24687806 -0.27606562 0.69033152
0.24929334 -0.27604678 0.69028443
0.25170827 -0.27602792 0.69023728
0.25412288 -0.27600905 0.69019014
0.25653717 -0.27599025 0.69014305
0.25895113 -0.27597138 0.6900959
0.26136476 -0.27595255 0.69004881
0.26377806 -0.27593371 0.69000173
0.26619095 -0.27591482 0.68995446
0.26860353 -0.27589592 0.68990725
0.27101579 -0.27587706 0.68986005
0.27342772 -0.27585819 0.68981284
0.27583936 -0.27583936 0.68976575
0.2782506 -0.27582046 0.68971854
0.28066152 -0.2758016 0.68967134
0.28307214 -0.27578273 0.68962419
0.28548244 -0.2757639 0.68957704
0.28789237 -0.275745 0.68952984
0.29030198 -0.27572614 0.68948269
0.29271129 -0.2757073 0.68943554
0.29512024 -0.27568844 0.68938839
0.20665663 -0.30793208 0.77686161
0.20655227 -0.30375332 0.76631933
0.20645025 -0.29968587 0.7560578
0.20635098 -0.29572591 0.74606752
0.20625427 -0.29186925 0.73633778
0.20616007 -0.2881119 0.72685862
0.20606825 -0.28445002 0.71762031
0.20597872 -0.28088009 0.70861393
0.20589143 -0.27739865 0.69983083
0.20735365 -0.27606255 0.69646013
0.20952106 -0.27568561 0.69550914
0.21168256 -0.27530968 0.69456077
0.21383817 -0.2749348 0.69361496
0.21598792 -0.27456093 0.69267172
0.21814635 -0.27420631 0.69177711
0.22056866 -0.27418756 0.69172978
0.22299062 -0.27416879 0.69168246
0.22541225 -0.27415004 0.69163513
0.22783355 -0.27413127 0.69158781
0.23025453 -0.27411255 0.69154054
0.23267516 -0.27409378 0.69149321
0.23509549 -0.27407503 0.69144595
0.23751545 -0.27405629 0.69139862
0.23993511 -0.27403757 0.69135141
0.24235442 -0.27401882 0.69130409
0.2447734 -0.27400008 0.69125682
0.24719207 -0.27398136 0.69120961
0.24961039 -0.27396262 0.69116235
0.25202838 -0.2739439 0.69111508
0.25444603 -0.27392516 0.69106781
0.25686339 -0.27390644 0.69102061
0.25928038 -0.27388772 0.6909734
0.26169705 -0.27386901 0.69092613
0.26411343 -0.27385032 0.69087899
0.26652935 -0.27383152 0.6908316
0.26894498 -0.27381277 0.69078428
0.27136028 -0.27379403 0.69073695
0.27377525 -0.27377525 0.69068962
0.27618989 -0.2737565 0.69064236
0.27860421 -0.27373776 0.69059503
0.28101817 -0.27371901 0.6905477
0.28343183 -0.27370027 0.69050044
0.28584519 -0.27368155 0.69045323
0.28825814 -0.27366281 0.69040591
0.29067081 -0.27364406 0.69035864
0.29308313 -0.27362531 0.69031137
0.20537281 -0.30329892 0.77203548
0.20528637 -0.29920822 0.76162279
0.20520186 -0.29522592 0.75148594
0.20511954 -0.29134813 0.74161524
0.20503938 -0.28757095 0.73200059
0.20496126 -0.28389043 0.72263193
0.20488513 -0.28030297 0.7135002
0.20481089 -0.27680501 0.70459628
0.20593019 -0.27498463 0.69996256
0.20811042 -0.27460724 0.69900197
0.21028468 -0.2742309 0.698044
0.21245301 -0.27385563 0.69708872
0.21461542 -0.27348137 0.69613606
0.2167719 -0.27310809 0.69518596
0.21892251 -0.27273586 0.69423842
0.22106726 -0.27236465 0.69329351
0.2232748 -0.27207804 0.69256395
0.2256995 -0.27205941 0.69251651
0.22812386 -0.27204075 0.69246906
0.23054792 -0.27202213 0.69242167
0.23297161 -0.2720035 0.69237423
0.23539497 -0.27198488 0.69232678
0.23781802 -0.27196625 0.6922794
0.24024074 -0.27194762 0.69223201
0.24266312 -0.27192903 0.69218463
0.24508514 -0.27191037 0.69213718
0.24750687 -0.27189177 0.69208986
0.24992825 -0.27187318 0.69204247
0.25234929 -0.27185455 0.69199508
0.25477004 -0.27183595 0.69194776
0.25719041 -0.27181736 0.69190037
0.25961047 -0.27179876 0.69185305
0.26203021 -0.27178016 0.69180572
0.2644496 -0.27176157 0.69175839
0.26686865 -0.27174294 0.69171101
0.26928732 -0.27172431 0.69166356
0.27170569 -0.27170569 0.69161612
0.2741237 -0.27168703 0.69156867
0.27654138 -0.2716684 0.69152123
0.27895871 -0.27164975 0.69147378
0.28137577 -0.27163115 0.6914264
0.28379244 -0.2716125 0.69137895
0.28620881 -0.2715939 0.69133157
0.28862485 -0.27157527 0.69128418
0.29104054 -0.27155665 0.69123679
0.29345593 -0.27153805 0.69118947
0.20410481 -0.29872292 0.76726884
0.20403592 -0.29471856 0.75698358
0.20396845 -0.29081953 0.74696898
0.20390272 -0.28702232 0.73721582
0.20383872 -0.28332302 0.72771418
0.20377633 -0.2797178 0.71845424
0.20371552 -0.27620324 0.70942712
0.20449232 -0.27389577 0.70350033
0.20668556 -0.27351803 0.70253009
0.20887275 -0.27314129 0.70156246
0.21105394 -0.27276561 0.70059752
0.2132291 -0.27239093 0.69963521
0.21539833 -0.2720173 0.69867551
0.2175616 -0.27164471 0.6977185
0.21971895 -0.27127311 0.69676405
0.22187041 -0.27090254 0.69581223
0.22401601 -0.270533 0.69486308
0.22615576 -0.27016443 0.69391644
0.22841491 -0.26994488 0.69335252
0.23084202 -0.2699264 0.69330502
0.2332688 -0.26990786 0.69325745
0.23569526 -0.26988938 0.69320995
0.23812138 -0.26987088 0.69316244
0.24054714 -0.26985237 0.69311488
0.24297258 -0.26983386 0.69306737
0.2453977 -0.26981539 0.69301987
0.24782248 -0.26979688 0.69297236
0.25024691 -0.2697784 0.69292486
0.25267103 -0.26975989 0.69287735
0.25509483 -0.26974142 0.69282991
0.25751829 -0.26972294 0.69278246
0.2599414 -0.26970446 0.69273496
0.26236418 -0.26968595 0.69268745
0.26478666 -0.26966751 0.69264007
0.26720878 -0.26964903 0.69259262
0.26963049 -0.26963049 0.692545
0.2720519 -0.26961198 0.69249743
0.27447298 -0.26959345 0.69244987
0.27689373 -0.26957497 0.69240236
0.27931413 -0.26955643 0.6923548
0.2817342 -0.26953793 0.69230723
0.28415397 -0.26951942 0.69225973
0.28657338 -0.26950091 0.69221216
0.28899246 -0.2694824 0.69216466
0.29141122 -0.26946393 0.69211715
0.20290551 -0.29823023 0.77299881
0.2028524 -0.29420316 0.76256078
0.2028006 -0.29028323 0.75240052
0.20274977 -0.28646582 0.74250597
0.20270027 -0.28274751 0.73286831
0.20265202 -0.2791245 0.7234776
0.20260502 -0.27559316 0.71432459
0.20303984 -0.27279586 0.70707411
0.20524624 -0.27241775 0.70609403
0.20744652 -0.27204064 0.70511657
0.20964068 -0.27166456 0.7041418
0.2118288 -0.2712895 0.7031697
0.21401089 -0.27091554 0.70220035
0.21618697 -0.27054256 0.70123363
0.21835706 -0.2701706 0.70026952
0.22052121 -0.26979968 0.69930816
0.22267942 -0.2694298 0.69834942
0.22483172 -0.26906091 0.69739324
0.22697812 -0.26869303 0.69643974
0.22911867 -0.26832616 0.69548881
0.23125337 -0.26796025 0.69454044
0.23356678 -0.26780692 0.694143
0.23599628 -0.26778853 0.69409531
0.23842548 -0.26777014 0.69404769
0.24085434 -0.26775178 0.69400007
0.24328284 -0.2677334 0.69395238
0.24571106 -0.26771504 0.69390482
0.24813889 -0.26769665 0.69385713
0.25056642 -0.26767826 0.69380951
0.25299358 -0.26765987 0.69376189
0.25542045 -0.26764154 0.69371432
0.25784698 -0.26762319 0.69366676
0.26027316 -0.2676048 0.69361913
0.26269904 -0.26758647 0.69357157
0.26512456 -0.26756811 0.693524
0.26754972 -0.26754972 0.69347638
0.26997456 -0.26753137 0.69342875
0.27239904 -0.26751298 0.69338107
0.27482319 -0.26749456 0.69333339
0.27724698 -0.26747617 0.6932857
0.27967048 -0.26745778 0.69323808
0.28209361 -0.2674394 0.6931904
0.28451642 -0.26742101 0.69314271
0.28693891 -0.26740262 0.69309509
0.28936103 -0.26738426 0.69304746
0.20165122 -0.29367995 0.76822042
0.20161526 -0.28973848 0.75791013
0.20158017 -0.28590128 0.74787259
0.20154558 -0.28216383 0.738096
0.20151192 -0.27852285 0.72857177
0.20147911 -0.27497461 0.7192902
0.20157258 -0.27168477 0.71068448
0.20379224 -0.27130622 0.70969427
0.20600572 -0.27092874 0.7087068
0.20821305 -0.27055228 0.70772207
0.21041428 -0.27017692 0.70674014
0.2126094 -0.26980257 0.7057609
0.21479842 -0.26942924 0.70478433
0.21698141 -0.26905695 0.70381051
0.21915838 -0.2686857 0.70283937
0.22132936 -0.26831546 0.70187092
0.22349434 -0.26794624 0.70090508
0.22565338 -0.26757804 0.69994193
0.22780649 -0.26721084 0.6989814
0.22995371 -0.26684469 0.69802356
0.23209506 -0.26647952 0.69706833
0.23423053 -0.26611534 0.69611567
0.23636019 -0.26575214 0.69516563
0.23873037 -0.26566404 0.6949352
0.24116232 -0.2656458 0.69488746
0.2435939 -0.26562753 0.69483966
0.24602519 -0.26560929 0.69479197
0.24845612 -0.26559103 0.69474417
0.25088671 -0.26557276 0.69469643
0.253317 -0.26555455 0.69464874
0.25574693 -0.26553628 0.694601
0.25817654 -0.26551804 0.69455326
0.26060581 -0.2654998 0.69450557
0.26303473 -0.26548159 0.69445789
0.26546332 -0.26546332 0.69441015
0.26789159 -0.26544508 0.69436246
0.27031952 -0.26542687 0.69431478
0.27274707 -0.26540861 0.69426697
0.27517429 -0.26539031 0.69421917
0.27760118 -0.26537204 0.69417137
0.28002772 -0.26535377 0.69412357
0.28245392 -0.2653355 0.69407576
0.2848798 -0.26531723 0.69402802
0.28730533 -0.26529896 0.69398022
0.28973055 -0.26528072 0.69393247
0.20041233 -0.28918558 0.76350069
0.20039313 -0.28532797 0.75331593
0.20037434 -0.28157178 0.7433989
0.20035562 -0.27791262 0.73373812
0.20033742 -0.27434742 0.72432536
0.20031966 -0.2708725 0.71515095
0.20232333 -0.27018332 0.7133314
0.20455019 -0.26980546 0.7123338
0.20677084 -0.26942867 0.711339
0.2089853 -0.26905292 0.71034694
0.21119361 -0.26867825 0.70935774
0.21339574 -0.26830459 0.70837122
0.21559177 -0.26793197 0.70738745
0.21778172 -0.26756039 0.70640641
0.21996561 -0.26718986 0.70542812
0.22214343 -0.26682031 0.70445246
0.22431524 -0.26645181 0.70347953
0.22648108 -0.26608434 0.70250934
0.22864094 -0.26571786 0.70154178
0.23079488 -0.2653524 0.7005769
0.23294288 -0.26498792 0.69961464
0.23508498 -0.26462445 0.69865501
0.23722121 -0.26426196 0.697698
0.23935163 -0.26390052 0.69674367
0.24147622 -0.26354003 0.69579196
0.24390577 -0.26351628 0.69572926
0.24634014 -0.26349816 0.69568139
0.24877414 -0.26348001 0.69563347
0.25120783 -0.26346189 0.69558561
0.25364122 -0.26344377 0.69553781
0.25607422 -0.26342565 0.69548994
0.25850692 -0.26340753 0.69544208
0.26093927 -0.26338941 0.69539428
0.26337132 -0.26337132 0.69534647
0.26580298 -0.26335317 0.69529861
0.26823434 -0.26333508 0.69525081
0.27066535 -0.26331696 0.69520301
0.27309597 -0.26329881 0.69515508
0.27552629 -0.26328066 0.69510716
0.27795625 -0.26326251 0.69505924
0.28038585 -0.26324436 0.69501132
0.28281516 -0.26322624 0.69496346
0.28524411 -0.26320809 0.69491553
0.28767273 -0.26318994 0.69486761
0.19918858 -0.28474608 0.75883859
0.1991857 -0.28097057 0.74877697
0.19918281 -0.27729371 0.73897827
0.19917963 -0.27371135 0.72943145
0.19917652 -0.27022037 0.72012806
0.20083927 -0.26904884 0.71700597
0.20307969 -0.26867065 0.71599811
0.20531382 -0.2682935 0.71499306
0.20754169 -0.26791745 0.71399087
0.2097633 -0.26754242 0.71299142
0.2119787 -0.26716843 0.71199477
0.21418793 -0.26679552 0.71100092
0.21639101 -0.26642361 0.71000987
0.21858793 -0.26605275 0.70902151
0.22077878 -0.26568294 0.70803595
0.22296354 -0.26531416 0.70705318
0.22514223 -0.26494637 0.70607305
0.22731487 -0.26457962 0.70509565
0.22948152 -0.26421386 0.70412093
0.23164219 -0.26384911 0.7031489
0.23379691 -0.2634854 0.70217961
0.2359457 -0.26312268 0.701213
0.23808855 -0.26276094 0.70024896
0.24022554 -0.26240021 0.69928759
0.24235666 -0.26204044 0.69832885
0.24448195 -0.26168171 0.69737279
0.24665588 -0.2613816 0.69657308
0.249093 -0.2613636 0.69652504
0.25152978 -0.26134557 0.69647706
0.25396624 -0.26132759 0.69642913
0.25640237 -0.26130959 0.69638115
0.25883815 -0.26129159 0.69633317
0.26127359 -0.26127359 0.69628525
0.26370871 -0.26125559 0.69623727
0.2661435 -0.26123762 0.69618934
0.2685779 -0.26121962 0.69614136
0.27101204 -0.26120165 0.6960935
0.27344579 -0.26118365 0.69604552
0.27587917 -0.26116562 0.69599748
0.27831224 -0.26114759 0.69594944
0.28074494 -0.26112956 0.69590139
0.28317732 -0.26111153 0.69585335
0.28560933 -0.26109353 0.69580531
0.28804106 -0.2610755 0.69575733
0.19796625 -0.28415564 0.76444292
0.19797967 -0.28036049 0.75423312
0.19799277 -0.27666539 0.7442925
0.19800539 -0.27306625 0.73461002
0.19801734 -0.26955909 0.72517496
0.19933987 -0.26790264 0.72071868
0.20159397 -0.26752406 0.71970028
0.20384175 -0.26714665 0.71868491
0.20608316 -0.26677024 0.71767229
0.20831828 -0.26639488 0.71666253
0.21054712 -0.2660206 0.71565562
0.21276969 -0.26564738 0.71465153
0.21498604 -0.26527518 0.71365023
0.2171962 -0.26490402 0.71265179
0.21940017 -0.26453391 0.71165609
0.221598 -0.26416484 0.7106632
0.22378969 -0.26379678 0.70967305
0.22597529 -0.26342976 0.70868564
0.22815482 -0.26306376 0.70770103
0.23032829 -0.26269877 0.7067191
0.23249577 -0.26233479 0.70573997
0.23465723 -0.26197183 0.70476347
0.23681271 -0.26160985 0.70378971
0.23896223 -0.26124889 0.70281857
0.24110585 -0.2608889 0.70185018
0.24324356 -0.26052991 0.7008844
0.24537542 -0.26017195 0.69992137
0.2475014 -0.25981492 0.6989609
0.24962157 -0.25945887 0.69800305
0.25185257 -0.25922388 0.69737089
0.25429213 -0.25920597 0.69732273
0.25673133 -0.25918809 0.69727463
0.2591702 -0.2591702 0.69722652
0.26160878 -0.25915235 0.69717848
0.264047 -0.2591345 0.69713044
0.26648486 -0.25911662 0.69708234
0.26892242 -0.25909877 0.6970343
0.27135962 -0.25908092 0.69698626
0.27379644 -0.25906301 0.6969381
0.27623293 -0.25904509 0.69688994
0.27866909 -0.25902721 0.69684184
0.28110489 -0.25900933 0.69679368
0.28354037 -0.25899142 0.69674551
0.28597552 -0.25897354 0.69669741
0.19675593 -0.27974144 0.75976932
0.19678536 -0.2760278 0.7496832
0.19681402 -0.27241147 0.73986137
0.19684182 -0.2688885 0.7302931
0.19782485 -0.26674449 0.72447002
0.20009284 -0.26636562 0.72344106
0.20235439 -0.26598784 0.72241503
0.20460953 -0.26561111 0.72139186
0.20685829 -0.26523548 0.7203716
0.20910071 -0.2648609 0.71935427
0.21133679 -0.26448736 0.71833974
0.2135666 -0.26411492 0.71732819
0.21579012 -0.26374349 0.71631938
0.2180074 -0.26337311 0.71531343
0.22021845 -0.26300374 0.71431029
0.22242332 -0.26263544 0.71331
0.22462201 -0.26226816 0.71231246
0.22681455 -0.26190189 0.71131766
0.22900102 -0.26153669 0.71032578
0.23118137 -0.26117247 0.70933658
0.23335564 -0.26080924 0.70835012
0.23552389 -0.26044706 0.70736641
0.23768613 -0.26008588 0.70638543
0.23984237 -0.25972566 0.70540714
0.24199267 -0.25936651 0.70443165
0.244137 -0.25900829 0.70345879
0.24627544 -0.25865108 0.7024886
0.24840797 -0.25829485 0.7015211
0.25053462 -0.25793961 0.70055622
0.25265545 -0.25758532 0.69959402
0.25477046 -0.25723201 0.69863445
0.25706115 -0.25706115 0.69817042
0.25950319 -0.25704342 0.69812226
0.26194483 -0.25702569 0.69807404
0.26438615 -0.25700793 0.69802582
0.26682714 -0.25699019 0.69797766
0.2692678 -0.25697246 0.6979295
0.27170807 -0.2569547 0.69788128
0.27414808 -0.25693697 0.69783312
0.27658767 -0.25691921 0.69778484
0.27902687 -0.25690141 0.6977365
0.2814658 -0.25688362 0.69768822
0.28390437 -0.25686586 0.69764
0.20060366 -0.27869099 0.7642296
0.19776532 -0.27110875 0.74343747
0.19629398 -0.26557419 0.72826058
0.19857599 -0.26519504 0.72722083
0.20085151 -0.26481697 0.72618407
0.20312054 -0.26443994 0.72515023
0.20538312 -0.26406401 0.72411931
0.20763928 -0.26368916 0.72309136
0.20988905 -0.26331535 0.72206634
0.21213244 -0.26294261 0.72104418
0.21436949 -0.26257092 0.72002494
0.21660021 -0.26220027 0.71900851
0.21882467 -0.26183069 0.71799505
0.22104286 -0.26146212 0.71698439
0.22325481 -0.2610946 0.7159766
0.22546054 -0.26072812 0.7149716
0.2276601 -0.26036265 0.71396941
0.22985348 -0.2599982 0.71297002
0.23204075 -0.25963479 0.71197343
0.23422191 -0.25927237 0.71097964
0.236397 -0.25891098 0.70998865
0.23856603 -0.25855061 0.70900041
0.24072902 -0.25819123 0.70801491
0.24288602 -0.25783285 0.70703214
0.24503702 -0.25747544 0.70605206
0.24718207 -0.25711903 0.70507473
0.24932119 -0.25676361 0.70410007
0.25145441 -0.25640917 0.70312816
0.25358173 -0.25605571 0.70215887
0.25570321 -0.25570321 0.70119226
0.25781888 -0.25535169 0.70022833
0.2599287 -0.25500116 0.69926703
0.26228175 -0.25489354 0.69897193
0.26472619 -0.2548759 0.69892359
0.26717028 -0.25485829 0.69887525
0.26961404 -0.25484067 0.69882697
0.27205744 -0.25482303 0.69877863
0.27450055 -0.25480545 0.69873035
0.27694327 -0.2547878 0.69868201
0.2793856 -0.25477013 0.69863355
0.28182763 -0.25475249 0.69858515
0.2842693 -0.25473484 0.69853675
0.20536481 -0.27516201 0.76191384
0.20240565 -0.26769778 0.74124569
0.20161594 -0.26325649 0.72894788
0.2038925 -0.26288027 0.72790617
0.20616259 -0.26250517 0.7268675
0.20842618 -0.26213109 0.72583169
0.21068333 -0.26175809 0.72479886
0.21293409 -0.26138616 0.72376901
0.21517843 -0.26101527 0.72274202
0.21741644 -0.26064542 0.72171795
0.21964811 -0.26027668 0.72069687
0.22187346 -0.25990891 0.71967858
0.22409253 -0.2595422 0.71866316
0.22630535 -0.25917652 0.71765059
0.22851196 -0.25881189 0.71664095
0.23071234 -0.25844824 0.71563405
0.23290655 -0.25808564 0.71463001
0.23509467 -0.25772411 0.71362889
0.2372766 -0.2573635 0.71263045
0.23945245 -0.25700393 0.71163481
0.24162224 -0.25664538 0.71064198
0.24378598 -0.25628781 0.70965189
0.24594368 -0.25593123 0.70866454
0.24809541 -0.25557569 0.70767999
0.25024116 -0.2552211 0.70669818
0.25238097 -0.25486746 0.70571899
0.25451484 -0.25451484 0.70474261
0.25664282 -0.25416318 0.70376885
0.25876495 -0.25381249 0.70279783
0.26088119 -0.25346276 0.70182943
0.26299164 -0.25311401 0.70086378
0.26509631 -0.25276622 0.69990075
0.26751432 -0.25272089 0.69977522
0.26996118 -0.2527034 0.69972676
0.27240774 -0.25268593 0.69967836
0.27485394 -0.25266841 0.6996299
0.27729982 -0.25265095 0.6995815
0.27974528 -0.25263339 0.69953293
0.28219041 -0.25261587 0.69948441
0.21009718 -0.27165431 0.75961202
0.20701872 -0.2643069 0.7390669
0.20694795 -0.26093438 0.72963643
0.20921904 -0.26056114 0.72859275
0.21148364 -0.26018897 0.72755212
0.21374179 -0.25981787 0.7265144
0.21599348 -0.25944778 0.7254796
0.21823879 -0.2590788 0.72444779
0.22047772 -0.25871083 0.72341889
0.2227103 -0.25834394 0.72239298
0.22493656 -0.25797808 0.72136992
0.2271565 -0.25761324 0.72034973
0.22937019 -0.25724944 0.71933246
0.23157763 -0.25688666 0.71831805
0.23377885 -0.25652492 0.71730649
0.23597389 -0.25616416 0.71629781
0.23816276 -0.25580445 0.71529192
0.24034548 -0.25544572 0.71428883
0.24252209 -0.255088 0.71328855
0.24469262 -0.2547313 0.71229112
0.24685709 -0.25437558 0.71129644
0.24901552 -0.25402087 0.71030456
0.25116792 -0.25366712 0.70931542
0.25331438 -0.25331438 0.70832902
0.25545484 -0.25296259 0.70734537
0.25758937 -0.25261182 0.70636451
0.259718 -0.25226197 0.70538628
0.26184073 -0.2519131 0.70441079
0.26395756 -0.25156519 0.70343792
0.26606861 -0.25121826 0.7024678
0.26817381 -0.25087228 0.70150036
0.27030924 -0.25056061 0.70062888
0.27275893 -0.25054327 0.70058036
0.27520826 -0.25052592 0.70053184
0.27765724 -0.25050855 0.70048326
0.28010586 -0.25049114 0.70043463
0.21480101 -0.26816773 0.75732398
0.21160473 -0.2609359 0.73690081
0.21229003 -0.25860786 0.73032629
0.21455562 -0.2582376 0.72928065
0.21681474 -0.25786841 0.72823805
0.21906739 -0.25750026 0.72719836
0.22131361 -0.25713316 0.7261616
0.22355345 -0.25676712 0.72512788
0.22578692 -0.25640211 0.72409707
0.22801407 -0.25603813 0.72306919
0.23023488 -0.2556752 0.72204423
0.2324494 -0.25531328 0.72102213
0.23465769 -0.2549524 0.72000301
0.23685969 -0.25459251 0.71898663
0.23905554 -0.25423369 0.71797329
0.2412452 -0.25387582 0.7169627
0.24342866 -0.25351897 0.7159549
0.24560603 -0.25316316 0.71495003
0.24777728 -0.2528083 0.71394789
0.24994247 -0.25245446 0.71294862
0.2521016 -0.2521016 0.71195215
0.2542547 -0.25174972 0.71095842
0.25640181 -0.25139883 0.70996749
0.2585429 -0.25104889 0.70897925
0.26067805 -0.25069997 0.70799381
0.26280731 -0.25035197 0.7070111
0.26493064 -0.25000495 0.70603108
0.26704809 -0.2496589 0.70505381
0.2691597 -0.24931382 0.70407927
0.27126545 -0.24896967 0.70310736
0.27336541 -0.24862646 0.70213813
0.27556348 -0.24837786 0.70143604
0.27801561 -0.24836062 0.70138735
0.28046736 -0.24834335 0.70133859
0.21947663 -0.26470211 0.75504977
0.21616395 -0.2575846 0.73474741
0.21764225 -0.25627697 0.73101747
0.21990229 -0.25590968 0.7299698
0.22215588 -0.25554347 0.72892523
0.22440304 -0.25517833 0.72788364
0.22664376 -0.25481418 0.72684491
0.22887813 -0.2544511 0.72580928
0.2311061 -0.25408903 0.72477651
0.23332778 -0.253728 0.72374672
0.23554312 -0.25336799 0.72271979
0.23775218 -0.25300902 0.72169578
0.23995502 -0.25265107 0.72067475
0.24215162 -0.25229409 0.71965653
0.24434203 -0.25193816 0.71864122
0.24652627 -0.25158322 0.71762878
0.24870434 -0.25122926 0.71661913
0.25087634 -0.25087634 0.71561241
0.25304219 -0.25052434 0.71460843
0.25520197 -0.25017336 0.71360725
0.25735575 -0.24982338 0.71260893
0.25950348 -0.24947435 0.71161336
0.26164526 -0.24912633 0.71062064
0.26378101 -0.24877925 0.70963061
0.26591083 -0.24843313 0.70864332
0.26803479 -0.24808802 0.70765889
0.27015281 -0.24774382 0.70667708
0.27226499 -0.2474006 0.70569807
0.27437127 -0.2470583 0.70472169
0.27647176 -0.24671695 0.70374799
0.27856648 -0.24637657 0.70277709
0.22412421 -0.2612572 0.75278908
0.22074361 -0.25430697 0.73276258
0.22300458 -0.25394163 0.7317099
0.22525908 -0.25357735 0.73066032
0.22750714 -0.25321415 0.72961378
0.22974874 -0.25285196 0.72857016
0.23198394 -0.25249082 0.72752953
0.2342128 -0.25213072 0.72649193
0.23643526 -0.2517716 0.72545719
0.23865144 -0.25141355 0.72442549
0.24086128 -0.25105646 0.7233966
0.24306491 -0.25070044 0.72237074
0.24526227 -0.25034541 0.72134775
0.24745339 -0.24999137 0.72032762
0.24963838 -0.24963838 0.71931046
0.25181717 -0.24928634 0.71829611
0.25398982 -0.24893528 0.71728456
0.25615638 -0.24858525 0.71627599
0.25831684 -0.24823618 0.71527016
0.26047122 -0.24788807 0.71426713
0.26261961 -0.24754097 0.71326697
0.26476195 -0.24719481 0.71226954
0.26689833 -0.24684964 0.71127498
0.26902875 -0.24650542 0.71028316
0.27115324 -0.24616216 0.70929408
0.27327183 -0.24581987 0.7083078
0.27538452 -0.24547851 0.70732421
0.27749139 -0.24513812 0.70634341
0.22874406 -0.25783291 0.75054199
0.22612172 -0.25196421 0.7334584
0.22837709 -0.25160187 0.7324037
0.230626 -0.25124061 0.73135209
0.23286851 -0.25088042 0.73030359
0.23510455 -0.25052124 0.729258
0.23733422 -0.25016311 0.72821546
0.2395575 -0.24980596 0.72717583
0.24177445 -0.24944983 0.72613919
0.2439851 -0.24909474 0.72510552
0.24618945 -0.24874063 0.72407472
0.24838755 -0.24838755 0.7230469
0.25057945 -0.24803549 0.72202206
0.25276509 -0.24768439 0.72100002
0.25494459 -0.2473343 0.71998096
0.2571179 -0.24698517 0.71896464
0.25928512 -0.24663706 0.7179513
0.26144624 -0.24628994 0.71694082
0.26360124 -0.24594374 0.71593308
0.26575023 -0.24559857 0.71492827
0.2678932 -0.24525434 0.71392626
0.27003014 -0.24491106 0.71292698
0.27216113 -0.24456877 0.71193057
0.27428618 -0.24422741 0.7109369
0.27640527 -0.24388701 0.70994598
0.23719345 -0.26159048 0.76937115
0.23333642 -0.25442898 0.74830824
0.23151003 -0.24961697 0.73415548
0.23375982 -0.24925771 0.73309886
0.23600312 -0.24889946 0.73204523
0.23824 -0.24854228 0.7309947
0.24047047 -0.24818611 0.72994715
0.24269457 -0.24783097 0.72890264
0.2449123 -0.24747682 0.72786105
0.24712369 -0.24712369 0.72682244
0.24932881 -0.24677159 0.72578686
0.25152761 -0.24642046 0.72475415
0.25372016 -0.24607033 0.72372437
0.25590655 -0.24572121 0.72269756
0.25808671 -0.24537307 0.72167367
0.2602607 -0.24502592 0.72065264
0.26242852 -0.24467973 0.71963447
0.26459026 -0.24433455 0.71861923
0.2667459 -0.24399033 0.71760684
0.26889548 -0.24364707 0.71659726
0.27103901 -0.2433048 0.7155906
0.27317652 -0.24296346 0.71458668
0.27530804 -0.24262308 0.71358556
0.24187495 -0.25809002 0.76702428
0.23790149 -0.25104523 0.74608767
0.23690861 -0.24726526 0.73485392
0.23915276 -0.24690905 0.73379529
0.24139044 -0.24655387 0.73273969
0.24362169 -0.2461997 0.73168713
0.24584655 -0.24584655 0.73063761
0.24806505 -0.24549444 0.72959113
0.25027719 -0.24514329 0.72854757
0.25248301 -0.24479316 0.727507
0.25468254 -0.24444404 0.72646946
0.25687578 -0.24409589 0.72543478
0.25906283 -0.24374877 0.72440314
0.26124364 -0.2434026 0.72337437
0.26341826 -0.24305743 0.72234851
0.26558673 -0.24271324 0.72132564
0.26774907 -0.24237001 0.72030556
0.2699053 -0.24202776 0.71928841
0.27205545 -0.24168646 0.71827412
0.27419955 -0.24134614 0.71726269
0.246528 -0.25461087 0.76469177
0.24243961 -0.24768154 0.74388039
0.24231747 -0.24490909 0.73555368
0.24455594 -0.24455594 0.73449302
0.24678797 -0.24420379 0.73343539
0.24901359 -0.24385267 0.73238087
0.2512328 -0.24350256 0.73132932
0.25344568 -0.24315347 0.73028088
0.25565219 -0.24280535 0.72923535
0.25785244 -0.24245825 0.72819287
0.26004636 -0.24211213 0.72715336
0.26223403 -0.24176697 0.72611672
