# .PCD v0.7 - Point Cloud Data file format
VERSION 0.7
FIELDS x y z
SIZE 4 4 4
TYPE F F F
COUNT 1 1 1
WIDTH 440
HEIGHT 1
VIEWPOINT 0 0 0 1 0 0 0
POINTS 440
DATA ascii
0.30313379 -0.3983328 1.4220675
0.30533659 -0.39470339 1.4091103
0.31037354 -0.39479515 1.4094379
0.31541395 -0.39488834 1.4097706
0.32045671 -0.39498153 1.4101033
0.32550189 -0.39507481 1.4104363
0.33054945 -0.39516813 1.4107695
0.33559936 -0.39526147 1.4111027
0.34065169 -0.3953549 1.4114362
0.30298421 -0.39312828 1.4213659
0.30363443 -0.38756591 1.401255
0.30852717 -0.38751012 1.4010533
0.31341854 -0.38745439 1.4008518
0.31830844 -0.38739866 1.4006503
0.32319695 -0.38734293 1.4004488
0.32808408 -0.38728723 1.4002475
0.33296981 -0.38723156 1.4000461
0.33785409 -0.38717586 1.3998448
0.30450234 -0.39662069 1.4524959
0.30283409 -0.38792798 1.4206617
0.30307007 -0.38191754 1.3986504
0.30795377 -0.3818627 1.3984495
0.31283611 -0.38180786 1.3982487
0.31771705 -0.38175303 1.3980479
0.32259658 -0.38169825 1.3978473
0.32747471 -0.38164347 1.3976467
0.33235139 -0.38158861 1.3974458
0.33722654 -0.38153368 1.3972446
0.30434757 -0.39130402 1.4517577
0.30268657 -0.38273591 1.4199696
0.30250776 -0.37629014 1.3960555
0.30738252 -0.37623623 1.3958554
0.31225586 -0.37618226 1.3956552
0.31712782 -0.37612835 1.3954552
0.32199839 -0.37607443 1.3952552
0.32686749 -0.37602049 1.3950551
0.3317351 -0.37596646 1.3948545
0.33660129 -0.37591237 1.3946539
0.30419299 -0.3859928 1.4510204
0.3073968 -0.38361087 1.4420663
0.30194756 -0.37068358 1.3934702
0.30681336 -0.37063053 1.3932707
0.31167778 -0.37057751 1.3930714
0.31654081 -0.3705245 1.3928721
0.32140234 -0.37047142 1.3926725
0.32626241 -0.37041822 1.3924726
0.33112109 -0.37036508 1.3922728
0.33597839 -0.37031195 1.392073
0.34083426 -0.37025878 1.3918732
0.30404094 -0.38068992 1.4502951
0.30817887 -0.379493 1.4457352
0.30138943 -0.36509776 1.3908944
0.30624634 -0.36504564 1.3906958
0.31110185 -0.36499351 1.3904972
0.31595588 -0.36494127 1.3902982
0.32080841 -0.36488897 1.3900989
0.3256596 -0.36483669 1.3898998
0.33050936 -0.36478442 1.3897007
0.33535776 -0.36473215 1.3895016
0.34020481 -0.36467996 1.3893027
0.30389905 -0.37540472 1.4496182
0.30222556 -0.36716658 1.4178069
0.30083334 -0.35953254 1.3883281
0.30568135 -0.35948128 1.3881302
0.31052789 -0.3594299 1.3879318
0.31537294 -0.35937849 1.3877332
0.32021666 -0.35932711 1.3875349
0.32505897 -0.3592757 1.3873364
0.32989991 -0.35922432 1.387138
0.33473942 -0.35917297 1.3869396
0.33957759 -0.35912162 1.3867414
0.30545869 -0.37855992 1.4819648
0.30373421 -0.3700963 1.4488319
0.30207285 -0.36198813 1.4170905
0.30049926 -0.35424709 1.3867863
0.30515569 -0.3539806 1.3857431
0.30998427 -0.35391903 1.3855021
0.31481111 -0.35385743 1.3852609
0.31963623 -0.35379583 1.3850198
0.32446057 -0.35373521 1.3847824
0.32929265 -0.35368469 1.3845847
0.33412337 -0.35363424 1.3843871
0.33895269 -0.35358375 1.3841895
0.30530101 -0.37314567 1.4811997
0.30358174 -0.36480829 1.4481046
0.30192044 -0.35681507 1.4163755
0.30067617 -0.34956661 1.3876028
0.30551195 -0.34950569 1.3873609
0.31034604 -0.34944475 1.3871191
0.31517845 -0.34938386 1.3868774
0.32000917 -0.349323 1.3866358
0.32483822 -0.34926215 1.3863943
0.3296656 -0.34920135 1.3861529
0.33449128 -0.34914052 1.3859115
0.33931527 -0.34907976 1.3856702
0.30514345 -0.36773697 1.4804354
0.30341911 -0.3595134 1.4473289
0.30177134 -0.35165092 1.4156761
0.30102769 -0.34508052 1.389225
0.30586898 -0.3450202 1.3889822
0.31070864 -0.34496 1.3887398
0.31554666 -0.34489983 1.3884976
0.32038298 -0.34483969 1.3882555
0.3252176 -0.34477955 1.3880134
0.33005053 -0.34471944 1.3877714
0.33488178 -0.34465936 1.3875295
0.33971137 -0.34459931 1.3872877
0.30498606 -0.36233386 1.4796717
0.30326772 -0.35423708 1.4466068
0.30162245 -0.3464919 1.4149776
0.30138004 -0.34058392 1.390851
0.30622691 -0.34052432 1.3906076
0.31107214 -0.34046477 1.3903644
0.31591573 -0.34040534 1.3901217
0.32075766 -0.34034589 1.389879
0.32559785 -0.34028646 1.3896363
0.33043638 -0.3402271 1.3893938
0.33527321 -0.34016773 1.3891513
0.34010834 -0.34010834 1.3889089
0.30482882 -0.35693631 1.4789089
0.30312163 -0.34897196 1.4459099
0.30147365 -0.34133792 1.4142795
0.3017332 -0.3360768 1.3924809
0.30658567 -0.33601791 1.3922368
0.31143647 -0.33595905 1.3919929
0.31628567 -0.33590028 1.3917495
0.32113317 -0.33584157 1.3915062
0.32597899 -0.33578289 1.391263
0.33082312 -0.3357242 1.3910199
0.33566555 -0.33566555 1.3907769
0.30467176 -0.35154435 1.4781469
0.30295971 -0.34369379 1.4451375
0.30132502 -0.33618909 1.4135823
0.30208719 -0.33155909 1.3941145
0.30694529 -0.33150092 1.3938699
0.31180173 -0.33144277 1.3936254
0.31665647 -0.33138469 1.3933811
0.32150963 -0.33132669 1.3931373
0.32636103 -0.33126873 1.3928936
0.33121073 -0.33121073 1.3926498
0.33605877 -0.3311528 1.3924061
0.30451488 -0.34615794 1.4773858
0.30280584 -0.33843005 1.4444035
0.30117652 -0.33104527 1.4128857
0.30244198 -0.32703078 1.395752
0.30730578 -0.32697335 1.3955069
0.31216782 -0.32691592 1.3952618
0.31702816 -0.32685849 1.3950167
0.3218869 -0.32680121 1.3947722
0.32674396 -0.32674396 1.3945278
0.3315993 -0.32668671 1.3942835
0.33645296 -0.32662952 1.3940394
0.30435812 -0.34077707 1.4766253
0.30265209 -0.33317164 1.4436702
0.30102819 -0.32590654 1.4121897
0.30279768 -0.32249182 1.3973933
0.30766708 -0.32243508 1.3971475
0.31253478 -0.3223784 1.3969018
0.31740081 -0.32232174 1.3966564
0.32226509 -0.32226509 1.3964108
0.32712778 -0.32220855 1.396166
0.33198878 -0.32215208 1.3959212
0.33684808 -0.3220956 1.3956765
0.30419779 -0.33539754 1.4758474
0.30249804 -0.32791805 1.4429353
0.30088001 -0.32077292 1.4114946
0.30315414 -0.31794214 1.3990384
0.30802923 -0.31788617 1.3987921
0.31290263 -0.31783023 1.398546
0.31777427 -0.31777427 1.3982997
0.32264423 -0.31771836 1.3980538
0.32751253 -0.31766254 1.3978081
0.33237916 -0.31760675 1.3975626
0.33724409 -0.31755099 1.3973173
0.3040424 -0.33002892 1.4750935
0.30234915 -0.32267514 1.4422251
0.30073193 -0.31564426 1.4108
0.30351147 -0.31338176 1.4006876
0.30839226 -0.31332654 1.4004407
0.31327131 -0.31327131 1.4001938
0.31814864 -0.31321612 1.3999472
0.32302427 -0.31316093 1.3997005
0.32789817 -0.31310579 1.399454
0.33277047 -0.31305072 1.3992079
0.33764106 -0.31299573 1.3989621
0.30388412 -0.32466251 1.4743255
0.30218834 -0.31742471 1.441458
0.30058402 -0.31052068 1.4101061
0.30386969 -0.30881065 1.4023407
0.30875614 -0.30875614 1.4020931
0.31364089 -0.30870166 1.4018457
0.31852388 -0.30864719 1.4015983
0.32340524 -0.30859277 1.4013512
0.32828477 -0.30853832 1.401104
0.33316272 -0.30848402 1.4008573
0.33803898 -0.30842972 1.4006108
0.36483577 -0.32808974 1.4898889
0.37013611 -0.32813486 1.4900938
0.37543792 -0.32817999 1.4902987
0.38074118 -0.32822517 1.4905039
0.30372596 -0.31930166 1.4735583
0.30204499 -0.31219774 1.4407742
0.30043626 -0.30540213 1.4094129
0.30422872 -0.30422872 1.4039975
0.30912086 -0.30417493 1.4037493
0.31401134 -0.3041212 1.4035014
0.31890005 -0.30406749 1.4032536
0.32378706 -0.30401379 1.4030057
0.32867232 -0.30396011 1.402758
0.33355588 -0.30390647 1.4025104
0.3384378 -0.30385292 1.4022633
0.35615402 -0.31515789 1.454435
0.36132708 -0.31520021 1.4546304
0.36650217 -0.31524312 1.4548284
0.37167993 -0.31528711 1.4550314
0.37685913 -0.3153311 1.4552344
0.38203976 -0.31537509 1.4554374
0.30356801 -0.3139464 1.4727919
0.3018921 -0.30696592 1.440045
0.30028865 -0.30028865 1.4087204
0.30458856 -0.29963592 1.4056582
0.30948648 -0.29958293 1.4054097
0.31438264 -0.29952991 1.405161
0.31927705 -0.29947692 1.4049125
0.32416978 -0.29942399 1.4046642
0.32906076 -0.29937106 1.4044158
0.33395001 -0.29931816 1.4041677
0.33883759 -0.2992653 1.4039197
0.34787586 -0.30282718 1.4206293
0.35292929 -0.3028684 1.4208226
0.35798419 -0.3029097 1.4210163
0.36304042 -0.30295098 1.4212099
0.36809808 -0.30299228 1.4214038
0.37315702 -0.30303356 1.4215974
0.3782174 -0.30307487 1.4217912
0.30517361 -0.31578836 1.506331
0.3034102 -0.3085967 1.4720263
0.30173942 -0.30173942 1.4393166
0.30014116 -0.29518014 1.4080285
0.30494928 -0.29503223 1.407323
0.30985293 -0.29497999 1.4070737
0.31475484 -0.29492775 1.4068246
0.31965497 -0.29487553 1.4065754
0.3245534 -0.29482332 1.4063264
0.32945013 -0.29477116 1.4060776
0.3343451 -0.29471901 1.4058288
0.33923832 -0.29466686 1.40558
0.34412977 -0.2946147 1.4053313
0.34901944 -0.29456252 1.4050823
0.35390741 -0.29451036 1.4048336
0.35879362 -0.29445821 1.4045848
0.3636781 -0.29440606 1.4043361
0.36856085 -0.29435396 1.4040875
0.37344187 -0.29430187 1.4038391
0.37832117 -0.2942498 1.4035907
0.30501348 -0.31031805 1.5055405
0.3032566 -0.3032566 1.4712811
0.30158687 -0.29651818 1.438589
0.30039975 -0.2904692 1.4092417
0.30531088 -0.29041767 1.4089917
0.3102203 -0.2903662 1.408742
0.31512791 -0.2903147 1.4084921
0.32003382 -0.29026324 1.4082425
0.32493797 -0.2902118 1.4079928
0.32984042 -0.29016036 1.4077433
0.33474109 -0.29010892 1.4074938
0.33964002 -0.29005754 1.4072444
0.3445372 -0.29000613 1.4069951
0.34943265 -0.28995475 1.4067458
0.35432631 -0.28990334 1.4064964
0.35921824 -0.28985196 1.4062471
0.36410844 -0.28980058 1.4059979
0.36899689 -0.28974923 1.4057487
0.37388363 -0.28969792 1.4054997
0.37876859 -0.28964657 1.4052507
0.30485183 -0.30485183 1.5047426
0.30309778 -0.29791662 1.4705106
0.30143449 -0.29130223 1.437862
0.30075642 -0.2858429 1.4109149
0.30567333 -0.28579214 1.4106644
0.31058845 -0.28574139 1.4104139
0.3155019 -0.2856907 1.4101636
0.32041356 -0.28564 1.4099134
0.32532343 -0.28558928 1.4096631
0.33023158 -0.28553858 1.4094129
0.33513799 -0.28548792 1.4091628
0.34004268 -0.28543729 1.4089128
0.34494558 -0.28538662 1.4086628
0.34984675 -0.28533602 1.4084129
0.35474619 -0.28528538 1.4081631
0.35964388 -0.28523478 1.4079133
0.36453977 -0.28518417 1.4076635
0.36943394 -0.28513357 1.4074137
0.37432638 -0.285083 1.4071641
0.37921706 -0.28503242 1.4069145
0.30468994 -0.29939097 1.5039436
0.30294111 -0.29258415 1.4697505
0.30128223 -0.28609154 1.4371358
0.30111393 -0.28120559 1.4125921
0.30603662 -0.28115562 1.412341
0.31095755 -0.28110564 1.4120899
0.31587672 -0.28105569 1.411839
0.32079417 -0.28100574 1.4115882
0.32570979 -0.28095576 1.4113371
0.33062369 -0.28090584 1.4110863
0.33553585 -0.28085592 1.4108356
0.34044626 -0.28080603 1.410585
0.34535494 -0.28075618 1.4103346
0.35026187 -0.28070632 1.4100841
0.35516703 -0.28065646 1.4098337
0.3600705 -0.28060666 1.4095834
0.36497214 -0.28055683 1.4093331
0.36987203 -0.280507 1.4090828
0.37477022 -0.28045717 1.4088326
0.3796666 -0.28040737 1.4085823
0.30452818 -0.29393589 1.5031451
0.30278459 -0.28725719 1.4689912
0.30113015 -0.28088611 1.4364104
0.30147231 -0.27655724 1.4142733
0.30640081 -0.27650803 1.4140216
0.31132752 -0.27645883 1.41377
0.31625241 -0.2764096 1.4135182
0.32117563 -0.27636042 1.4132668
0.32609707 -0.27631125 1.4130152
0.33101672 -0.27626207 1.4127638
0.33593467 -0.27621296 1.4125125
0.34085083 -0.27616382 1.4122612
0.34576529 -0.27611473 1.4120103
0.35067794 -0.27606562 1.4117591
0.35558885 -0.27601653 1.4115081
0.3604981 -0.27596751 1.4112574
0.36540553 -0.27591845 1.4110066
0.37031123 -0.27586943 1.4107559
0.37521508 -0.27582037 1.4105049
0.30436662 -0.2884866 1.5023476
0.30262828 -0.28193575 1.4682328
0.30097824 -0.27568594 1.4356858
0.30183154 -0.27189782 1.4159584
0.30676582 -0.27184939 1.4157062
0.31169832 -0.27180094 1.4154538
0.31662902 -0.27175248 1.4152014
0.32155803 -0.27170408 1.4149494
0.32648525 -0.27165565 1.4146973
0.33141071 -0.27160728 1.4144453
0.33633438 -0.27155888 1.4141933
0.34125635 -0.27151054 1.4139415
0.34617656 -0.2714622 1.4136899
0.35109502 -0.27141389 1.4134382
0.35601169 -0.27136555 1.4131866
0.36092666 -0.27131727 1.4129351
0.3658399 -0.27126902 1.4126838
0.37075138 -0.2712208 1.4124327
0.37566102 -0.27117252 1.4121813
0.30247208 -0.27661976 1.4674749
0.30082646 -0.27049103 1.4349618
0.30285785 -0.26781642 1.420773
0.30779117 -0.2677533 1.4204381
0.31272221 -0.26769021 1.4201034
0.31765094 -0.26762718 1.419769
0.32257736 -0.26756418 1.4194348
0.32750139 -0.26750115 1.4191004
0.33242315 -0.26743817 1.4187664
0.33734262 -0.26737526 1.4184326
0.34225973 -0.26731235 1.4180988
0.34717456 -0.26724946 1.4177653
0.35208702 -0.26718661 1.4174318
0.35699725 -0.26712382 1.4170986
0.3619051 -0.267061 1.4167655
0.36681071 -0.26699826 1.4164326
0.37171397 -0.26693553 1.4160998
0.3766149 -0.26687279 1.4157671
0.30231604 -0.27130929 1.466718
0.30067486 -0.26530132 1.4342386
0.3044802 -0.26421836 1.4283839
0.30943963 -0.26415578 1.4280456
0.31439665 -0.26409319 1.4277072
0.31935135 -0.26403064 1.4273691
0.32430369 -0.26396814 1.4270312
0.32925373 -0.26390564 1.4266934
0.33420143 -0.26384324 1.426356
0.33914673 -0.26378077 1.4260184
0.34408969 -0.26371837 1.425681
0.34903038 -0.26365605 1.425344
0.35396868 -0.2635937 1.425007
0.35890466 -0.26353139 1.4246701
0.36383817 -0.26346904 1.424333
0.36876938 -0.26340669 1.423996
0.37369823 -0.26334441 1.4236592
0.37862477 -0.26328212 1.4233226
0.3021602 -0.26600426 1.4659618
0.30113199 -0.26064366 1.4364191
0.30612007 -0.26058155 1.4360769
0.31110579 -0.26051947 1.4357349
0.31608912 -0.26045743 1.4353929
0.3210701 -0.26039544 1.4350512
0.3260487 -0.26033345 1.4347097
0.33102489 -0.26027149 1.4343681
0.33599874 -0.26020956 1.4340268
0.34097025 -0.26014766 1.4336858
0.34593925 -0.26008573 1.4333444
0.35090593 -0.2600238 1.4330032
0.35587022 -0.25996193 1.4326621
0.36083215 -0.25990009 1.4323213
0.36579174 -0.25983825 1.4319806
0.37074891 -0.25977644 1.4316399
0.37570372 -0.25971466 1.4312994
0.30200449 -0.26070473 1.4652064
0.30276299 -0.25696689 1.4441991
0.3077777 -0.25690538 1.4438533
0.31278998 -0.25684381 1.4435073
0.31779993 -0.25678235 1.4431618
0.3228074 -0.25672084 1.4428163
0.32781246 -0.25665939 1.4424708
0.33281508 -0.25659788 1.4421252
0.33781531 -0.25653645 1.4417799
0.34281313 -0.256475 1.4414346
0.34780854 -0.25641358 1.4410894
0.35280156 -0.25635222 1.4407445
0.35779223 -0.25629088 1.4403998
0.36278048 -0.25622955 1.4400551
0.36776635 -0.25616828 1.4397107
0.37274984 -0.25610703 1.4393665
0.37773091 -0.25604579 1.4390223
0.30184895 -0.25541064 1.4644518
0.30441177 -0.25325012 1.4520639
0.30945334 -0.25318912 1.451714
0.31449243 -0.25312805 1.451364
0.31952909 -0.25306705 1.4510142
0.32456329 -0.25300604 1.4506644
0.32959509 -0.25294507 1.4503149
0.33462447 -0.25288415 1.4499655
0.33965144 -0.25282323 1.4496163
0.34467599 -0.25276238 1.4492674
0.34969807 -0.25270152 1.4489183
0.35471779 -0.25264072 1.4485698
0.35973504 -0.25257993 1.4482212
0.36474991 -0.25251919 1.4478729
0.36976239 -0.25245845 1.4475248
0.37477243 -0.25239775 1.4471767
0.37978005 -0.2523371 1.4468288
