# .PCD v0.7 - Point Cloud Data file format
VERSION 0.7
FIELDS x y z
SIZE 4 4 4
TYPE F F F
COUNT 1 1 1
WIDTH 919
HEIGHT 1
VIEWPOINT 0 0 0 1 0 0 0
POINTS 919
DATA ascii
-0.16411608 -0.29823244 1.0017041
-0.16079418 -0.29861778 1.0029984
-0.1629788 -0.29266086 0.99476254
-0.15967852 -0.2930364 0.99603903
-0.15636973 -0.29341286 0.99731869
-0.15305246 -0.29379034 0.99860173
-0.14972661 -0.29416874 0.99988794
-0.1463922 -0.29454815 1.0011775
-0.14304918 -0.29492855 1.0024705
-0.16512784 -0.28680098 0.98666102
-0.16185719 -0.28716597 0.98791665
-0.15857822 -0.28753194 0.98917562
-0.15529086 -0.28789878 0.99043769
-0.15199512 -0.28826663 0.99170309
-0.14869094 -0.28863534 0.9929716
-0.14537829 -0.28900504 0.99424344
-0.14205714 -0.28937566 0.99551845
-0.13872749 -0.28974727 0.99679691
-0.13538924 -0.2901198 0.99807847
-0.13204242 -0.29049334 0.99936348
-0.12868696 -0.29086778 1.0006517
-0.12532283 -0.2912432 1.0019432
-0.16724215 -0.28103578 0.97869027
-0.16400062 -0.28139055 0.97992569
-0.16075093 -0.28174624 0.9811644
-0.15749297 -0.28210279 0.98240608
-0.15422678 -0.28246027 0.98365098
-0.15095228 -0.28281862 0.98489892
-0.14766948 -0.28317794 0.98615021
-0.1443783 -0.28353813 0.98740453
-0.14107877 -0.28389928 0.98866218
-0.13777083 -0.28426132 0.98992306
-0.13445441 -0.28462428 0.99118704
-0.13112955 -0.28498819 0.99245435
-0.12779613 -0.285353 0.99372476
-0.12445419 -0.28571877 0.99499851
-0.12110366 -0.28608546 0.99627548
-0.11774454 -0.28645313 0.99755585
-0.11437675 -0.28682172 0.99883944
-0.1110003 -0.28719127 1.0001264
-0.10761514 -0.28756174 1.0014166
-0.1661097 -0.27570784 0.97206318
-0.16288874 -0.27605355 0.97328204
-0.15965968 -0.27640009 0.97450387
-0.15642251 -0.27674752 0.97572881
-0.15317719 -0.27709582 0.97695678
-0.1499237 -0.27744502 0.97818792
-0.14666198 -0.27779505 0.97942203
-0.14339203 -0.278146 0.98065937
-0.14011382 -0.27849782 0.98189986
-0.13682728 -0.27885053 0.98314339
-0.13353243 -0.27920416 0.9843902
-0.13022918 -0.27955863 0.98563993
-0.12691756 -0.27991405 0.98689306
-0.12359749 -0.28027037 0.98814929
-0.12026898 -0.28062761 0.98940885
-0.11693196 -0.28098574 0.99067152
-0.11358642 -0.28134483 0.99193752
-0.11023231 -0.28170478 0.99320662
-0.10686961 -0.28206569 0.99447906
-0.10349827 -0.28242749 0.99575466
-0.10011829 -0.28279027 0.99703372
-0.096729606 -0.28315395 0.99831593
-0.093332201 -0.28351858 0.99960148
-0.089926034 -0.28388414 1.0008904
-0.086511061 -0.28425062 1.0021825
-0.16929713 -0.27190146 0.9707014
-0.16588622 -0.2719166 0.97075546
-0.1624749 -0.27193168 0.97080934
-0.15906322 -0.27194679 0.97086328
-0.15565115 -0.2719619 0.97091722
-0.15223873 -0.27197704 0.97097129
-0.14890942 -0.27214479 0.97157019
-0.14566852 -0.27248582 0.97278768
-0.14241952 -0.27282777 0.97400838
-0.13916233 -0.2731705 0.97523201
-0.13589697 -0.27351415 0.97645879
-0.13262334 -0.27385861 0.97768855
-0.12934148 -0.27420393 0.97892141
-0.12605135 -0.2745502 0.98015755
-0.12275288 -0.27489731 0.98139673
-0.11944607 -0.27524528 0.98263907
-0.11613087 -0.27559415 0.98388451
-0.11280726 -0.27594391 0.98513317
-0.1094752 -0.27629453 0.98638493
-0.10613465 -0.27664605 0.98763984
-0.1027856 -0.27699849 0.9888981
-0.099428006 -0.2773518 0.99015945
-0.096061841 -0.27770606 0.99142414
-0.092687055 -0.27806118 0.99269193
-0.089303643 -0.27841723 0.99396306
-0.086371727 -0.28026745 1.0005684
-0.16921294 -0.26834777 0.97021866
-0.16580369 -0.26836267 0.97027248
-0.16239408 -0.26837757 0.97032636
-0.15898408 -0.26839247 0.97038025
-0.15557373 -0.2684074 0.97043425
-0.15216297 -0.26842231 0.97048813
-0.14875184 -0.26843721 0.97054201
-0.14534032 -0.26845214 0.97059596
-0.14192845 -0.26846707 0.97064996
-0.13851619 -0.268482 0.9707039
-0.13510354 -0.2684969 0.97075778
-0.13172656 -0.26858535 0.97107756
-0.12846582 -0.26892176 0.97229391
-0.12519687 -0.26925901 0.97351325
-0.12191973 -0.26959714 0.97473574
-0.11863433 -0.26993608 0.97596121
-0.11534067 -0.27027592 0.97718984
-0.1120387 -0.27061656 0.97842145
-0.1087284 -0.27095807 0.97965622
-0.10540974 -0.27130046 0.98089421
-0.10208267 -0.2716437 0.98213518
-0.098747179 -0.27198786 0.98337942
-0.095403224 -0.27233285 0.98462671
-0.092050776 -0.27267873 0.98587728
-0.088689797 -0.27302545 0.98713088
-0.08676149 -0.27799088 1.0050836
-0.16912881 -0.26479763 0.96973628
-0.16572125 -0.26481232 0.9697901
-0.16231334 -0.26482704 0.96984398
-0.15890504 -0.26484174 0.96989781
-0.15549636 -0.26485643 0.96995169
-0.1520873 -0.26487115 0.97000551
-0.14867787 -0.26488587 0.97005945
-0.14526805 -0.26490057 0.97011328
-0.14185786 -0.26491529 0.97016716
-0.13844728 -0.26492998 0.97022098
-0.13503635 -0.26494473 0.97027498
-0.13162501 -0.26495942 0.97032887
-0.1282133 -0.26497415 0.97038275
-0.1248012 -0.26498887 0.97043663
-0.12138875 -0.26500362 0.97049063
-0.1179759 -0.26501831 0.97054452
-0.11456267 -0.26503304 0.9705984
-0.11128055 -0.26536131 0.97180057
-0.10799173 -0.26569393 0.97301877
-0.10469465 -0.26602739 0.97423989
-0.1013893 -0.26636171 0.97546422
-0.098075606 -0.26669681 0.97669148
-0.094753578 -0.2670328 0.97792196
-0.091423169 -0.26736966 0.97915548
-0.088636234 -0.26938465 0.98653477
-0.087155387 -0.27569562 1.0096467
-0.16904475 -0.26125097 0.96925431
-0.16563891 -0.26126549 0.9693082
-0.16223267 -0.26127997 0.96936196
-0.15882605 -0.26129448 0.96941572
-0.15541907 -0.26130897 0.96946949
-0.15201171 -0.26132348 0.96952337
-0.14860396 -0.261338 0.96957719
-0.14519583 -0.26135248 0.96963096
-0.14178732 -0.26136699 0.96968478
-0.13837846 -0.26138154 0.96973872
-0.1349692 -0.26139605 0.96979254
-0.13155957 -0.26141056 0.96984637
-0.12814954 -0.26142505 0.96990019
-0.12473916 -0.26143959 0.96995413
-0.12132838 -0.26145411 0.97000796
-0.11791722 -0.26146862 0.97006178
-0.1145057 -0.26148316 0.97011578
-0.11109378 -0.26149768 0.9701696
-0.10768149 -0.26151219 0.97022349
-0.10426882 -0.2615267 0.97027731
-0.10085578 -0.26154125 0.97033131
-0.097442351 -0.26155579 0.97038519
-0.094112717 -0.26180446 0.97130781
-0.090804048 -0.26213244 0.97252464
-0.089030601 -0.26709178 0.99092406
-0.087552749 -0.273379 1.0142499
-0.17236459 -0.25769362 0.9687193
-0.16896079 -0.25770789 0.96877301
-0.16555662 -0.25772217 0.96882671
-0.16215208 -0.25773647 0.96888041
-0.15874717 -0.25775078 0.96893424
-0.15534186 -0.25776508 0.968988
-0.15193619 -0.25777936 0.96904171
-0.14853013 -0.25779366 0.96909547
-0.14512371 -0.257808 0.96914929
-0.14171688 -0.25782228 0.96920305
-0.13830969 -0.25783658 0.96925676
-0.13490212 -0.25785089 0.96931052
-0.13149418 -0.25786522 0.9693644
-0.12808585 -0.25787953 0.96941817
-0.12467715 -0.25789383 0.96947199
-0.12126806 -0.25790814 0.96952575
-0.11785861 -0.25792247 0.96957964
-0.11444877 -0.25793678 0.96963346
-0.11103854 -0.25795108 0.96968722
-0.10762796 -0.25796542 0.96974111
-0.10421699 -0.25797975 0.96979499
-0.10080563 -0.25799406 0.96984881
-0.097393893 -0.25800839 0.96990263
-0.09398178 -0.2580227 0.96995646
-0.090838119 -0.25880295 0.97288954
-0.089428462 -0.26477841 0.99535239
-0.087953739 -0.27104113 1.0188951
-0.086409114 -0.27761227 1.0435973
-0.17227903 -0.25415421 0.96823841
-0.16887692 -0.2541683 0.96829206
-0.16547443 -0.25418237 0.9683457
-0.16207159 -0.25419649 0.96839947
-0.15866835 -0.25421059 0.96845317
-0.15526474 -0.25422466 0.96850681
-0.15186073 -0.25423875 0.96856046
-0.14845638 -0.25425288 0.96861428
-0.14505163 -0.25426698 0.96866798
-0.1416465 -0.25428107 0.96872169
-0.13824099 -0.25429517 0.96877539
-0.13483512 -0.25430927 0.96882915
-0.13142887 -0.25432339 0.96888292
-0.12802222 -0.25433749 0.96893662
-0.12461521 -0.25435159 0.96899033
-0.12120783 -0.25436571 0.96904415
-0.11780006 -0.25437984 0.96909791
-0.1143919 -0.25439394 0.96915162
-0.11098339 -0.25440806 0.9692055
-0.10757446 -0.25442216 0.96925914
-0.10416518 -0.25443625 0.96931291
-0.10075551 -0.25445038 0.96936667
-0.097345471 -0.25446448 0.96942043
-0.09393505 -0.2544786 0.9694742
-0.091236651 -0.25649548 0.97715783
-0.089829914 -0.26244426 0.99982059
-0.088358432 -0.26868176 1.0235833
-0.17219356 -0.25061834 0.967758
-0.16879314 -0.25063226 0.9678117
-0.16539234 -0.25064611 0.96786529
-0.16199115 -0.25066 0.96791887
-0.1585896 -0.25067389 0.96797252
-0.15518768 -0.25068781 0.96802622
-0.15178537 -0.2507017 0.96807986
-0.14838269 -0.25071558 0.96813351
-0.14497963 -0.25072947 0.96818709
-0.1415762 -0.25074339 0.96824086
-0.13817237 -0.25075728 0.9682945
-0.13476817 -0.25077116 0.96834815
-0.13136362 -0.25078508 0.96840185
-0.12795867 -0.250799 0.96845561
-0.12455334 -0.25081289 0.96850926
-0.12114762 -0.25082678 0.96856284
-0.11774155 -0.25084069 0.9686166
-0.11433509 -0.25085458 0.96867031
-0.11092825 -0.2508685 0.96872401
-0.10752103 -0.25088242 0.96877772
-0.10411344 -0.2508963 0.96883142
-0.10070547 -0.25091022 0.96888512
-0.09729711 -0.25092414 0.96893883
-0.093888387 -0.25093806 0.96899259
-0.091638707 -0.25416774 0.98146391
-0.090234987 -0.26008907 1.0043291
-0.088766851 -0.26630056 1.0283146
-0.17210817 -0.24708599 0.96727812
-0.16870943 -0.24709967 0.96733171
-0.16531031 -0.24711335 0.96738523
-0.1619108 -0.24712701 0.96743876
-0.15851095 -0.24714074 0.96749246
-0.1551107 -0.24715441 0.96754605
-0.15171008 -0.24716809 0.96759957
-0.14830907 -0.24718179 0.96765316
-0.14490771 -0.2471955 0.96770686
-0.14150594 -0.24720919 0.96776044
-0.13810381 -0.24722287 0.96781403
-0.1347013 -0.24723656 0.96786761
-0.13129842 -0.24725027 0.96792126
-0.12789515 -0.24726395 0.96797484
-0.12449151 -0.24727766 0.96802849
-0.12108748 -0.24729134 0.96808207
-0.11768309 -0.24730505 0.96813571
-0.11427832 -0.24731874 0.96818936
-0.11087317 -0.24733245 0.968243
-0.10746764 -0.24734616 0.96829665
-0.10406175 -0.24735989 0.96835041
-0.10065547 -0.2473736 0.96840405
-0.0972488 -0.2473873 0.9684577
-0.093841761 -0.24740101 0.9685114
-0.092044294 -0.25181928 0.98580784
-0.090643719 -0.25771254 1.0088784
-0.089179076 -0.26389727 1.03309
-0.17202285 -0.2435571 0.9667986
-0.16862579 -0.24357058 0.96685213
-0.16522837 -0.2435841 0.96690577
-0.16183054 -0.24359757 0.96695924
-0.15843236 -0.24361105 0.96701276
-0.1550338 -0.24362454 0.96706629
-0.15163487 -0.24363805 0.96711993
-0.14823554 -0.24365152 0.96717346
-0.14483583 -0.24366498 0.96722686
-0.14143576 -0.24367847 0.96728039
-0.13803531 -0.24369198 0.96733403
-0.13463449 -0.24370547 0.96738756
-0.13123329 -0.24371897 0.96744114
-0.12783171 -0.24373245 0.96749467
-0.12442975 -0.24374595 0.96754825
-0.12102742 -0.24375945 0.96760184
-0.11762471 -0.24377295 0.96765542
-0.11422163 -0.24378645 0.967709
-0.11081816 -0.24379994 0.96776259
-0.10741431 -0.24381344 0.96781617
-0.1040101 -0.24382694 0.96786976
-0.1006055 -0.24384044 0.96792334
-0.097200528 -0.24385396 0.96797699
-0.093795173 -0.24386746 0.96803057
-0.092453517 -0.24945006 0.99019068
-0.091056183 -0.25531438 1.0134691
-0.089595139 -0.26147154 1.0379099
-0.17533262 -0.24001844 0.96626616
-0.17193761 -0.24003172 0.96631962
-0.16854225 -0.24004503 0.96637315
-0.16514648 -0.2400583 0.96642661
-0.16175035 -0.24007156 0.96648002
-0.15835384 -0.24008486 0.96653348
-0.15495695 -0.24009813 0.96658695
-0.15155968 -0.24011141 0.96664041
-0.14816204 -0.24012469 0.96669388
-0.14476402 -0.24013798 0.96674734
-0.14136565 -0.24015129 0.96680093
-0.13796687 -0.24016456 0.96685439
-0.13456772 -0.24017784 0.96690786
-0.13116822 -0.24019113 0.96696138
-0.12776832 -0.24020444 0.96701491
-0.12436803 -0.24021772 0.96706837
-0.1209674 -0.24023104 0.96712202
-0.11756638 -0.24024433 0.96717554
-0.11416497 -0.24025764 0.96722907
-0.11076319 -0.24027093 0.96728259
-0.10736104 -0.24028423 0.96733618
-0.10395851 -0.24029753 0.9673897
-0.10055559 -0.24031083 0.96744323
-0.097152308 -0.24032414 0.96749681
-0.094194978 -0.24148168 0.97215682
-0.092866369 -0.2470596 0.9946124
-0.091472335 -0.2528941 1.018101
-0.090015106 -0.25902307 1.0427749
-0.17524581 -0.23649678 0.96578771
-0.17185248 -0.23650986 0.96584117
-0.16845876 -0.23652291 0.96589446
-0.16506468 -0.23653598 0.96594787
-0.16167021 -0.23654905 0.96600121
-0.1582754 -0.23656216 0.96605474
-0.1548802 -0.23657523 0.96610814
-0.15148461 -0.23658831 0.96616155
-0.14808863 -0.2366014 0.96621495
-0.14469232 -0.23661448 0.96626842
-0.1412956 -0.23662756 0.96632183
-0.1378985 -0.23664065 0.96637529
-0.13450104 -0.23665373 0.9664287
-0.1311032 -0.23666683 0.96648216
-0.12770499 -0.23667991 0.96653563
-0.12430641 -0.23669302 0.96658915
-0.12090743 -0.23670611 0.96664256
-0.1175081 -0.23671921 0.96669608
-0.11410838 -0.2367323 0.96674955
-0.11070827 -0.23674539 0.96680301
-0.10730781 -0.23675852 0.9668566
-0.10390697 -0.23677161 0.96691012
-0.10050574 -0.23678471 0.96696359
-0.09710414 -0.23679782 0.96701711
-0.094608292 -0.23910096 0.97642249
-0.093282945 -0.24464773 0.99907398
-0.091893815 -0.25045568 1.0227921
-0.090438999 -0.25655144 1.0476855
-0.17529351 -0.23315738 0.96605057
-0.17180818 -0.23304676 0.96559221
-0.16837539 -0.23300432 0.96541637
-0.16498296 -0.23301718 0.96546966
-0.16159019 -0.23303005 0.965523
-0.15819703 -0.23304293 0.96557635
-0.15480348 -0.2330558 0.9656297
-0.15140958 -0.23306869 0.9656831
-0.14801531 -0.23308156 0.96573645
-0.14462064 -0.23309444 0.96578979
-0.14122562 -0.23310736 0.96584332
-0.13783021 -0.23312023 0.96589667
-0.13443443 -0.23313312 0.96595007
-0.13103826 -0.23314601 0.96600348
-0.12764174 -0.2331589 0.96605688
-0.12424482 -0.23317179 0.96611029
-0.12084754 -0.23318468 0.96616369
-0.11744987 -0.23319757 0.9662171
-0.11405183 -0.23321046 0.96627051
-0.11065342 -0.23322336 0.96632397
-0.10725463 -0.23323627 0.96637744
-0.10385547 -0.23324917 0.9664309
-0.10045592 -0.23326206 0.96648431
-0.097056009 -0.23327497 0.96653777
-0.095025226 -0.23669919 0.98072553
-0.09370327 -0.24221411 1.0035757
-0.092318259 -0.24799219 1.0275162
-0.09086629 -0.25405473 1.0526354
-0.17569348 -0.23027787 0.96825486
-0.17219996 -0.23016827 0.96779406
-0.16870983 -0.23005886 0.96733403
-0.16522302 -0.22994956 0.96687442
-0.16173951 -0.22984037 0.96641529
-0.15825932 -0.22973126 0.96595657
-0.15478243 -0.22962229 0.96549833
-0.15133466 -0.22955257 0.96520519
-0.14794205 -0.22956525 0.96525848
-0.14454907 -0.22957793 0.96531183
-0.1411557 -0.22959059 0.96536511
-0.13776198 -0.22960329 0.96541846
-0.13436787 -0.22961597 0.9654718
-0.13097338 -0.22962867 0.96552515
-0.12757853 -0.22964135 0.9655785
-0.12418331 -0.22965406 0.96563196
-0.1207877 -0.22966675 0.96568531
-0.11739171 -0.22967944 0.96573865
-0.11399536 -0.22969215 0.96579206
-0.11059862 -0.22970483 0.96584541
-0.10720152 -0.22971754 0.96589881
-0.10380402 -0.22973022 0.96595216
-0.10040616 -0.22974291 0.96600556
-0.09700793 -0.22975563 0.96605897
-0.095445856 -0.23427619 0.98506671
-0.094127394 -0.23975846 1.0081182
-0.092746638 -0.24550581 1.0322841
-0.091297515 -0.25153396 1.0576309
-0.17609528 -0.22738516 0.97046918
-0.17259361 -0.22727674 0.97000641
-0.16909523 -0.22716835 0.96954381
-0.16560027 -0.22706017 0.96908212
-0.16210864 -0.22695211 0.9686209
-0.15862034 -0.22684413 0.96816009
-0.15513533 -0.22673626 0.96769971
-0.15165366 -0.22662851 0.9672398
-0.14817528 -0.22652085 0.9667803
-0.14470021 -0.22641328 0.96632123
-0.14122844 -0.22630581 0.96586257
-0.13775997 -0.22619846 0.96540439
-0.13430139 -0.22610234 0.96499413
-0.13090858 -0.22611482 0.96504742
-0.12751541 -0.22612731 0.96510071
-0.12412184 -0.2261398 0.96515399
-0.12072791 -0.22615229 0.96520728
-0.11733361 -0.22616477 0.96526062
-0.11393892 -0.22617726 0.96531391
-0.11054388 -0.22618979 0.96536738
-0.10714845 -0.22620228 0.96542066
-0.10375264 -0.22621478 0.96547401
-0.10035646 -0.22622727 0.96552736
-0.097122647 -0.22661951 0.96720141
-0.095870242 -0.23183167 0.98944664
-0.094555378 -0.23728047 1.0127019
-0.09317901 -0.24299623 1.0370965
-0.091732852 -0.24898916 1.062674
-0.17649892 -0.22447921 0.97269368
-0.17298901 -0.2243719 0.97222865
-0.16948248 -0.2242647 0.97176415
-0.16597927 -0.22415757 0.97129995
-0.16247948 -0.22405064 0.97083664
-0.15898299 -0.22394378 0.97037363
-0.15548986 -0.22383706 0.96991116
-0.15200005 -0.22373043 0.9694491
-0.14851359 -0.2236239 0.96898752
-0.14503042 -0.22351748 0.96852636
-0.14155059 -0.22341116 0.96806568
-0.13807404 -0.22330494 0.96760541
-0.1346008 -0.22319882 0.96714556
-0.13113087 -0.22309278 0.96668613
-0.12766424 -0.22298686 0.96622717
-0.12420089 -0.22288105 0.96576864
-0.12074082 -0.22277531 0.96531051
-0.11728403 -0.22266968 0.96485275
-0.11388256 -0.22266589 0.96483636
-0.11048917 -0.22267818 0.96488965
-0.10709543 -0.22269049 0.96494293
-0.10370129 -0.22270279 0.96499622
-0.10030679 -0.22271508 0.96504951
-0.097546615 -0.22418608 0.97142351
-0.096298389 -0.22936526 0.99386549
-0.094987273 -0.23477986 1.0173275
-0.093615428 -0.24046315 1.0419539
-0.092172369 -0.24642 1.0677656
-0.17690441 -0.2215599 0.97492838
-0.17338626 -0.22145373 0.9744612
-0.16987149 -0.22134769 0.97399461
-0.16636007 -0.22124173 0.97352833
-0.162852 -0.22113588 0.97306257
-0.15934734 -0.22103019 0.97259748
-0.15584603 -0.2209246 0.97213286
-0.15234807 -0.22081912 0.97166872
-0.14885344 -0.2207137 0.97120488
-0.14536214 -0.22060843 0.97074163
-0.14187418 -0.22050324 0.9702788
-0.13838956 -0.22039817 0.96981645
-0.13490823 -0.22029318 0.96935445
-0.13143022 -0.2201883 0.96889293
-0.12795554 -0.22008352 0.96843189
-0.12448415 -0.21997884 0.96797127
-0.12101607 -0.21987428 0.96751112
-0.11755127 -0.21976978 0.96705133
-0.11408978 -0.21966539 0.96659201
-0.11063156 -0.21956109 0.966133
-0.10717662 -0.21945691 0.96567458
-0.10372498 -0.21935283 0.96521658
-0.1002766 -0.21924883 0.96475899
-0.097974293 -0.22173129 0.97568256
-0.096730404 -0.22687677 0.99832416
-0.095423132 -0.23225629 1.0219957
-0.094055958 -0.23790625 1.0468571
-0.17731176 -0.21862713 0.97717327
-0.17378533 -0.21852215 0.97670406
-0.17026226 -0.21841724 0.97623521
-0.16674259 -0.21831247 0.9757669
-0.16322631 -0.21820779 0.97529906
-0.15971336 -0.21810319 0.97483146
-0.15620382 -0.21799874 0.9743647
-0.15269765 -0.21789441 0.97389835
-0.14919485 -0.21779019 0.97343254
-0.1456954 -0.21768607 0.97296715
-0.14219926 -0.21758202 0.97250205
-0.13870649 -0.21747808 0.97203755
-0.13521706 -0.21737425 0.97157347
-0.13173096 -0.21727054 0.97110987
-0.12824817 -0.2171669 0.97064668
-0.12476871 -0.21706338 0.97018397
-0.12129257 -0.21695994 0.96972167
-0.11781973 -0.21685661 0.9692598
-0.11435021 -0.21675338 0.9687984
-0.11088398 -0.21665023 0.96833742
-0.10742106 -0.21654721 0.96787691
-0.10396139 -0.21644421 0.96741652
-0.10050502 -0.2163413 0.96695662
-0.098405749 -0.21925491 0.97997922
-0.097166285 -0.22436579 1.0028228
-0.095863007 -0.22970948 1.0267068
-0.094498627 -0.23532011 1.051784
-0.17772101 -0.21568084 0.97942865
-0.17418623 -0.21557702 0.97895724
-0.17065486 -0.21547331 0.97848624
-0.16712689 -0.2153697 0.97801578
-0.16360229 -0.21526617 0.97754562
-0.1600811 -0.21516277 0.97707605
-0.15656327 -0.21505943 0.97660679
-0.15304886 -0.21495627 0.97613829
-0.14953783 -0.21485321 0.97567034
-0.14603017 -0.21475026 0.9752028
-0.14252587 -0.2146474 0.97473568
-0.13902491 -0.21454462 0.97426903
-0.13552731 -0.21444196 0.97380275
-0.13203306 -0.21433939 0.97333699
-0.12854216 -0.21423692 0.97287166
-0.12505458 -0.21413454 0.9724068
-0.12157033 -0.21403228 0.97194237
-0.11808942 -0.2139301 0.9714784
-0.11461183 -0.21382804 0.97101492
-0.11113752 -0.21372601 0.97055161
-0.10766653 -0.21362406 0.97008866
-0.10419884 -0.21352223 0.96962619
-0.10073448 -0.2134205 0.96916425
-0.098841004 -0.2167566 0.98431379
-0.097606152 -0.22183217 1.0073625
-0.0963066 -0.22713822 1.0314578
-0.094948821 -0.23271769 1.0567948
-0.17813215 -0.21272092 0.98169446
-0.17458899 -0.21261828 0.98122078
-0.17104927 -0.21251576 0.9807477
-0.16751297 -0.21241334 0.98027503
-0.16398004 -0.212311 0.97980273
-0.16045053 -0.21220878 0.97933096
-0.15692443 -0.21210663 0.9788596
-0.15340169 -0.21200459 0.97838867
-0.14988239 -0.21190269 0.97791839
-0.14636648 -0.21180092 0.9774487
-0.14285395 -0.21169923 0.97697943
-0.1393448 -0.21159765 0.97651064
-0.135839 -0.21149617 0.97604233
-0.13233657 -0.21139479 0.97557443
-0.1288375 -0.2112935 0.97510701
-0.12534176 -0.21119228 0.97463989
-0.12184938 -0.21109118 0.97417331
-0.11836032 -0.21099013 0.97370702
-0.1148746 -0.21088919 0.97324115
-0.11139219 -0.21078831 0.97277558
-0.10791314 -0.21068755 0.9723106
-0.10443739 -0.21058686 0.97184592
-0.10096497 -0.21048629 0.97138184
-0.099280149 -0.21423611 0.98868698
-0.098049358 -0.21927401 1.0119367
-0.096755296 -0.22454531 1.0362633
-0.095401205 -0.23008527 1.0618299
-0.17499362 -0.20964582 0.98349488
-0.1714455 -0.20954451 0.98301959
-0.1679008 -0.20944327 0.98254466
-0.16435954 -0.20934215 0.98207027
-0.16082168 -0.20924109 0.98159623
-0.15728724 -0.20914018 0.98112279
-0.1537562 -0.20903932 0.98064965
-0.15022856 -0.20893858 0.98017704
-0.14670435 -0.20883796 0.97970498
-0.14318354 -0.20873746 0.97923356
-0.13966614 -0.20863707 0.97876263
-0.13615212 -0.20853677 0.97829211
-0.13264146 -0.20843658 0.97782207
-0.12913418 -0.20833647 0.97735244
-0.12563023 -0.20823641 0.97688305
-0.12212966 -0.20813645 0.97641408
-0.11863243 -0.20803657 0.97594553
-0.11513856 -0.20793681 0.97547752
-0.11164805 -0.20783713 0.97500992
-0.10816087 -0.20773754 0.97454268
-0.10467704 -0.20763806 0.97407597
-0.10119654 -0.20753866 0.97360975
-0.09972319 -0.21169308 0.99309903
-0.098498411 -0.2166965 1.0165712
-0.097210079 -0.22193244 1.0411341
-0.095857933 -0.22742765 1.0669134
-0.15411234 -0.20606032 0.98292112
-0.15057638 -0.2059608 0.98244637
-0.14704381 -0.20586133 0.98197192
-0.14351468 -0.20576201 0.98149818
-0.13998897 -0.20566282 0.98102504
-0.13646667 -0.20556372 0.98055232
-0.13294773 -0.20546466 0.98007983
-0.12943217 -0.20536572 0.97960782
-0.12592 -0.20526685 0.97913623
-0.12241121 -0.20516807 0.97866505
-0.11890579 -0.20506941 0.97819442
-0.11540374 -0.20497084 0.97772419
-0.11190506 -0.20487234 0.97725439
-0.10840975 -0.20477396 0.97678512
-0.10491778 -0.20467567 0.97631627
-0.10142916 -0.20457746 0.97584778
-0.10017022 -0.20912731 0.99755085
-0.098948315 -0.21408817 1.0212145
-0.097667173 -0.21929045 1.0460297
-0.096319057 -0.22474445 1.0720457
-0.14031327 -0.20267472 0.98329759
-0.13678262 -0.20257679 0.98282248
-0.13325538 -0.20247896 0.98234785
-0.12973154 -0.20238119 0.98187351
-0.12621111 -0.20228356 0.98139983
-0.12269407 -0.202186 0.98092651
-0.11918041 -0.20208852 0.98045361
-0.11567015 -0.20199116 0.97998124
-0.11216327 -0.20189388 0.97950929
-0.10865976 -0.2017967 0.97903776
-0.10515963 -0.20169961 0.97856677
-0.10178325 -0.20184137 0.97925448
-0.10062126 -0.20653838 1.0020425
-0.099404246 -0.21145995 1.02592
-0.098128565 -0.21662344 1.0509713
-0.096784636 -0.22203535 1.0772277
-0.14063904 -0.1996727 0.9855805
-0.13710003 -0.19957599 0.98510319
-0.13356444 -0.19947937 0.98462623
-0.1300323 -0.19938286 0.98414987
-0.12650356 -0.19928643 0.98367393
-0.12297823 -0.19919008 0.98319834
-0.11945631 -0.19909385 0.98272336
-0.1159378 -0.19899771 0.98224878
-0.11242267 -0.19890165 0.98177463
-0.10891094 -0.19880569 0.98130095
-0.1054026 -0.19870982 0.98082775
-0.1022333 -0.1992683 0.9835844
-0.10107639 -0.20392606 1.006575
-0.099864185 -0.20880695 1.0306669
-0.098592706 -0.21392757 1.0559423
-0.097254731 -0.21929988 1.0824599
-0.14096636 -0.19665676 0.98787433
-0.13741891 -0.19656123 0.98739445
-0.13387497 -0.19646585 0.98691535
-0.13033445 -0.19637057 0.98643672
-0.12679736 -0.19627538 0.98595852
-0.12326372 -0.19618028 0.98548079
-0.11973349 -0.19608527 0.98500359
-0.11620667 -0.19599035 0.98452675
-0.11268327 -0.19589554 0.98405045
-0.10916328 -0.19580081 0.98357463
-0.10564669 -0.19570616 0.98309916
-0.10268733 -0.19667234 0.98795259
-0.10153566 -0.20128998 1.0111486
-0.10032846 -0.20612939 1.0354586
-0.099063754 -0.2112114 1.0609872
-0.097729407 -0.21653771 1.0877432
-0.14129521 -0.19362676 0.99017888
-0.13773932 -0.19353245 0.98969662
-0.13418692 -0.19343829 0.98921508
-0.13063802 -0.19334427 0.98873425
-0.12709256 -0.19325033 0.98825383
-0.12355053 -0.19315647 0.98777384
-0.12001195 -0.19306271 0.98729438
-0.1164768 -0.19296904 0.98681539
-0.11294508 -0.19287544 0.98633677
-0.10941679 -0.19278197 0.98585874
-0.10589192 -0.19268857 0.98538113
-0.10314542 -0.19405325 0.99235988
-0.1019991 -0.19862984 1.0157639
-0.10079708 -0.20342682 1.040295
-0.099537633 -0.20846561 1.0660626
-0.098208755 -0.21374847 1.0930784
-0.14162558 -0.19058257 0.99249411
-0.13806123 -0.19048955 0.99200964
-0.13450034 -0.19039659 0.99152559
-0.130943 -0.19030383 0.99104255
-0.1273891 -0.19021113 0.99055982
-0.12383869 -0.19011855 0.99007767
-0.12029172 -0.19002604 0.98959595
-0.11674819 -0.18993363 0.98911464
-0.11320812 -0.18984132 0.98863387
-0.1096715 -0.18974909 0.98815364
-0.10613828 -0.18965693 0.9876737
-0.1036076 -0.19141065 0.9968065
-0.10246681 -0.19594532 1.0204216
-0.10126939 -0.20069751 1.0451696
-0.10001606 -0.20569342 1.0711867
-0.14195751 -0.18752411 0.99482024
-0.13838463 -0.18743233 0.99433333
-0.13481525 -0.18734068 0.99384707
-0.1312494 -0.18724914 0.99336147
-0.12768705 -0.18715774 0.99287659
-0.12412819 -0.18706642 0.99239212
-0.12057279 -0.1869752 0.99190819
-0.11702086 -0.18688406 0.99142474
-0.11347238 -0.18679298 0.99094158
-0.10992737 -0.18670204 0.99045908
-0.10638581 -0.18661118 0.98997706
-0.10407394 -0.18874428 1.0012932
-0.10293894 -0.19323625 1.0251232
-0.1017459 -0.19794202 1.0500875
-0.10049912 -0.20289445 1.0763602
-0.14229101 -0.1844513 0.99715734
-0.13870956 -0.18436082 0.99666816
-0.13513166 -0.18427044 0.99617958
-0.13155724 -0.18418014 0.99569142
-0.12798639 -0.18409 0.99520415
-0.12441904 -0.18399999 0.99471748
-0.12085517 -0.18391006 0.99423128
-0.11729478 -0.18382019 0.99374545
-0.11373788 -0.18373042 0.9932602
-0.11018445 -0.18364075 0.99277544
-0.10663448 -0.18355115 0.99229103
-0.10454451 -0.1860538 1.0058205
-0.10341781 -0.19050649 1.0298921
-0.10223331 -0.1951727 1.055118
-0.10098299 -0.20006065 1.0815426
-0.14621961 -0.18145326 0.99999726
-0.14262606 -0.18136401 0.9995054
-0.13903603 -0.18127483 0.9990139
-0.13544954 -0.18118575 0.99852306
-0.13186656 -0.18109675 0.99803251
-0.12828714 -0.18100789 0.9975428
-0.12471128 -0.18091917 0.99705386
-0.12113888 -0.18083051 0.99656522
-0.11757001 -0.18074195 0.99607724
-0.11400463 -0.18065348 0.99558967
-0.11044273 -0.18056509 0.99510252
-0.10688432 -0.1804768 0.99461597
-0.10501937 -0.1833389 1.0103891
-0.1038982 -0.18774588 1.0346762
-0.10301893 -0.19292638 1.0632261
-0.10147809 -0.19721213 1.0868452
-0.14656489 -0.17835005 1.0023586
-0.14296268 -0.1782621 1.0018643
-0.13936403 -0.17817427 1.0013707
-0.13576891 -0.17808649 1.0008774
-0.13217734 -0.17799881 1.0003846
-0.12858932 -0.17791125 0.99989247
-0.12500486 -0.17782381 0.99940109
-0.12142394 -0.17773649 0.99891031
-0.11784652 -0.17764923 0.99841988
-0.11427262 -0.17756207 0.99793005
-0.11070223 -0.17747501 0.9974407
-0.10713533 -0.177388 0.9969517
-0.10549854 -0.18059918 1.0149992
-0.10438138 -0.18495648 1.0394878
-0.10354049 -0.19013798 1.0686089
-0.10197701 -0.19433354 1.0921886
-0.14691181 -0.17523216 1.0047312
-0.14330092 -0.17514557 1.0042347
-0.13969357 -0.17505904 1.0037385
-0.1360898 -0.17497261 1.003243
-0.13248959 -0.17488626 1.0027479
-0.12889293 -0.17479999 1.0022533
-0.12529983 -0.17471384 1.0017593
-0.12171031 -0.17462783 1.0012661
-0.11812431 -0.17454191 1.0007734
-0.11454187 -0.17445607 1.0002813
-0.11096294 -0.17437033 0.99978971
-0.10738753 -0.17428468 0.99929857
-0.10598212 -0.17783439 1.0196517
-0.1076521 -0.18697469 1.0720595
-0.10383001 -0.18689403 1.071597
-0.1472604 -0.17209949 1.0071151
-0.14364076 -0.17201424 1.0066162
-0.14002469 -0.17192905 1.0061177
-0.13641222 -0.17184396 1.0056198
-0.13280334 -0.17175898 1.0051224
-0.129198 -0.17167404 1.0046254
-0.12559624 -0.17158923 1.0041291
-0.12199806 -0.17150451 1.0036334
-0.11840346 -0.17141993 1.0031384
-0.1148124 -0.17133541 1.0026438
-0.11122488 -0.171251 1.0021498
-0.10764089 -0.17116667 1.0016563
-0.10647013 -0.1750441 1.0243468
-0.10781191 -0.18346938 1.073651
-0.10420547 -0.18378057 1.075472
-0.1476106 -0.1689519 1.0095103
-0.14398222 -0.16886804 1.0090091
-0.14035739 -0.1687842 1.0085082
-0.13673617 -0.16870046 1.0080079
-0.13311855 -0.16861683 1.0075082
-0.12950452 -0.16853328 1.0070089
-0.12589404 -0.16844977 1.00651
-0.12228716 -0.16836639 1.0060117
-0.11868392 -0.16828316 1.0055145
-0.11508422 -0.16820002 1.0050176
-0.11148807 -0.16811694 1.0045213
-0.10800748 -0.16820838 1.0050676
-0.10696267 -0.17222802 1.0290855
-0.10787941 -0.17979901 1.0743232
-0.1047124 -0.18086688 1.0807039
-0.14796253 -0.16578934 1.011917
-0.14432529 -0.16570681 1.0114133
-0.14069167 -0.16562437 1.0109102
-0.13706167 -0.16554201 1.0104074
-0.13343526 -0.16545972 1.0099052
-0.12981248 -0.16537754 1.0094036
-0.12619328 -0.16529544 1.0089024
-0.12257769 -0.16521341 1.0084018
-0.1189657 -0.16513149 1.0079018
-0.11535732 -0.1650497 1.0074025
-0.1117525 -0.16496798 1.0069038
-0.10849768 -0.1654145 1.0096291
-0.10745978 -0.16938576 1.0338683
-0.10785822 -0.1759792 1.0741122
-0.10522429 -0.17792471 1.0859869
-0.14831612 -0.16261165 1.0143353
-0.14467001 -0.16253051 1.0138291
-0.14102755 -0.16244946 1.0133235
-0.13738871 -0.16236846 1.0128183
-0.13375351 -0.16228759 1.0123138
-0.13012192 -0.16220677 1.0118097
-0.12649395 -0.16212605 1.0113062
-0.12286959 -0.16204539 1.0108031
-0.11924883 -0.16196482 1.0103005
-0.11563173 -0.16188443 1.009799
-0.11201821 -0.16180408 1.0092978
-0.10899236 -0.16259515 1.0142324
-0.10795786 -0.16651128 1.0386603
-0.10773334 -0.17199533 1.0728686
-0.10574121 -0.17495364 1.0913218
-0.14867139 -0.15941873 1.016765
-0.14501639 -0.159339 1.0162565
-0.14136502 -0.15925933 1.0157484
-0.13771732 -0.15917976 1.0152409
-0.13407326 -0.15910026 1.0147339
-0.13043283 -0.15902086 1.0142274
-0.12679605 -0.15894152 1.0137215
-0.12316288 -0.15886226 1.0132159
-0.11953334 -0.15878309 1.0127109
-0.11590745 -0.15870404 1.0122068
-0.11228518 -0.1586251 1.0117033
-0.10949156 -0.15974998 1.0188777
-0.10846432 -0.16361566 1.0435328
-0.10745275 -0.16777711 1.0700743
-0.14902839 -0.15621048 1.0192065
-0.14536442 -0.15613216 1.0186955
-0.14170416 -0.15605395 1.0181851
-0.13804753 -0.15597577 1.0176752
-0.13439454 -0.15589768 1.0171655
-0.13074525 -0.15581967 1.0166566
-0.1270996 -0.15574177 1.0161483
-0.12345759 -0.15566392 1.0156404
-0.11981921 -0.15558614 1.0151329
-0.11618447 -0.15550844 1.014626
-0.11255343 -0.15543093 1.0141202
-0.10999537 -0.15687864 1.0235659
-0.10897477 -0.1606916 1.0484439
-0.10790969 -0.16470426 1.0746248
-0.150886 -0.15452181 1.0319107
-0.14686234 -0.1541148 1.0291927
-0.14285982 -0.15370993 1.0264889
-0.13887827 -0.15330718 1.0237993
-0.13491753 -0.15290654 1.0211238
-0.13105917 -0.15260315 1.0190977
-0.1274046 -0.15252663 1.0185868
-0.12375372 -0.15245023 1.0180765
-0.12010647 -0.15237388 1.0175667
-0.11646286 -0.15229759 1.0170572
-0.11282295 -0.15222144 1.0165486
-0.11050241 -0.15397877 1.0282842
-0.1094904 -0.15774041 1.0534048
-0.1084336 -0.16169924 1.0798422
-0.14886869 -0.15254447 1.0432529
-0.1448063 -0.15213826 1.0404749
-0.14076547 -0.15173422 1.0377116
-0.13674605 -0.15133229 1.0349629
-0.13274787 -0.15093252 1.0322288
-0.12877077 -0.15053484 1.0295091
-0.12481456 -0.15013926 1.0268037
-0.12087908 -0.14974572 1.0241123
-0.1169642 -0.14935428 1.0214353
-0.11309378 -0.14899656 1.0189888
-0.11101481 -0.15105295 1.0330524
-0.11001216 -0.15476286 1.0584246
-0.15093061 -0.15093061 1.0577027
-0.14680654 -0.15052316 1.0548472
-0.14270468 -0.15011792 1.0520073
-0.13862512 -0.14971513 1.0491847
-0.13456742 -0.14931455 1.0463774
-0.13053139 -0.14891608 1.0435851
-0.12651682 -0.14851975 1.0408076
-0.12252358 -0.14812553 1.0380449
-0.11855148 -0.14773338 1.0352968
-0.11460036 -0.14734332 1.0325633
-0.111532 -0.14809987 1.0378652
-0.11053718 -0.15175444 1.0634758
-0.1364395 -0.14765371 1.0609344
-0.1323424 -0.14725423 1.058064
-0.12826741 -0.14685689 1.055209
-0.12421435 -0.1464617 1.0523695
-0.12018304 -0.14606862 1.049545
-0.11617332 -0.14567766 1.0467359
-0.11218499 -0.14528875 1.0439415
-0.11106806 -0.14871824 1.0685834
-0.11374201 -0.14357598 1.0584304
