# .PCD v0.7 - Point Cloud Data file format
VERSION 0.7
FIELDS x y z
SIZE 4 4 4
TYPE F F F
COUNT 1 1 1
WIDTH 742
HEIGHT 1
VIEWPOINT 0 0 0 1 0 0 0
POINTS 742
DATA ascii
0.34889755 -0.21543947 1.0822263
0.34930095 -0.21335679 1.0717643
0.34969658 -0.21131398 1.0615026
0.34079391 -0.21133029 1.0807122
0.34127504 -0.20929021 1.0702795
0.34199086 -0.20743708 1.0608028
0.34584573 -0.20750743 1.0611626
0.34970316 -0.20757781 1.0615225
0.35356328 -0.20764828 1.0618829
0.33214879 -0.20927294 1.0898277
0.33271423 -0.20723343 1.0792066
0.33327129 -0.20523487 1.0687987
0.33449128 -0.20368464 1.0607256
0.33834329 -0.20375369 1.0610852
0.34219795 -0.20382284 1.0614452
0.34605521 -0.20389198 1.0618054
0.34991506 -0.20396118 1.0621657
0.35377762 -0.20403047 1.0625266
0.32401389 -0.2051449 1.0882989
0.32465771 -0.20314839 1.0777074
0.32528967 -0.20119071 1.0673219
0.32699281 -0.19993274 1.0606483
0.33084202 -0.20000054 1.061008
0.33469382 -0.20006838 1.0613679
0.33854827 -0.20013626 1.061728
0.34240529 -0.20020419 1.0620884
0.34626496 -0.20027217 1.062449
0.35012725 -0.20034018 1.0628098
0.35399219 -0.20040828 1.063171
0.31590179 -0.20102841 1.0867743
0.31662354 -0.19907469 1.0762124
0.31733143 -0.19715859 1.0658538
0.31949544 -0.19618142 1.0605712
0.32334182 -0.19624792 1.0609307
0.32719079 -0.19631447 1.0612905
0.33104241 -0.19638109 1.0616506
0.33489662 -0.19644774 1.062011
0.33875343 -0.19651443 1.0623715
0.34261292 -0.19658118 1.0627323
0.34647501 -0.19664797 1.0630934
0.35033971 -0.1967148 1.0634547
0.35420704 -0.19678169 1.0638163
0.35807708 -0.19684866 1.0641783
0.30781242 -0.19692346 1.0852543
0.30861163 -0.19501227 1.0747216
0.30939606 -0.19313814 1.0643932
0.3101711 -0.19130313 1.0542804
0.31093177 -0.18950279 1.0443586
0.31167847 -0.18773615 1.0346226
0.31241134 -0.18600212 1.0250663
0.31313083 -0.18429986 1.015685
0.3138372 -0.18262842 1.0064737
0.31564531 -0.1816283 1.0009619
0.31885755 -0.18144932 0.99997556
0.32206357 -0.18127075 0.99899143
0.34668526 -0.19301936 1.0637386
0.35055241 -0.19308501 1.0641004
0.35442218 -0.1931507 1.0644624
0.35829461 -0.19321646 1.0648248
0.29974562 -0.19282998 1.0837383
0.30062193 -0.19096109 1.0732349
0.30148646 -0.18913125 1.0629508
0.30233553 -0.18733674 1.0528654
0.30316859 -0.18557593 1.0429693
0.30398631 -0.18384801 1.0332581
0.30478922 -0.18215212 1.0237269
0.3055774 -0.18048723 1.01437
0.30635127 -0.17885248 1.0051824
0.3085165 -0.17805809 1.0007178
0.31173494 -0.17788264 0.99973172
0.31494707 -0.17770757 0.99874771
0.31815287 -0.17753282 0.99776566
0.3213526 -0.17735854 0.99678612
0.32454607 -0.17718461 0.9958086
0.35076532 -0.1894508 1.0647467
0.35463753 -0.18951529 1.0651093
0.3585124 -0.18957986 1.0654721
0.36238998 -0.18964449 1.0658354
0.29170129 -0.18874788 1.0822265
0.29265779 -0.18692335 1.0717652
0.29359823 -0.1851352 1.0615124
0.29452091 -0.18338093 1.0514539
0.29542625 -0.18165961 1.0415844
0.29631475 -0.17997031 1.0318984
0.29718691 -0.17831215 1.022391
0.29804349 -0.17668447 1.0130583
0.29888457 -0.17508623 1.0038944
0.30139115 -0.17448962 1.0004736
0.30461583 -0.17431773 0.99948812
0.30783421 -0.17414621 0.99850464
0.31104621 -0.17397501 0.99752301
0.31425193 -0.17380415 0.99654335
0.31745139 -0.17363364 0.99556571
0.32064477 -0.17346357 0.99459058
0.32383192 -0.17329384 0.99361742
0.32701284 -0.17312443 0.9926461
0.35485318 -0.18587548 1.0657569
0.35873049 -0.18593885 1.0661203
0.36261046 -0.18600225 1.0664839
0.28368142 -0.18467851 1.0807267
0.28471628 -0.18289723 1.0703027
0.28573135 -0.18114994 1.0600778
0.28672722 -0.17943576 1.0500464
0.28770441 -0.17775369 1.0402031
0.28866348 -0.17610286 1.0305426
0.28960484 -0.17448242 1.0210599
0.29052907 -0.17289153 1.0117501
0.29143694 -0.17132959 1.0026097
0.29426926 -0.17092288 1.0002296
0.29750019 -0.17075455 0.99924463
0.30072477 -0.17058657 0.99826163
0.30394298 -0.17041889 0.99728036
0.30715489 -0.17025156 0.99630117
0.31036049 -0.17008457 0.9953239
0.31355983 -0.1699179 0.99434853
0.316753 -0.16975161 0.99337548
0.31994006 -0.16958572 0.9924047
0.32312089 -0.16942014 0.99143571
0.3262955 -0.16925488 0.99046868
0.3550691 -0.18223123 1.0664054
0.35894883 -0.18229339 1.0667691
0.36283123 -0.1823556 1.0671332
0.27756745 -0.18185453 1.0866052
0.27858824 -0.18004002 1.0757632
0.27958888 -0.17826137 1.0651356
0.28056994 -0.1765175 1.0547158
0.28153196 -0.17480743 1.0444978
0.28247553 -0.17313015 1.0344759
0.28340119 -0.17148478 1.0246446
0.28430942 -0.16987041 1.0149984
0.28520066 -0.1682861 1.005532
0.28715089 -0.16735789 0.99998581
0.29038805 -0.16719311 0.99900132
0.2936188 -0.16702865 0.99801862
0.29684323 -0.16686454 0.99703801
0.30006132 -0.16670074 0.99605924
0.30327311 -0.16653726 0.99508244
0.30647862 -0.1663741 0.9941076
0.30967781 -0.16621125 0.9931345
0.31287077 -0.16604874 0.99216342
0.31605771 -0.16588664 0.9911949
0.31923842 -0.16572486 0.9902283
0.32241297 -0.16556342 0.98926359
0.32558131 -0.16540226 0.98830074
0.32874352 -0.16524145 0.98733979
0.35916743 -0.17864349 1.0674188
0.36305225 -0.17870449 1.0677832
0.36693978 -0.17876554 1.068148
0.27888784 -0.17887288 1.0917742
0.27990109 -0.17708029 1.0808328
0.28089383 -0.17532299 1.070107
0.28186661 -0.17359996 1.0595902
0.2828204 -0.17191045 1.049278
0.28375587 -0.17025353 1.0391648
0.28467342 -0.1686282 1.0292444
0.28557369 -0.16703366 1.0195119
0.28645703 -0.16546896 1.0099616
0.28732315 -0.16393284 1.0005857
0.28974694 -0.16331191 0.99679571
0.29297119 -0.16315162 0.99581742
0.29618916 -0.16299167 0.9948411
0.29940081 -0.16283201 0.99386662
0.30260617 -0.16267268 0.99289411
0.30580527 -0.16251366 0.99192351
0.30899814 -0.16235495 0.99095482
0.31218478 -0.16219656 0.98998803
0.3153654 -0.16203858 0.9890238
0.31853986 -0.16188091 0.98806143
0.32170814 -0.16172355 0.98710096
0.32487026 -0.1615665 0.98614234
0.32802624 -0.16140974 0.98518556
0.33117613 -0.16125329 0.9842307
0.36327359 -0.17504893 1.0684342
0.36716354 -0.17510876 1.0687994
0.28022096 -0.17586282 1.0969931
0.2812252 -0.17409179 1.0859458
0.2822094 -0.17235607 1.0751188
0.28317535 -0.17065534 1.06451
0.28412074 -0.16898684 1.0541023
0.28504783 -0.16735066 1.0438962
0.28595716 -0.16574587 1.0338858
0.2868492 -0.16417156 1.0240656
0.28772449 -0.16262688 1.0144303
0.28858343 -0.161111 1.0049745
0.28942725 -0.1596235 0.99569589
0.29232645 -0.15929165 0.99362588
0.29553795 -0.15913582 0.99265385
0.29874319 -0.1589803 0.99168372
0.30194214 -0.15882507 0.99071538
0.30513489 -0.15867014 0.98974901
0.30832142 -0.15851553 0.98878455
0.31150177 -0.15836124 0.98782218
0.31467614 -0.15820734 0.98686218
0.31784433 -0.15805374 0.98590404
0.32100639 -0.15790044 0.98494774
0.3241623 -0.15774743 0.98399335
0.32731211 -0.15759471 0.98304075
0.33045581 -0.1574423 0.98209
0.33359346 -0.15729018 0.98114109
0.36738753 -0.17144752 1.0694515
0.28156695 -0.17282385 1.1022623
0.28256235 -0.17107515 1.0911092
0.28353775 -0.16936147 1.0801793
0.28449383 -0.1676818 1.0694665
0.28543305 -0.16603622 1.058971
0.28635162 -0.16442126 1.0486709
0.28725252 -0.16283742 1.0385692
0.28813621 -0.16128379 1.0286603
0.28900319 -0.15975954 1.0189387
0.28985396 -0.15826382 1.0093991
0.29068673 -0.15679467 1.0000288
0.29168451 -0.15544863 0.99144393
0.29488963 -0.15529691 0.99047619
0.29808846 -0.15514545 0.9895103
0.30128106 -0.15499431 0.98854625
0.30446747 -0.15484345 0.98758411
0.30764765 -0.15469287 0.98662376
0.31082183 -0.1545427 0.98566598
0.31398991 -0.15439282 0.98471004
0.31715184 -0.15424325 0.98375607
0.32030767 -0.15409397 0.98280394
0.32345742 -0.15394497 0.98185366
0.32660106 -0.15379626 0.98090518
0.32973862 -0.15364784 0.97995853
0.33287013 -0.15349971 0.97901374
0.33599564 -0.15335186 0.9780708
0.37150934 -0.16783924 1.0704707
0.2829259 -0.16975555 1.1075822
0.28391221 -0.16802968 1.0963217
0.2848787 -0.16633856 1.0852879
0.28582588 -0.16468114 1.0744739
0.28675443 -0.16305643 1.0638734
0.28766742 -0.16146494 1.0534896
0.28855968 -0.15990248 1.0432953
0.28943482 -0.15836999 1.0332963
0.29029334 -0.1568666 1.0234873
0.29113576 -0.15539148 1.0138628
0.29196134 -0.15394326 1.0044138
0.29277322 -0.15252256 0.99514443
0.29424411 -0.15147477 0.98830807
0.29743657 -0.15132737 0.98734629
0.30062285 -0.15118027 0.98638654
0.30380294 -0.15103346 0.98542863
0.30697685 -0.15088692 0.98447257
0.31014484 -0.15074079 0.98351908
0.31330669 -0.15059492 0.98256737
0.31646243 -0.15044935 0.98161757
0.31961206 -0.15030405 0.98066956
0.3227556 -0.15015903 0.97972333
0.32589313 -0.1500143 0.97877902
0.32902458 -0.14986983 0.97783649
0.33254689 -0.14990456 0.97806305
0.336108 -0.14995587 0.97839785
0.37173641 -0.16416785 1.0711249
0.28429803 -0.16665748 1.1129538
0.2852751 -0.16495499 1.1015844
0.28623235 -0.16328692 1.0904449
0.28717047 -0.16165225 1.0795285
0.28808996 -0.16004997 1.0688283
0.28899145 -0.15847918 1.0583384
0.28987876 -0.15694073 1.0480645
0.2907452 -0.15542983 1.0379745
0.29159507 -0.1539477 1.0280768
0.29242891 -0.15249361 1.0183662
0.29324397 -0.15106508 1.0088264
0.29404664 -0.14966446 0.99947286
0.29483941 -0.14829201 0.99030751
0.29678756 -0.14752598 0.98519194
0.29996753 -0.14738289 0.98423636
0.3031413 -0.14724006 0.98328251
0.30630901 -0.14709754 0.9823308
0.30947074 -0.14695539 0.98138142
0.31262639 -0.1468135 0.98043388
0.31577593 -0.14667188 0.97948813
0.31891939 -0.14653054 0.97854424
0.32207468 -0.14639759 0.97765642
0.32563072 -0.14644769 0.97799098
0.32918921 -0.14649782 0.97832572
0.33275011 -0.14654797 0.9786607
0.33631349 -0.14659819 0.97899604
0.33987927 -0.14664842 0.97933149
0.37586883 -0.16054699 1.0721474
0.28568357 -0.16352922 1.1183778
0.2866511 -0.16185062 1.1068978
0.28759897 -0.16020612 1.0956511
0.28852776 -0.15859473 1.0846307
0.28943804 -0.15701541 1.0738298
0.29033038 -0.15546724 1.0632418
0.29120532 -0.15394932 1.0528607
0.29206347 -0.15246081 1.0426809
0.29290849 -0.15100253 1.0327076
0.2937336 -0.14956987 1.0229096
0.29454321 -0.14816415 1.013296
0.2953333 -0.14678243 1.0038463
0.29611555 -0.14542952 0.9945938
0.29688555 -0.14410235 0.9855172
0.29931504 -0.14360201 0.98209542
0.30248255 -0.14346315 0.9811458
0.30564407 -0.14332461 0.98019832
0.30879959 -0.14318641 0.97925305
0.31194904 -0.14304845 0.97830963
0.31516221 -0.14294243 0.97758454
0.3187156 -0.14299133 0.97791898
0.32227147 -0.14304027 0.97825372
0.32582974 -0.14308925 0.97858864
0.32939047 -0.14313826 0.97892386
0.3329536 -0.1431873 0.97925925
0.33651921 -0.14323638 0.97959489
0.34008726 -0.1432855 0.97993076
0.37609887 -0.15686536 1.0728036
0.28708282 -0.16037041 1.1238555
0.28804043 -0.15871616 1.1122627
0.28897867 -0.15709578 1.1009073
0.28989795 -0.15550816 1.0897815
0.29079881 -0.15395232 1.0788783
0.29168183 -0.15242727 1.0681911
0.29254752 -0.15093216 1.0577135
0.29339641 -0.1494661 1.0474395
0.29422843 -0.14802797 1.0373613
0.29505 -0.14661995 1.027494
0.29585075 -0.14523582 1.0177943
0.29663655 -0.14387761 1.0082761
0.29740277 -0.14254215 0.99891734
0.29816434 -0.14123574 0.98976213
0.29891205 -0.13995303 0.98077315
0.30182663 -0.13970262 0.97901821
0.30498201 -0.13956803 0.97807509
0.30825073 -0.13948776 0.97751254
0.31180152 -0.13953549 0.97784698
0.31535473 -0.13958324 0.97818166
0.31891036 -0.13963102 0.97851652
0.32246843 -0.13967884 0.97885162
0.32602897 -0.1397267 0.97918701
0.32959193 -0.13977459 0.97952259
0.33315733 -0.1398225 0.9798584
0.33672518 -0.13987046 0.98019445
0.34029546 -0.13991845 0.98053074
0.37632924 -0.15317924 1.0734607
0.2894443 -0.1555517 1.1176838
0.29037327 -0.15395629 1.1062202
0.2912806 -0.15239184 1.0949792
0.2921724 -0.15086025 1.0839744
0.29304588 -0.14935885 1.0731864
0.29390213 -0.14788707 1.0626111
0.29474172 -0.14644399 1.0522423
0.29556501 -0.14502878 1.0420736
0.29637361 -0.14364119 1.0321033
0.29716998 -0.14228138 1.0223327
0.29794344 -0.1409433 1.0127182
0.2987012 -0.13962954 1.0032785
0.29945412 -0.1383443 0.99404365
0.30019328 -0.13708249 0.98497713
0.30134025 -0.13603359 0.97744054
0.3048884 -0.13608013 0.97777492
0.30843899 -0.1361267 0.97810954
0.31199199 -0.13617331 0.9784444
0.31554744 -0.13621993 0.97877944
0.31910533 -0.1362666 0.97911477
0.32266566 -0.1363133 0.97945029
0.32622844 -0.13636003 0.9797861
0.32979363 -0.13640679 0.98012209
0.3333613 -0.13645358 0.98045832
0.33693138 -0.1365004 0.98079473
0.34050396 -0.13654727 0.98113143
0.34407896 -0.13659416 0.98146838
0.38047504 -0.14953995 1.0744876
0.29086122 -0.15235588 1.1231551
0.29178002 -0.15078565 1.1115795
0.29268008 -0.14924745 1.1002401
0.293562 -0.14774035 1.0891298
0.2944251 -0.14626279 1.0782374
0.29526979 -0.14481385 1.0675559
0.29609939 -0.14339404 1.0570892
0.2969133 -0.14200202 1.0468273
0.29771152 -0.14063674 1.0367626
0.29849514 -0.13929774 1.0268916
0.29926875 -0.1379862 1.017223
0.30264434 -0.1378912 1.0165228
0.30075479 -0.13542759 0.99836117
0.30148435 -0.13418667 0.98921323
0.30220303 -0.13296933 0.98023915
0.30507466 -0.1327161 0.97837228
0.30862749 -0.13276154 0.97870731
0.31218272 -0.13280702 0.97904253
0.31574044 -0.13285252 0.97937804
0.31930056 -0.13289806 0.97971374
0.3228631 -0.13294363 0.98004967
0.32642817 -0.13298926 0.98038596
0.32999566 -0.1330349 0.98072243
0.33356553 -0.13308056 0.98105901
0.33713791 -0.13312626 0.9813959
0.34071273 -0.13317198 0.98173302
0.34428999 -0.13321774 0.98207033
0.38070846 -0.14584354 1.0751467
0.29320052 -0.14758416 1.1169912
0.29409036 -0.14607136 1.1055416
0.29496214 -0.14458929 1.0943245
0.29581642 -0.14313698 1.0833327
0.29665372 -0.14171356 1.0725595
0.29747349 -0.14031768 1.0619948
0.29827249 -0.13894682 1.0516194
0.29906267 -0.13760552 1.0414678
0.29983631 -0.13628922 1.0315055
0.3005929 -0.1349968 1.0217237
0.30412683 -0.13496752 1.0215021
0.30815506 -0.13515572 1.0229266
0.30279449 -0.13126928 0.99351197
0.30349857 -0.13007081 0.98444134
0.30526119 -0.12934797 0.97897047
0.30881622 -0.12939228 0.97930586
0.31237373 -0.12943663 0.97964156
0.31593367 -0.129481 0.97997743
0.31949607 -0.12952542 0.9803136
0.32306087 -0.12956987 0.98064995
0.32662815 -0.12961434 0.98098654
0.33019784 -0.12965885 0.98132336
0.33377004 -0.12970337 0.98166043
0.33734465 -0.12974794 0.98199767
0.34092173 -0.12979254 0.98233521
0.34450126 -0.12983716 0.98267293
0.38094214 -0.14214258 1.0758066
0.29463488 -0.14435132 1.1224556
0.29551426 -0.14286451 1.1108943
0.29637569 -0.14140801 1.0995688
0.29721978 -0.13998093 1.088472
0.29804698 -0.13858235 1.0775969
0.29885778 -0.13721144 1.0669369
0.29965276 -0.1358674 1.0564858
0.30043134 -0.13454901 1.0462341
0.30118978 -0.13325366 1.0361618
0.30194175 -0.13198651 1.0263085
0.30488145 -0.13169435 1.0240368
0.30874366 -0.13180284 1.0248804
0.31254584 -0.1318835 1.0255076
0.30480513 -0.12714729 0.98867941
0.30548859 -0.12599246 0.97969973
0.3090052 -0.12601888 0.97990507
0.31256494 -0.1260621 0.98024118
0.31612712 -0.12610535 0.98057747
0.31969175 -0.12614864 0.98091406
0.32325882 -0.12619194 0.98125082
0.32682833 -0.12623529 0.98158783
0.33040029 -0.12627865 0.98192501
0.33397472 -0.12632205 0.98226249
0.33755162 -0.12636548 0.98260021
0.34113097 -0.12640893 0.98293811
0.34471279 -0.12645243 0.98327631
0.34829706 -0.12649594 0.98361468
0.38510144 -0.13848476 1.076838
0.29608336 -0.14108671 1.1279738
0.29695204 -0.13962646 1.1162993
0.29780293 -0.13819613 1.1048639
0.29863653 -0.13679479 1.0936604
0.29945341 -0.1354216 1.0826819
0.30025405 -0.13407572 1.0719216
0.30103892 -0.13275629 1.061373
0.30180851 -0.1314626 1.05103
0.30256325 -0.13019387 1.0408868
0.30330279 -0.12894909 1.0309348
0.30530331 -0.12826352 1.0254537
0.309046 -0.12831734 1.025884
0.31274199 -0.12835076 1.0261512
0.30612329 -0.12419859 0.99295503
0.30679747 -0.12306565 0.98389727
0.30919439 -0.12264135 0.98050505
0.31275636 -0.12268344 0.98084152
0.31632081 -0.12272556 0.98117828
0.31988767 -0.1227677 0.98151523
0.323457 -0.12280988 0.98185241
0.32702878 -0.12285208 0.98218983
0.330603 -0.12289431 0.98252743
0.3341797 -0.12293658 0.98286533
0.33775887 -0.12297887 0.98320347
0.34134048 -0.12302119 0.98354179
0.3449246 -0.12306354 0.98388046
0.34851113 -0.12310592 0.98421925
0.38533822 -0.13477346 1.0775001
0.29840383 -0.13635671 1.1217568
0.29924393 -0.13495314 1.1102101
0.30006683 -0.13357814 1.0988984
0.30087316 -0.13223088 1.087815
0.30166337 -0.13091052 1.0769529
0.30243796 -0.12961628 1.0663056
0.30319741 -0.12834737 1.0558668
0.30394208 -0.12710306 1.0456303
0.3046701 -0.12588166 1.0355823
0.30548239 -0.12472358 1.0260552
0.30912384 -0.12473419 1.0261425
0.3127206 -0.12472671 1.026081
0.31626937 -0.12470049 1.0258653
0.30811754 -0.12011362 0.98813075
0.30938381 -0.11925969 0.98110574
0.31294805 -0.11930063 0.98144263
0.31651476 -0.11934163 0.98177987
0.32008389 -0.11938263 0.98211724
0.32365546 -0.11942367 0.98245484
0.3272295 -0.11946474 0.98279268
0.33080602 -0.11950584 0.98313075
0.33438495 -0.11954695 0.98346901
0.33796638 -0.11958811 0.98380756
0.34155026 -0.11962928 0.9841463
0.34513661 -0.11967049 0.98448527
0.34872544 -0.11971172 0.98482448
0.35231674 -0.11975298 0.98516393
0.38950831 -0.1311028 1.0785347
0.29986995 -0.13305488 1.1272682
0.30069891 -0.1316786 1.1156081
0.30151087 -0.1303305 1.1041868
0.30230647 -0.12900977 1.0929972
0.30308601 -0.1277155 1.0820318
0.30385011 -0.12644695 1.0712844
0.30459452 -0.12520142 1.0607321
0.30532899 -0.12398208 1.0504016
0.30604786 -0.12278567 1.0402653
0.3067514 -0.1216115 1.0303175
0.30899066 -0.12106651 1.0257003
0.31248218 -0.12101911 1.0252987
0.31591558 -0.12095054 1.0247178
0.30944908 -0.11713609 0.992401
0.31009272 -0.11606822 0.98335379
0.31313998 -0.1159137 0.98204458
0.31670889 -0.11595353 0.98238212
0.32028028 -0.1159934 0.9827199
0.32385415 -0.1160333 0.98305792
0.32743046 -0.11607323 0.98339617
0.33100918 -0.11611317 0.98373461
0.33459044 -0.11615315 0.98407334
0.3381741 -0.11619316 0.98441225
0.34176028 -0.11623318 0.9847514
0.34534889 -0.11627325 0.98509079
0.34894001 -0.11631334 0.98543048
0.35301551 -0.11651251 0.98711783
0.38974816 -0.1273811 1.0791988
0.30216813 -0.12837209 1.1210591
0.30296895 -0.1270515 1.1095265
0.30375144 -0.12575696 1.0982215
0.30451909 -0.12448893 1.087148
0.30527279 -0.12324678 1.0763004
0.3060104 -0.12202869 1.0656629
0.30673376 -0.12083451 1.0552343
0.30744314 -0.1196635 1.0450079
0.30813888 -0.11851495 1.0349778
0.30881676 -0.11738649 1.0251231
0.31199747 -0.11722448 1.0237083
0.31527737 -0.11710303 1.0226476
0.31079561 -0.11413398 0.9967193
0.31142625 -0.11308775 0.98758268
0.31333214 -0.11252259 0.98264718
0.31690332 -0.11256129 0.98298514
0.32047695 -0.11260001 0.98332328
0.32405305 -0.11263876 0.98366171
0.32763162 -0.11267754 0.98400038
0.33121264 -0.11271635 0.98433924
0.33479616 -0.11275518 0.98467839
0.3383821 -0.11279403 0.98501772
0.34197053 -0.11283292 0.98535728
0.34612438 -0.1130557 0.98730278
0.35046405 -0.11333414 0.98973441
0.35482553 -0.11361408 0.9921791
0.3899883 -0.12365483 1.0798638
0.30365139 -0.12503292 1.126562
0.30444008 -0.12374016 1.1149141
0.30521259 -0.12247384 1.1035043
0.30596948 -0.12123319 1.0923259
0.30671117 -0.12001742 1.0813717
0.30743816 -0.11882579 1.070635
0.30815083 -0.11765759 1.0601094
0.30884963 -0.11651214 1.0497887
0.30953497 -0.11538877 1.039667
0.31020913 -0.11428758 1.0297451
0.31115961 -0.11331245 1.0209591
0.31417865 -0.11310431 1.0190837
0.3121475 -0.11110334 1.0010548
0.31277055 -0.11008126 0.99184561
0.31352448 -0.10912731 0.98325044
0.31709793 -0.10916486 0.98358881
0.32067385 -0.10920244 0.98392743
0.32425222 -0.10924005 0.98426628
0.32783303 -0.10927768 0.98460531
0.33141634 -0.10931534 0.98494464
0.33500212 -0.10935302 0.98528415
0.33923066 -0.1095976 0.98748785
0.34355414 -0.10986757 0.98992032
0.34789899 -0.11013888 0.99236482
0.35226575 -0.11041165 0.99482256
0.30592644 -0.12039686 1.1203574
0.30668741 -0.1191588 1.1088367
0.30743289 -0.11794595 1.0975504
0.30816337 -0.11675756 1.0864917
0.30887926 -0.11559285 1.0756536
0.30958104 -0.11445118 1.0650296
0.31026909 -0.11333182 1.0546135
0.31093934 -0.11223254 1.044384
0.31160754 -0.11115824 1.0343871
0.31225815 -0.11010259 1.0245637
0.31289262 -0.10906543 1.0149124
0.31351727 -0.10804832 1.0054476
0.31412831 -0.10704931 0.99615127
0.3147313 -0.10606966 0.98703516
0.31729284 -0.10576428 0.98419338
0.32087103 -0.10580071 0.98453242
0.32445166 -0.10583717 0.98487169
0.32804823 -0.105878 0.98525161
0.3323344 -0.10613821 0.98767304
0.33664173 -0.10639971 0.99010646
0.34097031 -0.1066625 0.99255186
0.34532031 -0.1069266 0.99500936
0.34969231 -0.10719211 0.99748015
0.35408613 -0.10745898 0.99996346
0.30817661 -0.11581159 1.1142209
0.30891043 -0.11462715 1.1028253
0.30962941 -0.11346668 1.0916605
0.310334 -0.11232948 1.0807196
0.31102461 -0.11121485 1.0699958
0.3117016 -0.11012212 1.0594826
0.31236812 -0.10905159 1.049183
0.31301937 -0.10800083 1.0390737
0.31365854 -0.10697025 1.0291585
0.31427997 -0.10595725 1.0194124
0.31489688 -0.10496563 1.0098721
0.31549937 -0.10399141 1.0004991
0.316091 -0.10303519 0.99129933
0.31748796 -0.1023595 0.98479861
0.32116544 -0.10242574 0.98543584
0.32543552 -0.10267752 0.98785824
0.3297267 -0.10293055 0.99029267
0.334039 -0.10318482 0.99273896
0.33837265 -0.10344034 0.99519736
0.34272787 -0.10369714 0.99766803
0.347105 -0.10395531 1.0001518
0.35150421 -0.10421481 1.0026485
0.35592538 -0.10447561 1.0051576
0.30968028 -0.11243169 1.1196574
0.31040218 -0.11127626 1.108151
0.31110945 -0.11014434 1.0968786
0.31180251 -0.10903523 1.0858335
0.31248167 -0.10794821 1.0750084
0.31314531 -0.10688194 1.0643898
0.31380239 -0.10583868 1.0540005
0.31444308 -0.10481436 1.0437998
0.31507149 -0.10380968 1.0337946
0.31568798 -0.10282409 1.0239795
0.31629026 -0.10185619 1.0143406
0.3168819 -0.10090653 1.0048834
0.3174631 -0.099974565 0.99560237
0.31853408 -0.099215537 0.98804355
0.32280901 -0.099460073 0.99047881
0.32710505 -0.099705815 0.99292606
0.33142236 -0.09995278 0.99538541
0.33576116 -0.10020097 0.99785709
0.34012151 -0.10045039 1.0003409
0.34450385 -0.10070112 1.0028379
0.34890836 -0.10095318 1.005348
0.35333496 -0.1012065 1.0078707
0.35778388 -0.1014611 1.0104061
0.31190845 -0.10789286 1.1135284
0.31260371 -0.10679009 1.102147
0.3132849 -0.10570963 1.0909959
0.31395245 -0.10465082 1.0800682
0.31460682 -0.10361303 1.0693575
0.31525031 -0.10259625 1.0588638
0.31587982 -0.10159878 1.0485691
0.3164973 -0.10062053 1.0384729
0.31710294 -0.099660926 1.0285691
0.31769571 -0.098719001 1.0188478
0.31827664 -0.097794496 1.0093063
0.31884745 -0.096887343 0.99994385
0.32016852 -0.096225508 0.99311328
0.32446948 -0.096463896 0.99557358
0.32879177 -0.096703462 0.9980461
0.33313558 -0.09694422 1.0005308
0.33750108 -0.097186178 1.003028
0.3418887 -0.097429417 1.0055385
0.34629852 -0.097673945 1.0080621
0.35073054 -0.097919695 1.0105984
0.35518497 -0.098166704 1.0131477
0.35966185 -0.098414935 1.0157096
0.31411242 -0.10340346 1.1074662
0.31478152 -0.10235227 1.0962077
0.31543821 -0.10132258 1.0851796
0.31608117 -0.10031318 1.0743688
0.31671163 -0.099323772 1.0637721
0.31732979 -0.098353684 1.0533823
0.31793603 -0.097402364 1.0431936
0.31853062 -0.096469276 1.0332
0.31911394 -0.09555389 1.0233961
0.31968373 -0.094654962 1.0137684
0.32024384 -0.09377306 1.0043231
0.32181978 -0.09320464 0.99823529
0.32614705 -0.093436725 1.000721
0.33049595 -0.093669973 1.0032191
0.33486661 -0.093904398 1.0057298
0.33925942 -0.094140053 1.0082537
0.34367457 -0.094376951 1.0107909
0.34811199 -0.094615057 1.0133411
0.35257187 -0.094854362 1.0159041
0.35705441 -0.095094889 1.0184802
0.31629246 -0.098962672 1.1014695
0.31693667 -0.097962245 1.0903347
0.31756788 -0.096981809 1.0794222
0.31818661 -0.09602081 1.0687262
0.31879312 -0.095078655 1.0582398
0.31938788 -0.094154805 1.0479573
0.3199712 -0.093248755 1.0378728
0.32054341 -0.092359968 1.0279804
0.32110348 -0.091487586 1.0182707
0.32165259 -0.090631388 1.0087411
0.32348812 -0.090152428 1.0034102
0.32784209 -0.090378091 1.0059218
0.3322179 -0.090604886 1.0084461
0.33661592 -0.090832867 1.0109836
0.34103638 -0.091062069 1.0135347
0.34547919 -0.091292433 1.0160986
0.34994456 -0.09152396 1.0186756
0.31781802 -0.095540382 1.1067822
0.31844971 -0.094569914 1.0955398
0.3190687 -0.093618959 1.0845236
0.31967533 -0.092686929 1.0737265
0.32027 -0.091773272 1.0631423
0.32085308 -0.090877466 1.0527649
0.3214249 -0.089998968 1.042588
0.32198575 -0.089137301 1.032606
0.32253596 -0.088291965 1.0228133
0.3230738 -0.087461971 1.0131983
0.32517388 -0.087068424 1.0086392
0.32955486 -0.087287508 1.0111772
0.33395809 -0.087507732 1.0137284
0.33838382 -0.087729141 1.0162933
0.34283206 -0.087951683 1.0188713
0.32117805 -0.089321703 1.0787739
0.32176065 -0.08843714 1.0680906
0.32233176 -0.0875699 1.0576166
0.32289183 -0.08671952 1.0473462
0.32344109 -0.085885487 1.0372733
0.32397988 -0.085067347 1.0273923
0.32450765 -0.084264413 1.017695
0.32687736 -0.083952107 1.013923
0.33128572 -0.084164478 1.016488
0.33571678 -0.084378012 1.0190669
0.32543683 -0.08181373 1.0320125
0.32595402 -0.081038296 1.022231
0.32859877 -0.080802977 1.0192627
