# .PCD v0.7 - Point Cloud Data file format
VERSION 0.7
FIELDS x y z
SIZE 4 4 4
TYPE F F F
COUNT 1 1 1
WIDTH 527
HEIGHT 1
VIEWPOINT 0 0 0 1 0 0 0
POINTS 527
DATA ascii
0.10467385 -0.27317321 1.4491909
0.10960126 -0.27272871 1.4468328
0.11451278 -0.27228594 1.4444839
0.11940826 -0.27184433 1.4421412
0.1242879 -0.27140418 1.4398061
0.12915176 -0.27096546 1.4374787
0.13599353 -0.27455297 1.4565105
0.094814815 -0.26906908 1.4546072
0.099776804 -0.26862985 1.4522328
0.10472261 -0.26819205 1.4498661
0.10965232 -0.26775566 1.4475068
0.11456601 -0.26732069 1.4451554
0.11946368 -0.26688695 1.4428105
0.12434548 -0.26645461 1.4404732
0.12921149 -0.26602367 1.4381435
0.1340618 -0.26559412 1.4358214
0.13889647 -0.26516598 1.4335068
0.14371552 -0.2647391 1.4311991
0.1494998 -0.26605898 1.4383345
0.15610638 -0.26870769 1.4526536
0.089878656 -0.26450005 1.4576719
0.094859153 -0.26406738 1.4552875
0.099823385 -0.26363611 1.4529108
0.10477142 -0.26320624 1.4505417
0.10970334 -0.26277775 1.4481803
0.11461907 -0.26235032 1.4458246
0.11951914 -0.26192492 1.4434804
0.12440313 -0.26150045 1.441141
0.12927128 -0.26107731 1.438809
0.13412374 -0.26065555 1.4364848
0.13896048 -0.26023507 1.4341675
0.14378168 -0.25981602 1.4318581
0.14858739 -0.25939834 1.4295561
0.15507852 -0.26185387 1.4430888
0.16176285 -0.26446944 1.4575032
0.084921658 -0.25991175 1.4607496
0.089920774 -0.25948566 1.4583549
0.094903529 -0.25906098 1.4559683
0.099870004 -0.2586377 1.4535893
0.10482027 -0.25821579 1.4512181
0.10975441 -0.25779524 1.4488546
0.11467239 -0.25737581 1.4464972
0.11957453 -0.25695804 1.4441493
0.12446082 -0.25654167 1.4418093
0.12933114 -0.2561264 1.4394753
0.13418543 -0.25571185 1.4371456
0.13902472 -0.25529996 1.4348305
0.14384761 -0.25488788 1.4325147
0.14865561 -0.25447825 1.4302124
0.15406407 -0.2550897 1.4336489
0.16069421 -0.25762087 1.4478745
0.16745798 -0.26020393 1.4623919
0.074909277 -0.25572476 1.4662528
0.079943679 -0.25530401 1.4638402
0.084961526 -0.25488457 1.4614354
0.089962922 -0.25446656 1.4590386
0.094947949 -0.2540499 1.4566497
0.099916667 -0.2536346 1.4542685
0.10486917 -0.25322068 1.4518951
0.10980553 -0.25280809 1.4495294
0.11472583 -0.25239682 1.4471713
0.11962992 -0.25198644 1.4448183
0.12451838 -0.25157794 1.4424762
0.12939104 -0.25117084 1.4401419
0.13424723 -0.25076368 1.4378074
0.13908882 -0.25035989 1.4354922
0.14391379 -0.24995553 1.4331737
0.14872387 -0.24955362 1.4308692
0.15351851 -0.249153 1.4285722
0.15963958 -0.25086221 1.4383723
0.1663478 -0.25336051 1.4526968
0.069891244 -0.25109076 1.4693669
0.074944586 -0.25067672 1.466944
0.07998129 -0.25026402 1.4645289
0.085001446 -0.24985273 1.4621221
0.090005122 -0.24944277 1.459723
0.094992399 -0.24903414 1.4573317
0.099963382 -0.24862687 1.4549484
0.10491811 -0.24822091 1.4525727
0.10985669 -0.24781625 1.4502047
0.1147792 -0.24741293 1.4478445
0.11968529 -0.24701008 1.445487
0.12512465 -0.24769571 1.4494994
0.13126729 -0.24966525 1.4610249
0.13750485 -0.25165981 1.4726969
0.14398001 -0.24501862 1.4338331
0.14879221 -0.24462448 1.4315267
0.15358895 -0.24423161 1.4292276
0.15859872 -0.24419168 1.4289939
0.16525225 -0.2466072 1.4431294
0.17203952 -0.24907215 1.4575541
0.064851835 -0.24643698 1.472494
0.06992425 -0.24602976 1.4700608
0.074979924 -0.24562389 1.4676356
0.080018945 -0.24521933 1.4652184
0.085041389 -0.24481612 1.4628092
0.090047352 -0.24441424 1.4604079
0.095036909 -0.24401368 1.4580145
0.10001013 -0.24361441 1.4556288
0.10496711 -0.24321647 1.453251
0.10990791 -0.2428198 1.4508809
0.11483262 -0.24242441 1.4485184
0.11989176 -0.2423344 1.4479805
0.12603766 -0.24435873 1.4600762
0.13228895 -0.24642061 1.4723961
0.1488609 -0.23969129 1.4321876
0.15365942 -0.23930565 1.4298834
0.15844285 -0.23892176 1.4275895
0.16417101 -0.23994225 1.4336871
0.1709027 -0.24232472 1.4479227
0.054682434 -0.24216507 1.4780864
0.059790943 -0.24176337 1.4756346
0.064882532 -0.24136303 1.473191
0.069957294 -0.24096401 1.4707556
0.075015299 -0.24056631 1.4683281
0.08005663 -0.24016988 1.4659085
0.085081384 -0.23977479 1.463497
0.090089627 -0.239381 1.4610934
0.095081441 -0.23898849 1.4586977
0.10005661 -0.23859654 1.4563054
0.10501564 -0.23820622 1.453923
0.10995875 -0.23781775 1.4515519
0.1148857 -0.23743042 1.4491879
0.12025453 -0.23795046 1.4523619
0.12645097 -0.23999877 1.4648641
0.13275521 -0.24208301 1.4775856
0.1489291 -0.23475266 1.4328437
0.15373005 -0.23437531 1.4305406
0.15851551 -0.23399909 1.4282442
0.16328566 -0.2336241 1.4259554
0.16978081 -0.23566589 1.4384178
0.17659083 -0.23801371 1.4527481
0.049580507 -0.23746453 1.4812509
0.054708414 -0.2370698 1.4787886
0.0598193 -0.23667637 1.4763345
0.064913258 -0.23628427 1.4738886
0.069990285 -0.23589318 1.4714491
0.075050548 -0.23550344 1.469018
0.080094196 -0.23511522 1.4665964
0.085121214 -0.2347282 1.4641823
0.090131655 -0.23434229 1.4617751
0.095125645 -0.23395766 1.4593759
0.10010332 -0.23357441 1.4569851
0.10506471 -0.23319241 1.4546024
0.11000991 -0.23281167 1.4522274
0.11493897 -0.23243214 1.44986
0.1202434 -0.23281169 1.4522275
0.12646057 -0.23485534 1.4649754
0.13279057 -0.23694001 1.4779791
0.14899801 -0.22981048 1.4335066
0.15380067 -0.22944035 1.4311978
0.15858838 -0.22907211 1.4289008
0.16336048 -0.22870466 1.4266088
0.16989169 -0.2307484 1.4393572
0.17660798 -0.23291777 1.4528892
0.044456668 -0.23274374 1.4844284
0.049604081 -0.23235595 1.4819552
0.054734364 -0.23196945 1.47949
0.059847616 -0.23158425 1.4770333
0.064943902 -0.23120031 1.4745845
0.070023328 -0.23081763 1.4721438
0.07508596 -0.23043622 1.4697112
0.080131888 -0.23005606 1.4672866
0.085161194 -0.22967717 1.46487
0.090173975 -0.22929953 1.4624615
0.095170289 -0.22892313 1.4600607
0.10015023 -0.22854796 1.4576679
0.10511386 -0.228174 1.4552828
0.11006128 -0.22780126 1.4529055
0.11499275 -0.22743011 1.4505383
0.11990789 -0.2270596 1.4481753
0.12601432 -0.22888316 1.4598058
0.13234001 -0.23094629 1.4729644
0.1442463 -0.22522667 1.4364849
0.14906667 -0.22486329 1.4341673
0.15387166 -0.22450127 1.4318583
0.15866119 -0.22414042 1.4295568
0.16373533 -0.22419144 1.4298823
0.17034949 -0.22628516 1.4432359
0.17708816 -0.22841805 1.4568394
0.039310843 -0.22800289 1.4876212
0.044477899 -0.22762218 1.4851372
0.049627725 -0.22724275 1.4826616
0.054760411 -0.22686456 1.4801941
0.059876047 -0.22648765 1.4777349
0.064974703 -0.22611196 1.4752837
0.070056476 -0.22573754 1.4728408
0.075121462 -0.22536437 1.4704061
0.080169715 -0.22499242 1.4679792
0.085201323 -0.22462167 1.4655602
0.090216391 -0.22425218 1.4631494
0.095214978 -0.22388385 1.4607463
0.10019721 -0.22351685 1.4583517
0.10516316 -0.2231511 1.4559654
0.11011275 -0.22278626 1.4535849
0.11504622 -0.22242269 1.4512128
0.11996383 -0.22206071 1.448851
0.12486528 -0.22169958 1.4464948
0.1309837 -0.22344278 1.4578685
0.1374049 -0.22555146 1.4716266
0.13947418 -0.22062281 1.4394693
0.14431274 -0.2202668 1.4371465
0.14913535 -0.21991146 1.434828
0.15394244 -0.21955724 1.4325169
0.15873405 -0.21920417 1.4302133
0.16417365 -0.21974011 1.4337101
0.17080979 -0.22179779 1.4471356
0.17756985 -0.22389242 1.4608022
0.039329652 -0.22286803 1.488333
0.044499144 -0.22249572 1.4858466
0.049651392 -0.22212465 1.4833686
0.054786481 -0.2217548 1.4808987
0.059904501 -0.22138619 1.4784372
0.065005541 -0.22101882 1.4759839
0.070089668 -0.22065265 1.4735385
0.075156987 -0.22028771 1.4711014
0.080207564 -0.21992397 1.4686723
0.085241489 -0.21956141 1.4662511
0.090258904 -0.21920019 1.4638388
0.095259756 -0.21883997 1.4614333
0.10024419 -0.21848093 1.4590355
0.10521229 -0.21812303 1.4566455
0.11016414 -0.21776633 1.4542633
0.11510002 -0.21741115 1.4518914
0.12001967 -0.21705684 1.4495254
0.12492286 -0.21670294 1.4471619
0.12981074 -0.21635121 1.4448131
0.13468263 -0.21600044 1.4424706
0.1395389 -0.21565102 1.4401371
0.14437906 -0.21530211 1.4378071
0.14920411 -0.21495508 1.4354895
0.15401329 -0.21460867 1.4331763
0.15880699 -0.21426341 1.4308705
0.1646143 -0.21526486 1.4375583
0.17127225 -0.21728569 1.4510536
0.17805417 -0.21934208 1.4647864
0.039348479 -0.21772826 1.4890455
0.044520408 -0.21736434 1.4865566
0.049675081 -0.21700168 1.4840764
0.054812577 -0.21664017 1.4816041
0.059932988 -0.21627992 1.4791403
0.065036401 -0.21592085 1.4766846
0.07012289 -0.21556295 1.474237
0.075192548 -0.21520627 1.4717976
0.080245517 -0.2148509 1.4693673
0.085281685 -0.21449636 1.4669425
0.090301342 -0.21414319 1.4645271
0.095304459 -0.21379109 1.4621191
0.10029116 -0.21344015 1.4597191
0.1052615 -0.21309035 1.4573268
0.11021575 -0.21274203 1.4549446
0.1151537 -0.2123946 1.4525685
0.12007549 -0.21204822 1.4501996
0.12498107 -0.21170263 1.4478362
0.12987098 -0.21135865 1.4454837
0.13474505 -0.21101582 1.4431391
0.13960329 -0.21067406 1.4408017
0.1444457 -0.21033321 1.4384707
0.14927292 -0.20999409 1.4361515
0.15408419 -0.20965554 1.4338361
0.15888 -0.20931809 1.4315282
0.16505735 -0.21076553 1.4414274
0.17173627 -0.21274792 1.4549849
0.039367326 -0.21258356 1.4897586
0.044541694 -0.21222807 1.4872675
0.049698796 -0.21187381 1.4847848
0.054838702 -0.2115207 1.4823103
0.059961502 -0.21116877 1.479844
0.065067291 -0.21081802 1.477386
0.070156157 -0.21046847 1.4749364
0.075228095 -0.21011984 1.4724933
0.080283374 -0.20977268 1.4700603
0.085321888 -0.20942646 1.4676341
0.090343803 -0.20908138 1.4652158
0.0953492 -0.20873743 1.4628055
0.10033815 -0.20839462 1.4604031
0.10531089 -0.20805323 1.4580107
0.11026726 -0.20771274 1.4556246
0.11520738 -0.20737329 1.4532458
0.12013111 -0.20703447 1.4508713
0.1250392 -0.20669746 1.4485097
0.12993129 -0.20636146 1.446155
0.13480751 -0.20602657 1.4438081
0.13966794 -0.20569278 1.441469
0.14451261 -0.20536001 1.439137
0.14934173 -0.20502847 1.4368136
0.15415518 -0.20469786 1.4344966
0.15895307 -0.20436823 1.4321867
0.16550234 -0.20624138 1.4453135
0.1722028 -0.20818546 1.4589374
0.039386187 -0.20743392 1.4904724
0.044563007 -0.20708691 1.4879791
0.049722526 -0.20674102 1.4854938
0.05486485 -0.20639634 1.4830171
0.059990037 -0.20605274 1.4805483
0.065098196 -0.20571031 1.4780878
0.070189409 -0.20536903 1.4756355
0.075263724 -0.20502876 1.4731907
0.08032126 -0.20468967 1.4707541
0.085362092 -0.20435168 1.4683256
0.090386301 -0.20401481 1.4659051
0.095393978 -0.20367904 1.4634925
0.10038532 -0.20334461 1.4610896
0.10536022 -0.20301114 1.4586935
0.11031878 -0.20267868 1.4563047
0.11526112 -0.20234729 1.4539236
0.12018709 -0.20201659 1.4515474
0.12509741 -0.20168765 1.4491838
0.12999167 -0.20135963 1.4468269
0.13487005 -0.20103271 1.4444779
0.13973261 -0.20070684 1.4421364
0.14457943 -0.20038201 1.4398024
0.14941059 -0.20005824 1.437476
0.15422621 -0.19973558 1.4351577
0.15935013 -0.19982 1.4357642
0.16594894 -0.20169179 1.4492136
0.17267187 -0.20359817 1.4629115
0.034208413 -0.20261906 1.4936912
0.039405074 -0.20227937 1.4911871
0.044584334 -0.2019408 1.4886912
0.049746282 -0.20160335 1.4862036
0.054891024 -0.20126709 1.4837246
0.060018595 -0.20093182 1.481253
0.065129116 -0.20059769 1.4787898
0.070222653 -0.20026462 1.4763345
0.075299323 -0.19993269 1.4738876
0.080359191 -0.19960186 1.4714487
0.08540234 -0.19927213 1.4690179
0.090428852 -0.19894347 1.4665951
0.095438898 -0.19861609 1.4641817
0.10043243 -0.19828966 1.4617753
0.10540954 -0.19796427 1.4593765
0.11037034 -0.19763991 1.4569854
0.11531472 -0.1973163 1.4545997
0.12024322 -0.19699422 1.4522253
0.12515566 -0.19667317 1.4498587
0.13005209 -0.19635315 1.4474995
0.13493264 -0.19603421 1.4451482
0.13979734 -0.19571629 1.4428046
0.1446463 -0.19539939 1.4404684
0.14947958 -0.19508353 1.4381399
0.15429731 -0.19476873 1.4358193
0.15977791 -0.19528411 1.4396186
0.16639797 -0.1971176 1.4531349
0.17314352 -0.19898583 1.4669074
0.034224849 -0.19745106 1.494409
0.039423972 -0.19711985 1.4919022
0.04460568 -0.19678977 1.489404
0.04977005 -0.19646072 1.4869136
0.054917172 -0.19613275 1.4844314
0.060047142 -0.19580589 1.4819576
0.065160029 -0.19548009 1.4794917
0.07025595 -0.19515541 1.4770343
0.075334951 -0.19483177 1.4745849
0.080397151 -0.19450924 1.4721438
0.085442618 -0.19418776 1.4697107
0.090471499 -0.1938675 1.4672868
0.09548378 -0.1935482 1.4648702
0.10047955 -0.1932299 1.4624611
0.10545891 -0.19291264 1.4600599
0.11042195 -0.19259642 1.4576666
0.11536857 -0.19228095 1.455279
0.12029932 -0.19196701 1.4529029
0.12521397 -0.19165403 1.4505341
0.13011259 -0.19134204 1.4481728
0.1349953 -0.19103107 1.4458193
0.13986216 -0.19072112 1.4434735
0.14471324 -0.19041216 1.441135
0.14954865 -0.19010422 1.4388044
0.15468404 -0.19018529 1.439418
0.1612919 -0.19201417 1.4532598
0.16802809 -0.19387856 1.4673705
0.034241296 -0.19227804 1.4951271
0.039442871 -0.19195531 1.4926175
0.044627011 -0.19163364 1.4901162
0.04979381 -0.19131306 1.4876235
0.054943345 -0.19099353 1.4851389
0.060075708 -0.19067506 1.4826626
0.065190978 -0.19035767 1.4801944
0.070289262 -0.19004133 1.4777347
0.075370625 -0.18972605 1.4752831
0.080435149 -0.1894118 1.4728396
0.085482985 -0.18909873 1.4704051
0.090514138 -0.18878664 1.4679784
0.095528677 -0.1884755 1.465559
0.10052671 -0.18816538 1.4631475
0.10550832 -0.18785629 1.460744
0.11047352 -0.18754807 1.4583474
0.11542256 -0.18724105 1.45596
0.12035549 -0.18693513 1.4535812
0.12527232 -0.18663019 1.4512101
0.13017312 -0.18632624 1.4488466
0.135058 -0.18602328 1.4464909
0.13992703 -0.18572132 1.4441429
0.14478025 -0.18542032 1.4418024
0.15064861 -0.18639573 1.4493871
0.15726362 -0.18820073 1.4634224
0.039461773 -0.18678573 1.4933327
0.04464836 -0.18647256 1.4908291
0.049817592 -0.18616048 1.4883339
0.054969538 -0.1858494 1.4858469
0.060104303 -0.18553936 1.4833683
0.065221965 -0.18523037 1.4808979
0.07032261 -0.18492243 1.4784359
0.07540632 -0.18461548 1.4759818
0.080473222 -0.18430965 1.4735367
0.085523359 -0.18400481 1.4710996
0.090556785 -0.18370092 1.46867
0.095573604 -0.18339801 1.4662483
0.10057391 -0.1830961 1.4638345
0.10555778 -0.1827952 1.4614289
0.11052524 -0.18249516 1.4590302
0.11547655 -0.18219633 1.4566411
0.12041169 -0.1818985 1.45426
0.12533073 -0.18160167 1.4518868
0.13023372 -0.18130577 1.4495211
0.13512078 -0.18101084 1.4471632
0.14006318 -0.18080884 1.4455482
0.14655691 -0.18255335 1.4594954
0.15317862 -0.18433359 1.4737282
0.039480694 -0.1816112 1.4940488
0.044669732 -0.18130656 1.4915427
0.049841393 -0.18100296 1.489045
0.05499576 -0.18070036 1.4865557
0.060132932 -0.18039879 1.4840748
0.065252975 -0.18009822 1.4816021
0.070355996 -0.17979865 1.4791377
0.075442068 -0.1795001 1.4766816
0.080511317 -0.1792026 1.4742342
0.085563742 -0.17890601 1.4717942
0.09059947 -0.17861038 1.4693623
0.095618583 -0.17831573 1.4669383
0.10062117 -0.17802207 1.4645224
0.10560729 -0.17772934 1.4621142
0.11057705 -0.17743759 1.4597141
0.11553061 -0.17714693 1.457323
0.12046796 -0.17685722 1.4549396
0.12538919 -0.17656845 1.452564
0.13029438 -0.17628063 1.4501963
0.13590875 -0.1769378 1.4556025
0.14240776 -0.17865701 1.4697459
0.14903568 -0.18041161 1.4841802
0.044691119 -0.1761356 1.4922569
0.04986522 -0.17584051 1.4897568
0.055022012 -0.17554642 1.4872652
0.060161579 -0.1752533 1.4847819
0.065284014 -0.17496116 1.4823068
0.07038942 -0.17467004 1.4798404
0.075477861 -0.17437989 1.4773822
0.080549404 -0.17409065 1.4749317
0.085604161 -0.17380239 1.4724895
0.090642199 -0.17351507 1.4700552
0.0956636 -0.17322868 1.467629
0.10066846 -0.17294325 1.4652107
0.10565682 -0.1726587 1.4627999
0.11062891 -0.17237528 1.4603987
0.1155847 -0.17209278 1.4580053
0.12052427 -0.17181119 1.4556197
0.12544771 -0.17153054 1.4532419
0.13169611 -0.17301254 1.4657977
0.1381999 -0.17470552 1.480141
0.044712536 -0.1709597 1.4929719
0.049889073 -0.17067313 1.4904695
0.055048287 -0.17038755 1.4879755
0.06019026 -0.17010291 1.4854897
0.065315105 -0.16981928 1.4830128
0.070422865 -0.16953653 1.4805436
0.075513653 -0.16925475 1.4780828
0.080587536 -0.16897386 1.4756299
0.08564461 -0.16869393 1.4731853
0.090684965 -0.16841494 1.4707488
0.095708661 -0.16813684 1.4683203
0.10071576 -0.16785961 1.4658992
0.10570648 -0.16758344 1.4634874
0.11068081 -0.16730821 1.4610839
0.11563885 -0.1670339 1.4586884
0.12104193 -0.16739841 1.4618716
0.12742403 -0.16903189 1.4761366
0.1339321 -0.17069776 1.4906845
0.14275055 -0.17507142 1.5288792
0.049912944 -0.16550082 1.4911827
0.055074584 -0.16522375 1.4886863
0.060218982 -0.16494764 1.4861985
0.065346196 -0.16467242 1.4837188
0.070456333 -0.16439812 1.4812472
0.075549476 -0.16412473 1.478784
0.080625705 -0.16385224 1.4763288
0.085685104 -0.16358066 1.4738818
0.090727761 -0.16330998 1.4714429
0.095753759 -0.16304019 1.4690121
0.10076318 -0.16277128 1.4665893
0.10575618 -0.16250339 1.4641756
0.11073278 -0.16223639 1.4617698
0.11670644 -0.16338901 1.4721551
0.12309128 -0.16499469 1.4866225
0.12960364 -0.16663325 1.501386
0.13624978 -0.16830854 1.5164807
0.14303093 -0.17001788 1.531882
0.055100899 -0.160055 1.4893976
0.060247697 -0.15978737 1.4869072
0.065377317 -0.15952066 1.4844253
0.070489831 -0.15925479 1.4819514
0.075585328 -0.15898983 1.4794858
0.080663912 -0.15872575 1.4770284
0.085725635 -0.15846254 1.474579
0.09077061 -0.1582002 1.4721378
0.095798887 -0.1579387 1.4697044
0.10081067 -0.15767823 1.4672805
0.10604651 -0.1577765 1.4681951
0.11230951 -0.1593228 1.4825841
0.11869729 -0.16090077 1.4972681
0.12521352 -0.16251116 1.5122535
0.13186309 -0.16415609 1.5275606
0.065408461 -0.15436397 1.4851325
0.070523359 -0.15410659 1.4826562
0.075621225 -0.15385008 1.4801883
0.080702148 -0.1535944 1.4777285
0.085766204 -0.15333958 1.4752768
0.090813488 -0.1530856 1.4728333
0.095844127 -0.15283252 1.4703984
0.10158618 -0.15368167 1.478568
0.1078508 -0.15519993 1.4931753
0.11424077 -0.15674897 1.5080785
0.12075958 -0.15832923 1.5232822
0.12741184 -0.15994252 1.5388036
0.090920798 -0.14807102 1.4745736
0.097063445 -0.14953017 1.4891047
