# .PCD v0.7 - Point Cloud Data file format
VERSION 0.7
FIELDS x y z
SIZE 4 4 4
TYPE F F F
COUNT 1 1 1
WIDTH 505
HEIGHT 1
VIEWPOINT 0 0 0 1 0 0 0
POINTS 505
DATA ascii
0.36608493 -0.19152787 1.3761829
0.36072159 -0.18641317 1.3742228
0.36427978 -0.18575856 1.369397
0.36781305 -0.18510854 1.3646051
0.37132168 -0.18446304 1.3598465
0.37480596 -0.18382202 1.355121
0.35537353 -0.18131302 1.3722682
0.35894543 -0.18067724 1.3674562
0.36249235 -0.18004586 1.3626777
0.36601457 -0.17941891 1.3579326
0.36951238 -0.17879631 1.3532205
0.37298623 -0.17817813 1.3485417
0.37918302 -0.17885992 1.3537018
0.34642896 -0.17684835 1.3751479
0.35004061 -0.17622733 1.370319
0.35362616 -0.17561027 1.3655208
0.35718665 -0.17499748 1.3607558
0.36072236 -0.17438896 1.356024
0.36423358 -0.17378466 1.351325
0.36772096 -0.17318472 1.34666
0.3711845 -0.17258896 1.3420275
0.37831521 -0.17369188 1.3506037
0.34109756 -0.17175834 1.3731904
0.34472275 -0.17115605 1.3683751
0.34832191 -0.17055763 1.3635908
0.3518959 -0.16996333 1.3588394
0.35544503 -0.16937312 1.3541209
0.35896963 -0.16878705 1.3494352
0.36247045 -0.16820523 1.3447837
0.36594713 -0.16762739 1.3401638
0.36940005 -0.16705352 1.3355758
0.37745136 -0.16854747 1.3475198
0.38571277 -0.17009693 1.3599076
0.34321687 -0.17805988 1.4648334
0.34714505 -0.17742969 1.4596491
0.35104552 -0.17680395 1.4545014
0.33578128 -0.16668279 1.3712384
0.33941996 -0.16609913 1.3664367
0.34303269 -0.16551927 1.3616664
0.34661999 -0.16494331 1.3569282
0.35018247 -0.16437137 1.352223
0.35372049 -0.16380344 1.347551
0.35723442 -0.16323957 1.3429122
0.36072433 -0.1626796 1.3383055
0.36419028 -0.16212341 1.33373
0.36850527 -0.16195454 1.3323407
0.3765915 -0.1634265 1.34445
0.38482603 -0.16492544 1.3567812
0.33359939 -0.1732648 1.467935
0.33756998 -0.17265029 1.4627287
0.3415125 -0.17204012 1.4575592
0.34542719 -0.17143422 1.452426
0.33048013 -0.16162166 1.3692919
0.33413222 -0.16105653 1.364504
0.33775836 -0.1604951 1.3597474
0.34135896 -0.15993741 1.3550225
0.34493464 -0.15938359 1.3503305
0.34848601 -0.15883376 1.3456721
0.35201305 -0.15828775 1.3410462
0.35551593 -0.15774548 1.336452
0.35899487 -0.15720691 1.3318892
0.36245021 -0.15667203 1.3273575
0.36767513 -0.15690595 1.3293394
0.37573549 -0.15832879 1.3413939
0.38394329 -0.15977764 1.3536689
0.32394201 -0.16844985 1.4710537
0.32795468 -0.16785082 1.4658225
0.33193943 -0.1672563 1.4606305
0.33589602 -0.16666596 1.4554752
0.32150283 -0.15712544 1.372159
0.32519397 -0.15657488 1.3673509
0.32885936 -0.15602817 1.3625765
0.33249885 -0.15548506 1.3578337
0.33611268 -0.15494555 1.3531222
0.3397015 -0.15440977 1.3484433
0.34326604 -0.15387787 1.3437983
0.34680611 -0.15334964 1.3391852
0.35032198 -0.15282503 1.3346039
0.35381389 -0.15230398 1.3300537
0.35728204 -0.15178649 1.3255345
0.36125195 -0.15149276 1.3229693
0.3668488 -0.15188009 1.3263518
0.37488335 -0.15325421 1.3383518
0.38306463 -0.15465342 1.350571
0.39139664 -0.15607843 1.3630154
0.31829971 -0.16303156 1.4689344
0.32232803 -0.16245332 1.4637244
0.32632488 -0.16187769 1.4585379
0.33118924 -0.16174358 1.4573295
0.31621838 -0.15207449 1.3702098
0.3199228 -0.15154238 1.3654155
0.32360139 -0.15101399 1.3606546
0.32725412 -0.15048912 1.3559254
0.33088106 -0.14996767 1.3512272
0.334483 -0.14944986 1.3465616
0.33806059 -0.14893578 1.3419297
0.34161362 -0.14842522 1.3373295
0.34514233 -0.14791815 1.3327607
0.34864706 -0.14741452 1.328223
0.35212764 -0.14691418 1.3237149
0.35655716 -0.14681765 1.3228451
0.36176482 -0.14703989 1.3248475
0.36698824 -0.1472628 1.3268559
0.37403512 -0.1482026 1.3353236
0.38218993 -0.14955258 1.3474871
0.39049473 -0.15092741 1.3598745
0.31267366 -0.15762886 1.4668212
0.31671607 -0.15707058 1.4616261
0.3214131 -0.15684959 1.4595697
0.3268888 -0.15700957 1.4610584
0.31094891 -0.14703786 1.3682662
0.31466654 -0.1465241 1.3634855
0.31835827 -0.14601395 1.3587381
0.32202414 -0.1455072 1.3540226
0.32566407 -0.14500371 1.3493373
0.32927915 -0.1445038 1.3446854
0.33286962 -0.14400741 1.3400663
0.3364355 -0.14351444 1.3354789
0.339977 -0.1430248 1.3309226
0.34349415 -0.14253838 1.3263962
0.34698725 -0.14205517 1.3218997
0.35186327 -0.14214344 1.322721
0.35706335 -0.1423586 1.3247231
0.36227915 -0.14257437 1.3267311
0.3675108 -0.14279082 1.3287452
0.37319058 -0.14317374 1.3323085
0.38131928 -0.144475 1.3444175
0.38959697 -0.1458001 1.3567481
0.39802796 -0.14714973 1.3693072
0.30297834 -0.15278395 1.4699311
0.30706304 -0.15224135 1.4647107
0.31112 -0.15170313 1.4595326
0.31557527 -0.15137351 1.4563613
0.32178891 -0.15188436 1.4612762
0.3056944 -0.14201552 1.3663282
0.30942512 -0.14152002 1.3615611
0.31312984 -0.14102794 1.3568268
0.31680882 -0.14053926 1.3521252
0.32046169 -0.14005363 1.347453
0.32408974 -0.13957149 1.3428143
0.32769302 -0.13909271 1.3382081
0.33127168 -0.13861723 1.3336334
0.33482558 -0.13814482 1.3290883
0.33835518 -0.13767557 1.3245736
0.34199351 -0.1372627 1.3206015
0.34717026 -0.1374701 1.3225969
0.35236272 -0.13767815 1.3245986
0.35757098 -0.13788685 1.3266064
0.36279497 -0.13809615 1.3286201
0.36803487 -0.1383061 1.33064
0.37329069 -0.13851666 1.3326659
0.38045245 -0.13942046 1.3413613
0.38870335 -0.1406963 1.3536361
0.3971065 -0.14199565 1.3661371
0.30146918 -0.1468696 1.4626093
0.30553961 -0.14635091 1.4574438
0.30958143 -0.14583588 1.4523149
0.2966848 -0.13748808 1.3691828
0.30045474 -0.13700737 1.3643956
0.30419841 -0.13653 1.3596418
0.3079161 -0.13605596 1.354921
0.31160808 -0.13558519 1.3502328
0.31527385 -0.13511737 1.3455739
0.31891474 -0.1346529 1.3409485
0.32253078 -0.13419165 1.3363551
0.32612175 -0.13373338 1.3317914
0.32968813 -0.13327818 1.3272583
0.33323035 -0.13282607 1.3227561
0.33730891 -0.1325973 1.3204777
0.34247816 -0.13279764 1.3224729
0.34766304 -0.13299862 1.3244742
0.35286364 -0.13320018 1.3264816
0.35808 -0.13340235 1.3284949
0.36331224 -0.13360515 1.3305144
0.36856043 -0.13380855 1.3325402
0.3738246 -0.13401258 1.334572
0.37958959 -0.13438885 1.3383191
0.38781372 -0.13561584 1.350538
0.39618936 -0.13686542 1.362982
0.40472072 -0.1381382 1.3756572
0.29589024 -0.14151272 1.4605085
0.29997456 -0.14101368 1.4553579
0.30403009 -0.14051811 1.4502434
0.29144698 -0.1324759 1.3672422
0.29522991 -0.13201338 1.3624686
0.29898649 -0.13155405 1.3577281
0.30271706 -0.13109794 1.3530207
0.30642179 -0.13064495 1.3483455
0.31010047 -0.13019484 1.3437002
0.31375414 -0.12974794 1.3390878
0.31738243 -0.12930396 1.3345056
0.32098588 -0.12886295 1.329954
0.32456484 -0.12842494 1.3254335
0.32860646 -0.12817982 1.3229038
0.33282885 -0.12801109 1.3211623
0.33778691 -0.12812607 1.322349
0.3429642 -0.12831995 1.3243499
0.3481572 -0.12851439 1.3263568
0.35336593 -0.12870944 1.3283697
0.35859051 -0.12890509 1.3303889
0.36383098 -0.12910132 1.3324142
0.36908746 -0.12929817 1.3344457
0.37436 -0.12949559 1.3364834
0.37964866 -0.12969364 1.3385273
0.38692814 -0.13055858 1.3474541
0.39527634 -0.13175878 1.359841
0.40377948 -0.13298126 1.3724579
0.29442537 -0.13569169 1.4532778
0.29849461 -0.13521551 1.4481778
0.3025347 -0.13474235 1.4431102
0.29110092 -0.12750702 1.3656187
0.29378921 -0.1265921 1.3558198
0.2975325 -0.12615378 1.3511254
0.30124998 -0.12571849 1.3464634
0.30494151 -0.12528604 1.3418318
0.30860749 -0.12485646 1.3372309
0.31250584 -0.12453241 1.3337603
0.31678423 -0.12436714 1.3319902
0.32105121 -0.1242023 1.3302248
0.32530695 -0.1240379 1.328464
0.32955143 -0.12387393 1.326708
0.3337847 -0.12371041 1.3249565
0.33826622 -0.12364213 1.3242253
0.34345165 -0.12382951 1.3262321
0.34865272 -0.12401741 1.3282446
0.35386965 -0.1242059 1.3302634
0.35910246 -0.12439497 1.3322883
0.36435124 -0.12458462 1.3343195
0.36961603 -0.12477484 1.3363568
0.37489691 -0.12496564 1.3384002
0.38019398 -0.12515703 1.34045
0.38604659 -0.12552434 1.3443841
0.39436749 -0.12667562 1.3567144
0.40284252 -0.12784822 1.3692732
0.41147584 -0.12904271 1.3820664
0.29297489 -0.12992799 1.4461182
0.2970275 -0.12947352 1.4410599
0.30105367 -0.129023 1.4360456
0.30505124 -0.12857531 1.4310627
0.29533798 -0.12245721 1.3629674
0.29747814 -0.12137108 1.3508786
0.30047441 -0.12066295 1.342997
0.30479842 -0.1205017 1.3412023
0.30911094 -0.1203409 1.3394125
0.31341192 -0.12018051 1.3376273
0.31770146 -0.12002055 1.3358469
0.32197958 -0.11986101 1.3340713
0.32624635 -0.1197019 1.3323003
0.33050182 -0.11954321 1.3305341
0.33474606 -0.11938495 1.3287727
0.33897898 -0.1192271 1.3270156
0.34394041 -0.11932626 1.3281194
0.34914973 -0.11950763 1.330138
0.35437486 -0.11968952 1.3321625
0.35961589 -0.11987196 1.3341931
0.36487299 -0.12005498 1.3362302
0.3701461 -0.12023854 1.3382732
0.37543538 -0.12042267 1.3403226
0.38074094 -0.12060738 1.3423784
0.38606271 -0.12079262 1.3444402
0.39346287 -0.1216158 1.3536023
0.40190986 -0.12273894 1.3661031
0.41051438 -0.12388304 1.378837
0.29153809 -0.12422057 1.4390262
0.29557699 -0.12378865 1.4340227
0.29958791 -0.12335972 1.4290538
0.30357113 -0.12293376 1.4241192
0.29742211 -0.11848523 1.3725855
0.29955864 -0.11742698 1.3603263
0.30165577 -0.11638687 1.3482771
0.30568704 -0.11611369 1.3451124
0.31001094 -0.11595829 1.3433123
0.31432322 -0.11580329 1.3415167
0.31862399 -0.11564871 1.339726
0.32291332 -0.11549455 1.3379401
0.3271912 -0.11534079 1.3361589
0.33145773 -0.11518744 1.3343824
0.33571291 -0.11503449 1.3326106
0.33995682 -0.11488196 1.3308436
0.34443057 -0.11481019 1.3300122
0.34964803 -0.11498492 1.3320364
0.35488144 -0.1151602 1.3340669
0.36013079 -0.115336 1.3361034
0.3653962 -0.11551235 1.3381463
0.37067768 -0.11568921 1.3401952
0.3759754 -0.11586663 1.3422505
0.38128942 -0.1160446 1.3443122
0.38661975 -0.11622311 1.3463801
0.39256236 -0.11657912 1.3505043
0.40098158 -0.11765327 1.3629477
0.40955737 -0.11874741 1.3756226
0.29060635 -0.11876956 1.4344273
0.29413992 -0.11815877 1.4270506
0.29813635 -0.11775133 1.4221298
0.30210534 -0.1173467 1.4172429
0.30604711 -0.11694483 1.4123894
0.30166844 -0.11342733 1.3699071
0.30376136 -0.11241563 1.3576883
0.30658051 -0.11169988 1.349044
0.31091607 -0.11155003 1.3472342
0.31523988 -0.11140056 1.3454289
0.31955197 -0.11125142 1.3436278
0.32385248 -0.11110268 1.3418313
0.32814154 -0.11095434 1.3400397
0.33241919 -0.1108064 1.338253
0.33668542 -0.11065884 1.336471
0.3409403 -0.11051168 1.3346937
0.34518388 -0.11036491 1.332921
0.35014784 -0.11044932 1.3339405
0.35538948 -0.11061792 1.3359767
0.36064711 -0.11078702 1.338019
0.36592087 -0.11095665 1.3400677
0.37121084 -0.11112681 1.3421228
0.376517 -0.11129748 1.344184
0.38183945 -0.11146867 1.3462515
0.38717833 -0.11164038 1.3483254
0.39253372 -0.11181264 1.3504058
0.40005749 -0.11259103 1.3598068
0.40860477 -0.11363565 1.3724231
0.29276448 -0.11456002 1.4450798
0.29505658 -0.11348329 1.4314978
0.29730594 -0.11242662 1.4181687
0.30065361 -0.11181333 1.4104326
0.30458149 -0.11143225 1.4056256
0.30380818 -0.10937095 1.3796239
0.30589658 -0.10838855 1.3672318
0.30794615 -0.10742308 1.3550532
0.31182626 -0.10711589 1.3511783
0.31616157 -0.10697196 1.3493627
0.32048529 -0.10682843 1.3475522
0.32479712 -0.10668519 1.3457453
0.32909745 -0.10654233 1.3439434
0.33338624 -0.10639986 1.3421462
0.33766353 -0.10625776 1.3403536
0.3419295 -0.10611605 1.3385661
0.34618405 -0.1059747 1.3367832
0.35064906 -0.10590072 1.3358499
0.35589898 -0.10606261 1.3378919
0.36116493 -0.10622498 1.3399402
0.36644706 -0.10638786 1.3419948
0.37174547 -0.10655124 1.3440558
0.37706012 -0.10671513 1.346123
0.38239115 -0.10687952 1.3481966
0.38773862 -0.1070444 1.3502765
0.39310262 -0.1072098 1.3523629
0.39913771 -0.10755207 1.3566804
0.40765667 -0.10854764 1.3692385
0.29724324 -0.10924324 1.4421067
0.29948866 -0.1082186 1.4285804
0.30169234 -0.10721298 1.4153054
0.30385536 -0.10622586 1.4022746
0.30701736 -0.10561397 1.3941971
0.30806202 -0.10430446 1.3769104
0.31010655 -0.10336885 1.3645595
0.31274182 -0.10265571 1.3551455
0.3170886 -0.10251737 1.3533193
0.32142374 -0.10237941 1.3514981
0.32574719 -0.10224182 1.3496817
0.33005887 -0.10210454 1.3478696
0.3343589 -0.10196761 1.3460619
0.33864743 -0.10183104 1.3442591
0.34292442 -0.10169483 1.342461
0.34719005 -0.10155899 1.3406678
0.35144424 -0.10142351 1.3388793
0.35640991 -0.10149421 1.3398126
0.36168429 -0.10164983 1.341867
0.3669748 -0.10180591 1.3439274
0.37228161 -0.10196248 1.3459942
0.37760481 -0.10211954 1.3480675
0.38294435 -0.10227706 1.350147
0.38830048 -0.1024351 1.3522332
0.39367315 -0.10259361 1.3543257
0.3990624 -0.1027526 1.3564245
0.40671292 -0.10348316 1.3660686
0.30170366 -0.10394832 1.439146
0.30390269 -0.10297529 1.4256747
0.306061 -0.10202033 1.4124534
0.30817953 -0.10108288 1.3994746
0.31025833 -0.10016214 1.3867271
0.31229749 -0.099257343 1.3742003
0.31430012 -0.098368742 1.3618978
0.31802109 -0.09803658 1.3572991
0.3223677 -0.097904265 1.3554672
0.32670256 -0.0977723 1.3536402
0.33102572 -0.097640686 1.351818
0.33533728 -0.097509429 1.3500007
0.33963701 -0.097378448 1.3481873
0.34392521 -0.097247817 1.3463788
0.34820187 -0.097117528 1.3445749
0.35246712 -0.09698759 1.3427761
0.35692236 -0.09691269 1.3417391
0.36220506 -0.097061485 1.3437991
0.36750406 -0.09721075 1.3458656
0.37281933 -0.097360469 1.3479384
0.37815103 -0.097510643 1.3500175
0.38349921 -0.097661287 1.3521032
0.38886392 -0.097812399 1.3541954
0.39424527 -0.097963974 1.3562939
0.3996433 -0.098116018 1.3583989
0.30395162 -0.099614397 1.449869
0.30614573 -0.098675072 1.4361973
0.30829859 -0.097753212 1.4227798
0.31041089 -0.09684819 1.4096074
0.31248435 -0.09595976 1.3966764
0.31451958 -0.09508732 1.3839782
0.31651634 -0.094230048 1.3715008
0.31895912 -0.093529366 1.3613025
0.3233172 -0.093402751 1.3594596
0.32766354 -0.093276478 1.3576218
0.33199811 -0.093150549 1.3557889
0.33632106 -0.093024969 1.3539611
0.34063232 -0.092899725 1.3521382
0.34493178 -0.092774756 1.3503193
0.34921962 -0.092650108 1.348505
0.35349599 -0.092525788 1.3466957
0.35776085 -0.092401803 1.3448911
0.3627274 -0.092459925 1.345737
0.36803481 -0.092602305 1.3478093
0.37335861 -0.092745133 1.3498881
0.37869889 -0.0928884 1.3519734
0.38405564 -0.093032114 1.3540651
0.38942903 -0.093176268 1.3561633
0.39481908 -0.093320869 1.3582679
0.3084217 -0.094310768 1.4468744
0.31056824 -0.093422972 1.4332541
0.31267476 -0.092551723 1.4198879
0.31474233 -0.091696583 1.4067687
0.31677204 -0.090857096 1.3938897
0.318764 -0.090032578 1.3812402
0.32071859 -0.089222468 1.3688118
0.32427236 -0.088874646 1.3634758
0.32863021 -0.088754147 1.3616271
0.33297625 -0.088633969 1.3597834
0.33731052 -0.088514112 1.3579446
0.34163314 -0.08839459 1.3561109
0.34594411 -0.088275388 1.3542823
0.35024336 -0.088156492 1.3524581
0.35453084 -0.088037863 1.3506382
0.35880673 -0.087919533 1.3488228
0.36325118 -0.087845057 1.3476802
0.36856711 -0.087980539 1.3497587
0.37389943 -0.088116422 1.3518435
0.37924826 -0.088252738 1.3539348
0.38461369 -0.088389486 1.3560326
0.38999572 -0.088526636 1.3581368
0.31287155 -0.089028493 1.4438838
0.31497192 -0.088192135 1.4303195
0.31703314 -0.087371342 1.4170077
0.31905636 -0.086565681 1.4039414
0.32104263 -0.08577475 1.3911139
0.32299161 -0.084997788 1.378513
0.32523313 -0.084319703 1.3675156
0.32960257 -0.084205039 1.3656559
0.33396015 -0.084090687 1.3638014
0.33830592 -0.083976649 1.3619518
0.34263992 -0.083862916 1.3601073
0.34696215 -0.083749488 1.3582677
0.35127273 -0.083636366 1.356433
0.35557169 -0.083523549 1.3546034
0.35985884 -0.083410986 1.3527778
0.3641344 -0.08329872 1.350957
0.36910093 -0.083345369 1.3517137
0.37444183 -0.083474293 1.3538046
0.37979931 -0.083603621 1.355902
0.38517335 -0.083733335 1.3580058
0.31935757 -0.082982674 1.4273969
0.32137388 -0.082211927 1.4141392
0.32335311 -0.081455365 1.4011254
0.32529628 -0.080712609 1.3883492
0.32720256 -0.079982847 1.3757964
0.33058074 -0.079628937 1.3697088
0.33494988 -0.079520479 1.3678432
0.33930716 -0.079412319 1.3659827
0.34365261 -0.079304449 1.3641272
0.34798625 -0.07919687 1.3622768
0.35230815 -0.079089582 1.3604313
0.35661834 -0.078982592 1.3585908
0.36091691 -0.078875884 1.3567554
0.3652038 -0.078769445 1.3549246
0.36963633 -0.078696765 1.3536744
0.37498581 -0.078818671 1.3557713
0.38035193 -0.078940965 1.3578749
0.32569712 -0.077073365 1.4112823
0.32763267 -0.076365508 1.3983208
0.32953301 -0.07567054 1.3855953
0.33156472 -0.075025596 1.3737857
0.33594552 -0.074923098 1.371909
0.34031436 -0.074820891 1.3700374
0.34467128 -0.074718952 1.3681709
0.3490164 -0.074617296 1.3663095
0.35334966 -0.074515916 1.3644531
0.35767117 -0.074414812 1.3626018
0.36198103 -0.074313983 1.3607556
0.36627916 -0.074213423 1.3589141
0.37056568 -0.074113138 1.3570778
0.33189511 -0.071295992 1.3955274
0.33375296 -0.070648439 1.3828524
0.33694705 -0.070298307 1.375999
0.34132755 -0.07020212 1.3741163
0.34569606 -0.070106193 1.3722386
0.35005265 -0.070010535 1.3703662
0.35439739 -0.069915131 1.3684988
0.35873029 -0.069819987 1.3666365
0.33795598 -0.065646127 1.3801192
0.34234676 -0.065555766 1.3782195
