# .PCD v0.7 - Point Cloud Data file format
VERSION 0.7
FIELDS x y z
SIZE 4 4 4
TYPE F F F
COUNT 1 1 1
WIDTH 1420
HEIGHT 1
VIEWPOINT 0 0 0 1 0 0 0
POINTS 1420
DATA ascii
0.1861189 -0.3488006 0.78257859
0.18853475 -0.34817001 0.78116381
0.19094239 -0.34754264 0.77975619
0.19361812 -0.34741408 0.77946776
0.19795047 -0.35022005 0.78576332
0.20234478 -0.35305673 0.79212779
0.20679446 -0.35591155 0.7985329
0.21131288 -0.35880643 0.80502796
0.2191702 -0.34018442 0.76324707
0.22146852 -0.33958507 0.76190239
0.2237588 -0.33898789 0.76056254
0.22604103 -0.33839279 0.75922734
0.22831525 -0.33779976 0.75789678
0.23058154 -0.33720884 0.75657099
0.23283988 -0.33661994 0.75524974
0.23509033 -0.33603308 0.75393301
0.2373329 -0.33544818 0.7526207
0.23956768 -0.33486533 0.75131303
0.24179485 -0.33428469 0.75001031
0.24401431 -0.33370605 0.74871206
0.24622609 -0.33312941 0.74741828
0.24909393 -0.33344322 0.74812233
0.25414181 -0.33663812 0.75529051
0.25953549 -0.34022009 0.76332712
0.26549715 -0.34446552 0.7728523
0.16413729 -0.35212359 0.79632926
0.1666363 -0.35147658 0.79486603
0.16912612 -0.3508319 0.79340804
0.17160685 -0.3501896 0.79195547
0.17407849 -0.34954962 0.79050821
0.17654112 -0.34891197 0.78906614
0.17899479 -0.34827667 0.78762943
0.18143953 -0.34764367 0.7861979
0.18387534 -0.34701285 0.78477126
0.18630229 -0.34638426 0.78334969
0.18872032 -0.34575766 0.78193265
0.19112989 -0.34513384 0.78052187
0.19358441 -0.34460771 0.77933204
0.197969 -0.34748408 0.78583694
0.20241407 -0.35038573 0.79239905
0.20693125 -0.3533316 0.79906112
0.21151185 -0.35630518 0.80578595
0.21938036 -0.33781883 0.76397896
0.22168051 -0.33722308 0.76263165
0.22397262 -0.33662951 0.7612893
0.22625698 -0.33603847 0.75995266
0.22853321 -0.33544934 0.75862032
0.23080128 -0.33486199 0.75729203
0.23306146 -0.33427671 0.75596845
0.23531389 -0.33369371 0.75465
0.23755825 -0.33311242 0.75333536
0.23979481 -0.33253312 0.75202531
0.24202357 -0.33195582 0.75071973
0.24424461 -0.33138052 0.74941868
0.24645796 -0.33080721 0.74812216
0.24979992 -0.33174488 0.75024265
0.25486901 -0.3349326 0.75745171
0.26003653 -0.33818221 0.76480073
0.26530522 -0.34149545 0.77229363
0.16430201 -0.34966838 0.79712838
0.1668032 -0.34902519 0.79566211
0.16929521 -0.34838435 0.7942012
0.1717781 -0.3477459 0.79274577
0.17425187 -0.34710974 0.79129553
0.17671666 -0.34647596 0.78985071
0.17917243 -0.34584445 0.78841108
0.18161927 -0.34521526 0.78697675
0.18405724 -0.34458837 0.78554761
0.18648636 -0.34396371 0.78412366
0.18890667 -0.34334132 0.78270477
0.19131815 -0.34272102 0.78129071
0.1937212 -0.34210339 0.77988273
0.19763345 -0.34413096 0.78450489
0.20213799 -0.34711972 0.7913183
0.20670263 -0.35012895 0.79817832
0.2113435 -0.35318479 0.80514461
0.21728189 -0.33604467 0.76607084
0.21959212 -0.33545056 0.76471645
0.2218942 -0.33485854 0.76336682
0.22418809 -0.33426845 0.76202166
0.22647433 -0.33368111 0.7606827
0.22875209 -0.33309516 0.7593469
0.23102188 -0.33251125 0.75801581
0.23328373 -0.33192942 0.75668943
0.23553765 -0.33134958 0.75536758
0.23778373 -0.33077177 0.75405037
0.24002197 -0.33019599 0.75273776
0.24225247 -0.32962221 0.75142974
0.24447519 -0.32905039 0.75012618
0.24669024 -0.3284806 0.74882722
0.25050992 -0.33003688 0.75237507
0.25560042 -0.33321729 0.75962538
0.26078999 -0.33645961 0.76701677
0.26608154 -0.33976564 0.77455342
0.16446702 -0.34720817 0.79792899
0.16697043 -0.34656888 0.79645979
0.16946463 -0.34593192 0.79499602
0.17194968 -0.34529734 0.79353762
0.17442563 -0.34466505 0.79208457
0.17689252 -0.34403506 0.79063678
0.17935041 -0.34340739 0.78919429
0.18179937 -0.34278202 0.7877571
0.1842394 -0.34215888 0.7863251
0.1866706 -0.34153804 0.78489834
0.18909296 -0.34091944 0.78347665
0.19150659 -0.34030309 0.78206021
0.19391148 -0.3396889 0.78064877
0.19679333 -0.33991575 0.78117007
0.20136485 -0.3430146 0.78829163
0.20600082 -0.34613743 0.79546827
0.21071166 -0.34930053 0.80273753
0.21549174 -0.35249311 0.81007445
0.2174923 -0.33366829 0.76681262
0.21980426 -0.33307764 0.76545519
0.2221081 -0.33248907 0.76410264
0.22440377 -0.33190259 0.7627548
0.22669138 -0.33131817 0.76141173
0.22897096 -0.33073583 0.76007342
0.23124249 -0.33015546 0.75873971
0.23350611 -0.32957721 0.75741076
0.23576179 -0.32900092 0.75608641
0.23800962 -0.32842669 0.7547667
0.24024962 -0.32785445 0.75345165
0.24248181 -0.32728419 0.75214112
0.24470623 -0.32671589 0.75083506
0.24692294 -0.32614955 0.74953359
0.25122398 -0.32831916 0.75451964
0.25633603 -0.33149216 0.76181155
0.26154783 -0.33472705 0.76924574
0.26686239 -0.33802569 0.7768265
0.16463238 -0.34474301 0.79873121
0.16713798 -0.3441076 0.79725903
0.16963437 -0.34347457 0.79579234
0.1721216 -0.34284383 0.79433101
0.17459972 -0.34221545 0.79287511
0.17706874 -0.3415893 0.79142439
0.17952877 -0.34096548 0.7899791
0.18197981 -0.34034392 0.78853899
0.18442194 -0.33972463 0.78710419
0.18685521 -0.3391076 0.78567457
0.18927963 -0.33849278 0.78425008
0.1916953 -0.33788019 0.78283083
0.19410238 -0.33727008 0.78141725
0.19650047 -0.33666164 0.78000754
0.19974203 -0.33749515 0.78193873
0.20451158 -0.34085262 0.78971761
0.20932469 -0.34419161 0.79745364
0.21421117 -0.34756115 0.80526054
0.21537897 -0.33187324 0.76891339
0.21770239 -0.33128625 0.76755339
0.22001626 -0.33069929 0.76619345
0.2223219 -0.33011433 0.76483816
0.22461942 -0.32953146 0.76348776
0.22690883 -0.32895067 0.76214212
0.22919022 -0.32837194 0.76080126
0.23146357 -0.32779521 0.75946504
0.23372895 -0.32722053 0.75813353
0.23598637 -0.32664779 0.75680661
0.23823594 -0.32607713 0.7554844
0.24047765 -0.32550842 0.75416678
0.24271157 -0.32494172 0.75285381
0.24493772 -0.32437697 0.75154537
0.24715614 -0.32381418 0.75024146
0.2519421 -0.32659161 0.75667644
0.25707588 -0.329757 0.76401031
0.26231012 -0.33298436 0.77148771
0.2676484 -0.33627617 0.77911448
0.16479807 -0.34227291 0.79953504
0.1673059 -0.34164146 0.79806
0.16980448 -0.3410123 0.79659033
0.17229387 -0.34038547 0.79512608
0.17477414 -0.33976093 0.7936672
0.17724532 -0.33913869 0.79221362
0.17970747 -0.33851871 0.7907654
0.18216062 -0.337901 0.78932244
0.18460485 -0.33728555 0.78788483
0.18704018 -0.33667234 0.78645235
0.18946667 -0.33606133 0.78502506
0.19188437 -0.33545253 0.78360295
0.19429345 -0.33484617 0.78218651
0.19669427 -0.3342427 0.78077686
0.19908543 -0.33363971 0.77936828
0.20146808 -0.33303908 0.77796519
0.20563793 -0.33536926 0.7834084
0.2111527 -0.33980203 0.79376322
0.2085661 -0.33125204 0.77379078
0.21091491 -0.33066013 0.77240813
0.21325506 -0.33006993 0.77102941
0.21558735 -0.32948256 0.76965731
0.21791293 -0.32889962 0.76829565
0.22022861 -0.32831627 0.76693296
0.22253615 -0.32773504 0.76557523
0.22483549 -0.32715583 0.7642222
0.2271267 -0.32657862 0.76287389
0.22940989 -0.32600352 0.76153046
0.23168501 -0.32543039 0.76019168
0.23395216 -0.32485929 0.75885761
0.23621139 -0.32429022 0.75752825
0.2384627 -0.32372311 0.75620353
0.24070613 -0.32315797 0.75488335
0.24294175 -0.32259479 0.75356781
0.24516962 -0.32203361 0.75225693
0.24760704 -0.32175675 0.75161016
0.25266436 -0.32485417 0.75884563
0.25782001 -0.32801184 0.76622182
0.26307687 -0.3312315 0.77374279
0.26843899 -0.33451629 0.78141594
0.16496409 -0.33979785 0.80034059
0.16747414 -0.33917031 0.79886252
0.16997491 -0.33854505 0.79738986
0.1724665 -0.33792216 0.7959227
0.17494893 -0.33730152 0.79446089
0.17742226 -0.33668318 0.79300445
0.17988652 -0.33606708 0.79155332
0.1823418 -0.33545324 0.79010755
0.18478811 -0.33484161 0.78866696
0.18722554 -0.33423224 0.78723168
0.18965407 -0.33362505 0.78580153
0.19207406 -0.33302048 0.78437757
0.19448549 -0.33241844 0.78295958
0.19688731 -0.33181709 0.78154314
0.19928066 -0.33121821 0.78013259
0.20166555 -0.33062175 0.77872771
0.2040424 -0.33002833 0.77732998
0.20641027 -0.32943627 0.77593553
0.20876873 -0.32884485 0.77454251
0.21112055 -0.3282584 0.77316123
0.21346293 -0.32767242 0.77178103
0.21579652 -0.32708779 0.77040404
0.21812253 -0.32650638 0.76903462
0.22044142 -0.32592872 0.76767403
0.22275077 -0.32535112 0.76631361
0.22505197 -0.32477561 0.76495802
0.227345 -0.32420206 0.76360714
0.22962999 -0.32363057 0.76226109
0.23190692 -0.32306108 0.76091975
0.23417585 -0.32249358 0.75958312
0.23643681 -0.32192808 0.75825119
0.23868987 -0.32136458 0.75692391
0.24093507 -0.32080308 0.75560135
0.24317242 -0.32024348 0.75428331
0.24540198 -0.31968582 0.75296986
0.2483121 -0.32001722 0.75375038
0.25339079 -0.32310677 0.76102734
0.25856847 -0.32625654 0.76844615
0.26384819 -0.32946846 0.77601135
0.16513047 -0.33731776 0.8011477
0.1676427 -0.33669415 0.79966658
0.17014571 -0.33607292 0.79819107
0.17263946 -0.3354539 0.79672092
0.17512406 -0.3348372 0.7952562
0.17759953 -0.33422273 0.79379684
0.18006593 -0.33361053 0.79234278
0.18252333 -0.33300057 0.79089409
0.18497173 -0.33239281 0.78945065
0.18741125 -0.33178732 0.78801256
0.18984213 -0.33118445 0.78658074
0.19226429 -0.33058393 0.78515446
0.19467691 -0.32998425 0.78373021
0.19708103 -0.32938719 0.7823121
0.19947618 -0.32879177 0.78089797
0.20186381 -0.32820034 0.77949333
0.2042422 -0.32760996 0.77809113
0.20661204 -0.32702169 0.77669394
0.20897338 -0.32643554 0.77530181
0.21132535 -0.32585004 0.77391124
0.21366984 -0.32526809 0.77252907
0.21600632 -0.32468876 0.77115309
0.21833383 -0.32411045 0.76977962
0.22065455 -0.32353643 0.76841623
0.22296582 -0.32296261 0.76705343
0.22526886 -0.32239074 0.76569521
0.22756372 -0.32182088 0.76434177
0.2298505 -0.32125303 0.7629931
0.23212925 -0.32068723 0.76164925
0.23439996 -0.32012337 0.76031005
0.23666267 -0.31956145 0.75897551
0.23891748 -0.31900156 0.75764573
0.24116442 -0.31844363 0.7563206
0.24340349 -0.31788763 0.75500005
0.24563478 -0.31733358 0.75368416
0.2490212 -0.31826773 0.75590283
0.25412136 -0.32134923 0.76322156
0.2593213 -0.32449105 0.77068353
0.26462445 -0.32769558 0.77829444
0.16277334 -0.33545461 0.80344599
0.16529715 -0.3348327 0.80195642
0.16781162 -0.33421305 0.80047232
0.17031682 -0.33359575 0.79899383
0.17281276 -0.33298069 0.7975207
0.17529954 -0.33236793 0.79605305
0.17777717 -0.3317574 0.79459077
0.18024571 -0.3311491 0.79313385
0.18270521 -0.33054301 0.79168224
0.18515575 -0.32993919 0.790236
0.18759766 -0.3293381 0.78879637
0.19003056 -0.32873899 0.78736144
0.19245407 -0.32814112 0.78592944
0.19486909 -0.32754591 0.78450388
0.19727518 -0.32695258 0.78308278
0.19967309 -0.32636222 0.78166884
0.20206204 -0.32577351 0.78025877
0.20444238 -0.32518688 0.77885377
0.20681417 -0.32460237 0.77745384
0.20917746 -0.32402 0.77605897
0.21153222 -0.3234396 0.77466887
0.21387804 -0.32286048 0.77328181
0.21621619 -0.32228452 0.77190232
0.21854536 -0.32170963 0.77052546
0.22086696 -0.32113785 0.76915598
0.22318131 -0.32056952 0.76779473
0.22548617 -0.32000133 0.76643389
0.22778285 -0.31943512 0.76507777
0.23007146 -0.31887096 0.76372653
0.23235197 -0.31830877 0.76238006
0.23462448 -0.31774858 0.7610383
0.23688899 -0.31719035 0.75970131
0.23914556 -0.31663406 0.75836897
0.24139421 -0.31607971 0.75704122
0.24363501 -0.31552732 0.75571817
0.24586801 -0.31497684 0.75439978
0.24973433 -0.3165082 0.75806755
0.2548562 -0.31958157 0.76542854
0.26007849 -0.32271519 0.77293384
0.26540533 -0.32591224 0.78059107
0.16293812 -0.33296052 0.80425936
0.16546418 -0.33234257 0.80276674
0.16798089 -0.33172697 0.80127978
0.17048828 -0.33111361 0.79979819
0.17298643 -0.33050254 0.7983222
0.17547536 -0.32989368 0.79685152
0.17795514 -0.32928708 0.79538625
0.18042584 -0.32868272 0.79392648
0.18288746 -0.32808056 0.79247195
0.18534051 -0.32748136 0.79102457
0.18778419 -0.32688358 0.7895807
0.19021875 -0.32628763 0.78814113
0.19264461 -0.32569414 0.78670758
0.19506179 -0.32510296 0.78527963
0.1974701 -0.32451379 0.78385651
0.19986971 -0.32392675 0.78243852
0.20226066 -0.32334185 0.78102571
0.20464298 -0.32275906 0.77961797
0.20701674 -0.32217836 0.77821529
0.20938195 -0.32159972 0.77681762
0.21173871 -0.3210232 0.77542502
0.21408691 -0.32044855 0.774037
0.21642688 -0.31987619 0.77265447
0.2187583 -0.3193056 0.77127618
0.22108117 -0.31873664 0.76990193
0.22339699 -0.31817147 0.76853675
0.2257039 -0.31760728 0.76717395
0.22800244 -0.31704482 0.76581532
0.23029284 -0.31648433 0.76446146
0.23257515 -0.31592578 0.76311231
0.23484942 -0.31536922 0.76176798
0.2371157 -0.31481463 0.76042837
0.23937404 -0.314262 0.75909352
0.24162444 -0.31371129 0.75776327
0.24386699 -0.31316254 0.75643778
0.24610168 -0.31261563 0.75511676
0.25045156 -0.3147386 0.76024473
0.25559527 -0.31780365 0.76764828
0.26084027 -0.32092914 0.7751978
0.2661908 -0.32411835 0.78290129
0.16310322 -0.33046132 0.80507433
0.16563155 -0.32984746 0.80357879
0.16815048 -0.32923582 0.80208874
0.17066009 -0.32862645 0.80060422
0.17316043 -0.32801935 0.79912519
0.17565155 -0.32741448 0.79765159
0.1781335 -0.32681185 0.79618347
0.18060634 -0.32621145 0.79472071
0.18307039 -0.32561377 0.79326463
0.18552513 -0.32501772 0.79181254
0.1879708 -0.32442367 0.79036534
0.19040759 -0.32383189 0.78892362
0.19283558 -0.3232424 0.78748745
0.19525474 -0.32265499 0.78605646
0.1976651 -0.3220697 0.78463054
0.2000667 -0.3214865 0.78320974
0.20245965 -0.32090542 0.78179413
0.20484395 -0.32032645 0.78038359
0.20721966 -0.31974956 0.77897817
0.20958683 -0.31917474 0.77757776
0.21194552 -0.31860197 0.77618241
0.21429574 -0.31803128 0.77479208
0.21663705 -0.31746182 0.77340478
0.21897057 -0.31689528 0.77202457
0.22129562 -0.31633055 0.77064878
0.22361228 -0.31576765 0.76927739
0.22592202 -0.31520858 0.76791537
0.2282224 -0.31464982 0.76655412
0.23051463 -0.31409305 0.76519769
0.23279874 -0.31353819 0.76384598
0.23507482 -0.31298533 0.76249909
0.23734288 -0.31243441 0.76115692
0.23960295 -0.31188542 0.75981945
0.24185511 -0.31133837 0.75848669
0.24409939 -0.31079322 0.75715864
0.24633582 -0.31024998 0.75583518
0.25117296 -0.31295881 0.76243448
0.25633866 -0.31601539 0.76988095
0.2616069 -0.31913304 0.77747619
0.26698095 -0.32231379 0.78522521
0.16326869 -0.32795709 0.80589104
0.16579926 -0.32734725 0.80439246
0.16832042 -0.32673964 0.80289936
0.17083226 -0.32613429 0.80141187
0.17333479 -0.32553121 0.79992986
0.1758281 -0.32493034 0.79845333
0.1783122 -0.32433164 0.79698217
0.1807873 -0.32373539 0.79551697
0.18325326 -0.32314125 0.79405701
0.18571012 -0.32254916 0.79260206
0.18815786 -0.32195902 0.79115188
0.19059686 -0.32137135 0.78970784
0.19302689 -0.3207857 0.78826869
0.19544806 -0.32020214 0.78683472
0.19786045 -0.31962073 0.78540599
0.20026411 -0.31904143 0.78398252
0.20265904 -0.31846422 0.7825641
0.20504533 -0.31788906 0.78115076
0.20742302 -0.317316 0.7797426
0.20979214 -0.31674498 0.77833945
0.21215275 -0.31617606 0.77694136
0.21450491 -0.31560913 0.77554828
0.21684864 -0.31504425 0.77416021
0.21918325 -0.31448033 0.77277446
0.22151053 -0.31391984 0.77139717
0.22382906 -0.31336069 0.77002317
0.22614031 -0.31280485 0.76865733
0.2284428 -0.31225023 0.76729441
0.23073685 -0.31169716 0.76593536
0.23302278 -0.31114602 0.76458108
0.23530065 -0.31059685 0.76323158
0.23757048 -0.31004962 0.76188684
0.23983234 -0.3095043 0.76054686
0.24208623 -0.30896088 0.75921148
0.24433224 -0.30841938 0.75788087
0.2468103 -0.30817935 0.75729102
0.25189847 -0.3111687 0.76463681
0.25708637 -0.31421667 0.77212662
0.26237804 -0.31732631 0.77976793
0.2677758 -0.3204985 0.78756297
0.16343449 -0.3254478 0.80670941
0.1659673 -0.32484198 0.80520773
0.16849071 -0.32423842 0.80371165
0.17100476 -0.3236371 0.80222112
0.17350951 -0.32303801 0.80073613
0.17600499 -0.32244116 0.79925662
0.17849128 -0.32184646 0.79778254
0.18096846 -0.3212541 0.79631418
0.18343663 -0.32066402 0.79485154
0.18589522 -0.32007524 0.79339206
0.18834549 -0.31948975 0.79194081
0.19078648 -0.31890586 0.79049349
0.19321856 -0.31832409 0.78905141
0.19564179 -0.31774446 0.78761464
0.19805621 -0.31716692 0.78618306
0.20046188 -0.3165915 0.78475672
0.20285884 -0.31601819 0.78333557
0.2052471 -0.31544688 0.78191948
0.20762675 -0.31487766 0.78050846
0.20999785 -0.31431049 0.77910262
0.2123604 -0.31374538 0.7777018
0.21471447 -0.31318226 0.77630597
0.21706013 -0.31262118 0.77491522
0.21939737 -0.31206208 0.77352935
0.22172585 -0.31150442 0.772147
0.22404671 -0.31094968 0.77077192
0.22635855 -0.31039584 0.76939911
0.22866365 -0.30984601 0.76803619
0.2309595 -0.30929664 0.76667446
0.23324725 -0.30874923 0.76531756
0.23552689 -0.30820376 0.76396543
0.23779851 -0.30766022 0.76261812
0.24006215 -0.30711859 0.76127559
0.2423178 -0.30657887 0.7599377
0.24456553 -0.30604103 0.75860453
0.24751841 -0.30638766 0.75946373
0.25262824 -0.30936825 0.76685196
0.25783867 -0.31240767 0.77438599
0.26315373 -0.31550893 0.78207326
0.16360061 -0.32293338 0.80752939
0.16613568 -0.32233164 0.80602467
0.16866136 -0.32173216 0.80452561
0.17117763 -0.32113487 0.80303204
0.17368458 -0.32053983 0.80154407
0.17618224 -0.31994694 0.80006152
0.17867064 -0.3193562 0.79858428
0.18115008 -0.31876796 0.79711336
0.18362007 -0.31818134 0.79564643
0.18608136 -0.31759751 0.79418647
0.18853341 -0.31701544 0.79273093
0.19097647 -0.31643549 0.79128069
0.19341062 -0.31585765 0.78983575
0.1958359 -0.31528193 0.78839612
0.19825235 -0.31470829 0.78696167
0.20066004 -0.31413674 0.78553247
0.20305899 -0.31356728 0.78410846
0.20544927 -0.31299987 0.78268963
0.20783091 -0.31243455 0.78127593
0.21020395 -0.31187123 0.77986729
0.21256845 -0.31130993 0.77846372
0.21492445 -0.31075063 0.77706516
0.21727201 -0.31019339 0.77567166
0.21961115 -0.30963808 0.77428311
0.22194192 -0.30908477 0.77289945
0.22426438 -0.30853343 0.77152079
0.22657803 -0.30798331 0.77014512
0.22888446 -0.30743653 0.76877785
0.23118259 -0.3068915 0.76741499
0.23347215 -0.30634785 0.76605552
0.23575361 -0.3058061 0.76470083
0.23802699 -0.30526623 0.76335084
0.24029237 -0.3047283 0.76200569
0.24254978 -0.30419227 0.76066524
0.24479929 -0.30365813 0.75932956
0.24823061 -0.30458567 0.76164895
0.25336221 -0.30755734 0.76907998
0.25859565 -0.31058845 0.77665955
0.26393405 -0.3136808 0.7843923
0.16376708 -0.32041386 0.8083511
0.16630442 -0.3198162 0.80684334
0.16883233 -0.31922078 0.80534118
0.17135082 -0.31862757 0.80384457
0.17385998 -0.31803656 0.80235356
0.17635971 -0.31744748 0.80086744
0.1788505 -0.31686112 0.79938817
0.18133204 -0.31627682 0.79791403
0.18380432 -0.31569442 0.79644477
0.18626751 -0.3151142 0.79498094
0.18872169 -0.31453615 0.7935226
0.19116683 -0.31396013 0.79206944
0.19360307 -0.31338626 0.79062164
0.19603041 -0.31281447 0.78917915
0.1984489 -0.31224477 0.78774184
0.20085861 -0.31167716 0.78630984
0.20325957 -0.3111116 0.78488302
0.20565183 -0.31054807 0.78346133
0.20803542 -0.30998656 0.78204477
0.21041043 -0.30942711 0.78063333
0.2127769 -0.30886969 0.77922708
0.21513484 -0.30831426 0.77782583
0.2174843 -0.3077608 0.77642953
0.21982537 -0.30720937 0.77503836
0.22215804 -0.30665988 0.77365208
0.22448228 -0.3061122 0.77227038
0.22679795 -0.3055661 0.77089268
0.2291058 -0.30502251 0.7695213
0.23140611 -0.30448171 0.76815695
0.23369746 -0.30394179 0.7667948
0.23598073 -0.30340379 0.76543754
0.2382559 -0.30286768 0.76408499
0.24052307 -0.30233347 0.76273727
0.24278222 -0.30180112 0.7613942
0.24503344 -0.30127063 0.7600559
0.24894689 -0.30277324 0.76384676
0.25410047 -0.30573586 0.77132094
0.25935712 -0.3087585 0.77894652
0.26471898 -0.31184173 0.78672504
0.16393389 -0.31788918 0.80917442
0.16647351 -0.31729564 0.80766362
0.16900364 -0.3167043 0.80615836
0.17152438 -0.31611517 0.80465877
0.17403562 -0.31552801 0.80316412
0.17653777 -0.31494337 0.80167598
0.17903073 -0.31436107 0.80019373
0.18151431 -0.31378055 0.79871607
0.18398874 -0.3132022 0.79724389
0.18645404 -0.31262594 0.79577708
0.18891032 -0.31205186 0.79431576
0.19135758 -0.31147987 0.79285973
0.19379589 -0.31090996 0.79140908
0.19622529 -0.3103421 0.78996366
0.19864583 -0.30977637 0.78852355
0.20105757 -0.30921265 0.78708869
0.20346053 -0.308651 0.78565902
0.2058548 -0.3080914 0.78423458
0.20824037 -0.3075338 0.78281522
0.21061735 -0.30697823 0.78140104
0.21298575 -0.30642465 0.77999192
0.21534565 -0.30587313 0.778588
0.21769702 -0.30532348 0.77718896
0.22003999 -0.30477589 0.77579504
0.22237456 -0.30423021 0.77440608
0.22470078 -0.3036865 0.77302206
0.22701813 -0.30314398 0.77164108
0.22932819 -0.30260465 0.77026826
0.23162949 -0.30206653 0.76889849
0.23392323 -0.30153111 0.76753557
0.23620827 -0.30099684 0.76617563
0.23848526 -0.30046448 0.76482052
0.24075419 -0.29993397 0.76347017
0.24301513 -0.29940537 0.7621246
0.24526811 -0.29887861 0.76078379
0.24966736 -0.30095038 0.76605737
0.25484332 -0.30390409 0.7735759
0.2601231 -0.30691773 0.78124702
0.26550862 -0.30999175 0.7890718
0.1615496 -0.31595099 0.81151903
0.16410103 -0.31535938 0.80999947
0.16664292 -0.31476995 0.80848557
0.16917531 -0.3141827 0.80697721
0.17169826 -0.31359765 0.80547446
0.1742119 -0.31301489 0.80397767
0.17671624 -0.31243429 0.80248642
0.17921121 -0.31185573 0.80100036
0.18169695 -0.31127927 0.79951972
0.18417351 -0.31070495 0.79804456
0.18664096 -0.31013271 0.79657483
0.18909936 -0.30956265 0.79511058
0.19154871 -0.30899462 0.79365164
0.19398908 -0.30842867 0.792198
0.19642057 -0.30786487 0.79074985
0.19884315 -0.30730304 0.78930682
0.20125692 -0.30674329 0.7878691
0.2036619 -0.30618557 0.78643662
0.20605816 -0.30562988 0.78500932
0.20844574 -0.30507621 0.78358722
0.21082467 -0.30452451 0.78217018
0.21319503 -0.30397484 0.78075832
0.21555683 -0.30342713 0.77935153
0.21791014 -0.30288139 0.77794981
0.22025503 -0.30233765 0.77655321
0.22259147 -0.30179581 0.7751615
0.22491959 -0.30125591 0.7737748
0.22723937 -0.30071795 0.77239305
0.22955066 -0.30018163 0.77101547
0.23185369 -0.29964715 0.76964271
0.23414946 -0.29911578 0.76827782
0.23643631 -0.29858527 0.76691526
0.23871505 -0.29805663 0.76555747
0.24098575 -0.29752991 0.7642045
0.24324845 -0.29700503 0.76285636
0.24550317 -0.29648197 0.76151294
0.25039196 -0.29911688 0.76828068
0.25559077 -0.3020618 0.77584469
0.26089361 -0.30506608 0.78356117
0.26630294 -0.30813065 0.7914325
0.16171479 -0.31341186 0.81234884
0.16426852 -0.3128244 0.81082618
0.16681267 -0.31223911 0.80930912
0.16934741 -0.31165615 0.80779815
0.1718726 -0.31107521 0.80629236
0.17438841 -0.31049645 0.80479223
0.17689489 -0.30991983 0.8032977
0.17939204 -0.30934533 0.8018086
0.18187997 -0.30877295 0.80032504
0.18435869 -0.30820268 0.7988469
0.18682827 -0.3076345 0.79737425
0.18928875 -0.30706841 0.79590696
0.19174023 -0.30650446 0.79444516
0.19418269 -0.30594251 0.79298866
0.19661622 -0.30538264 0.79153746
0.19904085 -0.3048248 0.79009157
0.20145668 -0.30426905 0.78865111
0.20386367 -0.30371526 0.78721571
0.20626193 -0.3031635 0.78578562
0.2086515 -0.30261377 0.78436071
0.21103241 -0.302066 0.78294092
0.2134047 -0.3015202 0.78152621
0.21576846 -0.3009764 0.78011668
0.21812369 -0.30043453 0.77871221
0.22047046 -0.2998946 0.77731276
0.22280882 -0.29935664 0.77591836
0.22513883 -0.29882061 0.77452904
0.22746047 -0.2982865 0.7731446
0.22977382 -0.29775426 0.77176505
0.23207851 -0.29722336 0.77038902
0.23437552 -0.29669502 0.7690196
0.23666474 -0.29616901 0.76765621
0.23894531 -0.29564419 0.76629591
0.24121778 -0.29512119 0.76494032
0.24348223 -0.29460004 0.7635895
0.24600142 -0.29439515 0.76305842
0.25112081 -0.29727274 0.77051705
0.25634256 -0.30020869 0.77812684
0.26166868 -0.30320337 0.78588897
0.16188034 -0.31086755 0.81318045
0.16443634 -0.31028423 0.81165457
0.16698286 -0.30970326 0.81013483
0.16951966 -0.30912408 0.8086198
0.1720472 -0.30854747 0.80711144
0.17456523 -0.30797279 0.80560821
0.17707388 -0.30740026 0.80411053
0.17957322 -0.30682984 0.80261844
0.18206333 -0.30626157 0.8011319
0.18454421 -0.30569535 0.79965079
0.18701594 -0.30513126 0.79817522
0.18947855 -0.30456921 0.79670501
0.19193211 -0.30400926 0.79524022
0.19437666 -0.30345133 0.7937808
0.19681227 -0.30289549 0.79232675
0.19923896 -0.30234164 0.790878
0.2016568 -0.30178982 0.78943455
0.20406583 -0.30124003 0.78799635
0.20646611 -0.30069226 0.78656346
0.20885766 -0.30014643 0.78513569
0.21124054 -0.2996026 0.7837131
0.21361481 -0.29906073 0.78229564
0.2159805 -0.2985208 0.78088331
0.21833767 -0.29798287 0.77947611
0.22068635 -0.29744682 0.77807391
0.2230266 -0.2969127 0.77667677
0.22535847 -0.29638055 0.77528471
0.22768201 -0.29585028 0.77389759
0.22999723 -0.29532188 0.77251542
0.23230419 -0.29479536 0.77113813
0.23460281 -0.29427058 0.76976538
0.23689362 -0.29374811 0.76839864
0.23917598 -0.29322705 0.76703566
0.24145025 -0.29270786 0.76567751
0.24371648 -0.29219046 0.76432413
0.24671263 -0.29254994 0.76526445
0.25185424 -0.29541823 0.77276742
0.25709882 -0.29834464 0.78042245
0.26244837 -0.30132961 0.78823066
0.16204621 -0.30831802 0.81401366
0.16460451 -0.3077389 0.81248468
0.16715328 -0.30716202 0.81096166
0.16969246 -0.30658722 0.80944407
0.17222214 -0.30601457 0.80793214
0.17474239 -0.305444 0.80642581
0.17725325 -0.30487558 0.80492508
0.17975479 -0.30430931 0.80342996
0.18224706 -0.30374509 0.80194038
0.18473011 -0.30318299 0.80045635
0.18720397 -0.30262297 0.79897773
0.18966872 -0.30206499 0.7975046
0.1921244 -0.30150908 0.7960369
0.19457103 -0.30095521 0.79457456
0.19700871 -0.30040336 0.79311758
0.19943745 -0.2998535 0.79166591
0.20185734 -0.29930571 0.7902196
0.20426838 -0.29875988 0.78877854
0.20667066 -0.29821604 0.78734273
0.20906423 -0.29767424 0.78591222
0.21144909 -0.29713434 0.78448683
0.21382533 -0.29659644 0.78306663
0.21619296 -0.29606041 0.7816515
0.21855205 -0.29552636 0.78024149
0.22090265 -0.29499424 0.77883655
0.2232448 -0.29446402 0.77743667
0.22557855 -0.29393569 0.77604181
0.22790395 -0.29340929 0.774652
0.23022102 -0.29288474 0.77326709
0.23252985 -0.29236209 0.77188724
0.23483023 -0.29184103 0.77051157
0.23712252 -0.29132193 0.76914108
0.23940709 -0.29080522 0.76777685
0.24168317 -0.29028985 0.76641613
0.24395116 -0.28977624 0.76506013
0.24742791 -0.290694 0.76748317
0.25259215 -0.29355305 0.77503157
0.25785956 -0.29646954 0.78273165
0.26323274 -0.29944465 0.79058641
0.16221242 -0.30576321 0.81484854
0.16477308 -0.30518839 0.81331664
0.16732407 -0.30461562 0.81179023
0.1698655 -0.30404496 0.81026947
0.17239743 -0.30347648 0.80875444
0.17491992 -0.30291009 0.80724508
0.177433 -0.30234581 0.80574131
0.17993674 -0.30178365 0.80424315
0.18243118 -0.30122358 0.80275053
0.18491638 -0.30066556 0.80126345
0.18739238 -0.3001096 0.79978186
0.18985927 -0.29955572 0.79830581
0.19231705 -0.2990039 0.79683518
0.19476579 -0.29845405 0.79536986
0.19720556 -0.29790625 0.79391003
0.19963637 -0.29736045 0.79245549
0.20205829 -0.29681665 0.79100627
0.20447136 -0.29627484 0.78956234
0.20687565 -0.295735 0.78812367
0.20927119 -0.2951971 0.78669024
0.21165805 -0.29466119 0.78526205
0.21403627 -0.29412726 0.78383911
0.21640584 -0.29359519 0.78242117
0.21876687 -0.29306504 0.78100836
0.22111939 -0.29253682 0.77960068
0.22346345 -0.29201052 0.77819806
0.22579908 -0.29148608 0.77680051
0.22812635 -0.29096353 0.77540791
0.2304453 -0.29044288 0.77402037
0.23275593 -0.28992406 0.77263772
0.23505834 -0.28940707 0.77126002
0.23735258 -0.288892 0.76988733
0.23963869 -0.28837878 0.76851958
0.24191654 -0.28786716 0.76715618
0.2441863 -0.28735736 0.76579756
0.2481474 -0.2888273 0.76971489
0.25333437 -0.29167685 0.77730888
0.25862482 -0.29458335 0.78505462
0.26402178 -0.29754835 0.79295623
0.16237897 -0.3032032 0.81568521
0.16494189 -0.30263251 0.81414992
0.16749518 -0.30206394 0.81262034
0.17003889 -0.30149752 0.81109655
0.17257307 -0.30093321 0.80957842
0.17509779 -0.30037099 0.80806595
0.17761309 -0.29981089 0.80655915
0.18011902 -0.29925287 0.80505794
0.18261567 -0.29869694 0.80356234
0.18510303 -0.29814303 0.80207223
0.18758118 -0.29759121 0.80058765
0.1900502 -0.29704142 0.79910862
0.19251008 -0.29649365 0.79763496
0.19496095 -0.29594791 0.79616684
0.19740278 -0.29540417 0.79470402
0.19983566 -0.29486239 0.79324657
0.20225963 -0.29432264 0.79179448
0.20467475 -0.29378486 0.7903477
0.20708105 -0.29324901 0.78890616
0.20947859 -0.2927151 0.78746986
0.21186741 -0.29218316 0.78603882
0.21424758 -0.29165316 0.78461301
0.21661912 -0.29112506 0.78319228
0.21898212 -0.2905989 0.78177679
0.22133654 -0.29007459 0.7803663
0.22368251 -0.28955221 0.77896094
0.22602004 -0.28903168 0.77756065
0.22834916 -0.28851303 0.77616531
0.23066999 -0.28799626 0.77477509
0.23298246 -0.28748128 0.7733897
0.2352867 -0.28696817 0.77200931
0.23758274 -0.28645691 0.77063388
0.23987041 -0.28594723 0.76926273
0.24215034 -0.28543979 0.76789761
0.2444219 -0.28493381 0.76653641
0.24887142 -0.28695008 0.77196068
0.25408095 -0.28978962 0.77959967
0.25939465 -0.29268593 0.78739136
0.26481557 -0.29564068 0.7953403
0.13978732 -0.28926286 0.78562927
0.14228369 -0.28871158 0.784132
0.14477059 -0.28816241 0.78264046
0.14724803 -0.2876153 0.78115457
0.14971609 -0.2870703 0.77967435
0.1521748 -0.28652731 0.77819961
0.15462424 -0.28598642 0.77673054
0.15706444 -0.28544757 0.775267
0.15949547 -0.28491071 0.77380896
0.16191737 -0.28437588 0.77235639
0.16433018 -0.28384304 0.77090919
0.16738993 -0.28442681 0.77249467
0.17128813 -0.28639376 0.77783686
0.17524064 -0.28838813 0.78325355
0.17924857 -0.29041049 0.78874618
0.1833145 -0.2924636 0.79432237
0.18743928 -0.29454744 0.79998201
0.19024152 -0.29452205 0.79991305
0.19270353 -0.29397836 0.79843646
0.19515647 -0.29343671 0.7969653
0.19760039 -0.29289705 0.79549956
0.20003535 -0.29235935 0.79403925
0.20246138 -0.29182363 0.79258424
0.20487851 -0.29128987 0.79113454
0.20728685 -0.29075807 0.7896902
0.20968638 -0.29022819 0.78825104
0.2120772 -0.28970024 0.78681713
0.21445933 -0.2891742 0.78538847
0.21683285 -0.2886501 0.78396499
0.21919775 -0.28812787 0.78254664
0.22155413 -0.28760755 0.78113347
0.223902 -0.28708908 0.77972531
0.22624144 -0.28657249 0.77832228
0.22857246 -0.28605774 0.77692425
0.23089512 -0.28554484 0.77553123
0.23320946 -0.28503379 0.77414322
0.23551553 -0.28452456 0.77276015
0.23781337 -0.28401712 0.77138197
0.24010307 -0.28351152 0.7700088
0.24238461 -0.28300774 0.76864052
0.24465793 -0.28250557 0.76727664
0.2495998 -0.28506207 0.77422005
0.25483197 -0.28789127 0.78190404
0.26016903 -0.29077715 0.78974205
0.26561418 -0.2937215 0.79773879
0.13993283 -0.28679302 0.78644705
0.14243153 -0.28624588 0.78494668
0.14492071 -0.28570083 0.78345203
0.14740042 -0.28515783 0.78196305
0.14987074 -0.28461692 0.78047973
0.15233171 -0.28407803 0.77900201
0.15478337 -0.2835412 0.7775299
0.15722577 -0.2830064 0.77606332
0.15965898 -0.28247359 0.77460229
0.16208306 -0.28194281 0.77314675
0.16449802 -0.28141397 0.77169657
0.16690396 -0.28088716 0.77025193
0.1693009 -0.28036231 0.76881266
0.17168891 -0.27983943 0.76737881
0.17406803 -0.27931848 0.76595026
0.17643829 -0.27879944 0.76452696
0.17879976 -0.27828234 0.76310897
0.18115249 -0.27776715 0.76169622
0.18349653 -0.27725387 0.76028872
0.1858319 -0.27674249 0.75888634
0.18815869 -0.27623299 0.7574892
0.19047694 -0.27572536 0.7560972
0.19278668 -0.27521962 0.75471032
0.19508797 -0.27471569 0.7533285
0.1983999 -0.2756294 0.75583404
0.20242326 -0.27749413 0.76094759
0.2065033 -0.27938682 0.76613772
0.21064006 -0.28130639 0.77140158
0.21483405 -0.28325254 0.77673829
0.21908647 -0.28522578 0.78214937
0.22177213 -0.2851356 0.78190207
0.2241219 -0.28462106 0.78049111
0.22646326 -0.28410846 0.7790854
0.22879615 -0.28359762 0.77768463
0.23112068 -0.28308865 0.77628887
0.23343688 -0.28258151 0.77489817
0.23574479 -0.28207612 0.77351236
0.23804447 -0.28157261 0.77213156
0.24033596 -0.28107086 0.77075571
0.24261928 -0.28057089 0.76938468
0.24518012 -0.28039935 0.76891428
0.25033244 -0.28316292 0.7764926
0.25558743 -0.28598163 0.78422201
0.26094809 -0.28885698 0.79210687
0.14007863 -0.284318 0.78726649
0.14257966 -0.28377503 0.78576303
0.14507113 -0.28323412 0.78426528
0.14755316 -0.28269529 0.78277326
0.15002573 -0.28215849 0.78128684
0.15248892 -0.28162369 0.77980602
0.15494281 -0.28109095 0.77833086
0.15738744 -0.28056023 0.77686131
0.15982285 -0.2800315 0.7753973
0.16224907 -0.27950472 0.77393866
0.16466622 -0.27897996 0.77248561
0.16707429 -0.27845716 0.771038
0.16947336 -0.27793631 0.7695958
0.17186347 -0.27741742 0.76815897
0.17424466 -0.27690041 0.76672745
0.176617 -0.2763854 0.76530135
0.17898053 -0.27587226 0.76388049
0.18133532 -0.27536103 0.76246494
0.18368138 -0.27485171 0.76105464
0.18601875 -0.27434421 0.7596494
0.18834755 -0.27383864 0.75824946
0.19066776 -0.27333489 0.75685465
0.19297945 -0.27283302 0.75546497
0.19528267 -0.27233297 0.75408036
0.19757746 -0.27183476 0.75270081
0.19986387 -0.27133837 0.75132632
0.20214194 -0.27084377 0.74995685
0.20441175 -0.27035102 0.74859238
0.20667331 -0.26986006 0.74723291
0.20892662 -0.26937079 0.74587822
0.21117182 -0.26888338 0.74452853
0.2134089 -0.26839769 0.74318373
0.21563792 -0.26791379 0.74184376
0.21785891 -0.26743159 0.74050862
0.2200719 -0.26695111 0.73917818
0.22227697 -0.2664724 0.73785263
0.22616677 -0.26800108 0.74208552
0.23095809 -0.27055091 0.74914587
0.23584144 -0.2731497 0.75634181
0.2408195 -0.27579886 0.7636773
0.24589479 -0.27849963 0.7711556
0.25106943 -0.28125265 0.77877861
0.25634739 -0.28406063 0.7865538
0.2617318 -0.28692523 0.79448581
0.14022475 -0.28183788 0.78808779
0.14272809 -0.28129905 0.7865811
0.14522189 -0.28076231 0.78508025
0.14770618 -0.2802276 0.78358507
0.15018103 -0.27969491 0.78209555
0.15264647 -0.27916425 0.78061169
0.15510261 -0.27863565 0.77913356
0.15754944 -0.27810901 0.77766091
0.15998703 -0.27758434 0.77619386
0.16241546 -0.27706167 0.77473229
0.16483474 -0.27654094 0.77327621
0.16724497 -0.2760222 0.77182567
0.16964617 -0.27550539 0.77038056
0.17203839 -0.2749905 0.76894081
0.17442167 -0.27447751 0.76750636
0.17679609 -0.27396646 0.76607734
0.17916168 -0.27345729 0.76465362
0.18151851 -0.27295005 0.76323521
0.18386661 -0.27244467 0.76182204
0.18620598 -0.27194113 0.760414
0.18853676 -0.27143946 0.75901121
0.19085898 -0.27093965 0.75761366
0.19317262 -0.27044168 0.75622118
0.19547778 -0.26994553 0.75483382
0.19777451 -0.26945117 0.75345153
0.20006283 -0.26895863 0.75207424
0.20234279 -0.2684679 0.75070202
0.20461449 -0.26797897 0.74933487
0.2068779 -0.26749182 0.74797267
0.20913309 -0.2670064 0.74661529
0.21138011 -0.26652277 0.74526292
0.21361905 -0.26604089 0.74391556
0.21584988 -0.26556078 0.74257296
0.21807265 -0.26508233 0.74123514
0.22028746 -0.26460564 0.7399022
0.22249427 -0.26413062 0.73857397
0.22680283 -0.2661328 0.74417251
0.23161383 -0.26867205 0.75127286
0.23651747 -0.27126017 0.75850987
0.24151655 -0.27389866 0.76588774
0.24661371 -0.27658886 0.7734102
0.25181076 -0.27933106 0.7810781
0.25711191 -0.28212819 0.78889954
0.26252022 -0.28498188 0.79687911
0.14037117 -0.27935255 0.78891069
0.14287685 -0.27881792 0.7874009
0.14537296 -0.27828535 0.7858969
0.14785954 -0.27775484 0.78439867
0.15033665 -0.2772263 0.78290606
0.15280436 -0.27669978 0.7814191
0.15526271 -0.27617526 0.7799378
0.15771176 -0.27565274 0.77846217
0.16015157 -0.27513218 0.77699208
0.16258217 -0.27461359 0.77552754
0.16500363 -0.27409694 0.77406847
0.16741601 -0.27358225 0.77261496
0.16981933 -0.27306947 0.77116686
0.17221366 -0.27255863 0.76972419
0.17459904 -0.27204967 0.76828682
0.17697553 -0.27154261 0.76685488
0.17934319 -0.27103746 0.7654283
0.18170206 -0.27053419 0.76400703
0.18405217 -0.27003276 0.76259094
0.18639359 -0.26953319 0.7611801
0.18872637 -0.26903546 0.75977451
0.19105054 -0.26853958 0.75837409
0.19336617 -0.26804551 0.75697887
0.19567329 -0.26755327 0.75558871
0.19797193 -0.26706281 0.75420362
0.20026219 -0.26657417 0.75282371
0.20254408 -0.26608732 0.75144875
0.20481764 -0.26560223 0.75007886
0.20708293 -0.2651189 0.74871391
0.20933999 -0.26463735 0.74735397
0.21158884 -0.2641575 0.74599886
0.21382959 -0.26367944 0.74464875
0.21606223 -0.26320308 0.74330348
0.21828681 -0.26272845 0.74196309
0.2205034 -0.26225552 0.74062753
0.22271201 -0.26178429 0.73929673
0.2274425 -0.264254 0.74627137
0.23227328 -0.26678246 0.75341189
0.23719743 -0.2693598 0.76069045
0.24221759 -0.27198735 0.76811087
0.24733666 -0.27466667 0.77567744
0.2525565 -0.27739811 0.78339124
0.25788096 -0.28018418 0.79125929
0.26331344 -0.28302675 0.7992869
0.14051791 -0.27686203 0.78973532
0.1430259 -0.2763316 0.78822237
0.14552434 -0.27580327 0.78671527
0.14801322 -0.2752769 0.78521389
0.15049261 -0.27475256 0.78371817
0.15296257 -0.27423018 0.78222817
0.15542316 -0.27370983 0.78074384
0.15787445 -0.27319142 0.77926517
0.16031645 -0.27267498 0.77779204
0.16274923 -0.27216047 0.77632439
0.16517286 -0.27164793 0.77486241
0.16758737 -0.2711373 0.77340585
0.16999283 -0.2706286 0.77195477
0.17238928 -0.27012181 0.77050918
0.17477676 -0.26961687 0.7690689
0.17715535 -0.26911384 0.76763403
0.17952506 -0.26861268 0.76620454
0.18188599 -0.26811343 0.7647804
0.18423814 -0.26761597 0.76336145
0.18658157 -0.26712036 0.76194775
0.18891636 -0.26662663 0.76053935
0.1912425 -0.26613468 0.75913608
0.19356009 -0.26564455 0.75773805
0.19586919 -0.26515627 0.75634521
0.19816975 -0.26466969 0.75495726
0.20046192 -0.26418492 0.75357455
0.20274574 -0.26370198 0.75219691
0.20502119 -0.26322076 0.75082427
0.20728835 -0.2627413 0.74945664
0.20954727 -0.26226357 0.74809396
0.211798 -0.26178759 0.74673623
0.21404056 -0.26131332 0.74538344
0.21627501 -0.26084077 0.74403548
0.2185014 -0.26036993 0.74269247
0.22071975 -0.25990078 0.74135423
0.22332636 -0.2598944 0.74133605
0.22808579 -0.26236457 0.74838209
0.23293652 -0.26488209 0.7555632
0.23788127 -0.26744843 0.76288354
0.24292274 -0.27006495 0.770347
0.24806377 -0.27273309 0.7779578
0.25330663 -0.27545366 0.78571802
0.25865465 -0.27822849 0.79363316
0.26411146 -0.2810598 0.80170929
0.13814493 -0.27489445 0.79208356
0.14066494 -0.27436626 0.79056168
0.14317529 -0.2738401 0.78904557
0.14567602 -0.27331597 0.78753531
0.14816719 -0.2727938 0.78603077
0.15064886 -0.27227363 0.78453195
0.15312111 -0.27175549 0.78303891
0.15558395 -0.27123925 0.78155148
0.15803745 -0.27072504 0.78006977
0.16048166 -0.27021271 0.7785936
0.16291665 -0.26970235 0.77712297
0.16534245 -0.26919389 0.77565795
0.16775912 -0.26868737 0.77419841
0.17016672 -0.26818275 0.77274442
0.17256528 -0.26767999 0.77129579
0.17495486 -0.26717913 0.76985258
0.17733553 -0.26668015 0.7684148
0.17970732 -0.26618302 0.76698238
0.18207029 -0.26568776 0.76555532
0.18442449 -0.26519433 0.76413357
0.18676993 -0.26470271 0.76271701
0.18910672 -0.26421294 0.76130575
0.19143486 -0.26372495 0.75989968
0.19375443 -0.26323879 0.75849885
0.19606547 -0.26275441 0.75710315
0.19836801 -0.26227182 0.75571257
0.20066209 -0.26179093 0.754327
0.20294777 -0.26131183 0.7529465
0.20522514 -0.26083452 0.75157118
0.20749418 -0.26035893 0.75020081
0.20975497 -0.25988507 0.74883544
0.21200754 -0.25941294 0.74747503
0.21425194 -0.25894254 0.74611956
0.21648821 -0.25847381 0.74476898
0.21871643 -0.25800681 0.74342334
0.22093655 -0.25754142 0.74208242
0.22395381 -0.25800526 0.74341893
0.22873271 -0.26046443 0.75050473
0.23360357 -0.26297086 0.75772685
0.23856908 -0.26552603 0.76508933
0.24363197 -0.26813129 0.77259612
0.24879524 -0.27078819 0.78025174
0.25406125 -0.27349764 0.78805876
0.25943297 -0.27626106 0.79602134
0.26491433 -0.27908087 0.80414635
0.13828991 -0.2723892 0.79291487
0.14081228 -0.27186531 0.79138976
0.14332497 -0.27134338 0.7898705
0.14582802 -0.27082348 0.78835708
0.14832151 -0.27030557 0.78684944
0.15080546 -0.26978961 0.78534746
0.15327998 -0.26927564 0.78385133
0.15574506 -0.26876357 0.78236079
0.15820079 -0.26825351 0.78087598
0.16064721 -0.26774535 0.77939677
0.16308439 -0.26723912 0.77792311
0.16551235 -0.26673478 0.77645504
0.1679312 -0.2662324 0.77499259
0.17034094 -0.26573187 0.77353555
0.17274162 -0.26523322 0.772084
0.17513333 -0.26473641 0.77063787
0.17751609 -0.26424149 0.76919717
0.17988995 -0.26374841 0.76776183
0.18225497 -0.26325718 0.76633185
0.18461122 -0.26276779 0.76490724
0.18695869 -0.26228017 0.76348782
0.18929748 -0.26179439 0.7620737
0.19162761 -0.26131037 0.76066476
0.19394915 -0.26082817 0.75926107
0.19626214 -0.26034772 0.75786257
0.19856663 -0.25986907 0.75646919
0.20086265 -0.25939217 0.75508094
0.20315024 -0.25891697 0.75369769
0.20542951 -0.25844356 0.75231963
0.20770042 -0.25797185 0.75094646
0.20996307 -0.25750187 0.74957836
0.21221749 -0.25703362 0.74821526
0.21446373 -0.25656703 0.74685711
0.21670184 -0.25610217 0.7455039
0.21893184 -0.25563896 0.74415553
0.2211538 -0.25517747 0.7428121
0.22458479 -0.25610545 0.74551344
0.2293833 -0.25855345 0.75263941
0.23427443 -0.26104864 0.75990289
0.23926084 -0.26359245 0.76730782
0.24434541 -0.26618636 0.77485853
0.24953102 -0.26883176 0.78255922
0.25482038 -0.27152991 0.79041344
0.260216 -0.27428171 0.79842389
0.1384352 -0.26987872 0.7937479
0.14095993 -0.26935908 0.79221958
0.14347497 -0.26884145 0.79069716
0.14598034 -0.26832578 0.78918052
0.14847614 -0.2678121 0.78766972
0.15096238 -0.26730037 0.78616464
0.15343916 -0.26679063 0.78466541
0.15590651 -0.2662828 0.78317183
0.15836447 -0.2657769 0.78168392
0.16081312 -0.26527292 0.78020167
0.16325247 -0.26477081 0.77872491
0.16568264 -0.26427066 0.77725387
0.16810364 -0.26377237 0.77578837
0.17051552 -0.26327595 0.77432835
0.17291833 -0.26278141 0.77287382
0.17531216 -0.26228872 0.77142477
0.177697 -0.26179788 0.76998109
0.18007293 -0.26130885 0.76854283
0.18244003 -0.26082167 0.76710993
0.1847983 -0.26033628 0.7656824
0.18714781 -0.25985274 0.76426017
0.18948862 -0.25937095 0.76284319
0.19182076 -0.25889096 0.76143146
0.19414428 -0.25841272 0.76002496
0.1964592 -0.25793624 0.75862354
0.19876564 -0.25746152 0.75722736
0.2010636 -0.25698858 0.75583637
0.20335312 -0.25651735 0.75445038
0.20563427 -0.25604782 0.75306946
0.20790708 -0.25558004 0.75169367
0.21017161 -0.25511396 0.75032288
0.21242787 -0.25464955 0.74895698
0.21467595 -0.25418687 0.74759614
0.21691589 -0.25372586 0.74624026
0.21914768 -0.25326648 0.7448892
0.22137146 -0.25280881 0.74354315
0.22521932 -0.25419492 0.74761981
0.23003761 -0.25663155 0.75478631
0.23494913 -0.25911534 0.7620914
0.23995665 -0.26164764 0.76953924
0.24506298 -0.26422992 0.77713406
0.25027111 -0.26686367 0.78488028
0.25558406 -0.26955041 0.79278231
0.26100376 -0.27229041 0.80084103
0.13858078 -0.26736292 0.79458266
0.14110789 -0.26684758 0.79305112
0.14362527 -0.26633424 0.79152548
0.14613299 -0.26582289 0.79000574
0.1486311 -0.26531345 0.78849179
0.15111963 -0.26480597 0.78698355
0.15359868 -0.26430044 0.78548115
0.15606828 -0.26379684 0.78398448
0.15852848 -0.26329514 0.78249347
0.16097936 -0.26279536 0.78100818
0.16342093 -0.26229748 0.7795285
0.16585326 -0.26180142 0.7780543
0.16827643 -0.2613073 0.77658576
0.17069046 -0.26081502 0.77512276
0.17309541 -0.2603246 0.77366525
0.17549133 -0.25983602 0.77221322
0.17787829 -0.25934929 0.77076668
0.18025632 -0.25886434 0.76932549
0.18262546 -0.25838119 0.76788962
0.18498577 -0.25789988 0.76645917
0.18733731 -0.25742033 0.76503402
0.18968013 -0.25694257 0.76361418
0.19201426 -0.2564666 0.76219958
0.19433978 -0.25599238 0.76079029
0.19665669 -0.25551993 0.75938612
0.19896507 -0.2550492 0.75798714
0.20126495 -0.25458017 0.75659323
0.20355639 -0.25411287 0.7552045
0.20583946 -0.25364733 0.7538209
0.20811415 -0.25318345 0.7524423
0.21038054 -0.25272128 0.75106877
0.21263868 -0.2522608 0.74970025
0.2148886 -0.25180197 0.74833667
0.21713035 -0.25134483 0.74697804
0.21936397 -0.25088933 0.74562436
0.22158952 -0.2504355 0.74427557
0.22585745 -0.25227353 0.7497381
0.23069568 -0.25469869 0.75694549
0.23562774 -0.25717086 0.76429254
0.24065651 -0.25969148 0.77178371
0.2457848 -0.26226199 0.77942306
0.25101566 -0.26488391 0.78721523
0.2563521 -0.26755875 0.79516464
0.26179633 -0.27028701 0.80327284
0.13872668 -0.26484185 0.79541922
0.14125617 -0.26433083 0.79388446
0.1437759 -0.26382181 0.7923556
0.14628595 -0.26331472 0.79083264
0.14878638 -0.26280957 0.78931552
0.1512772 -0.26230633 0.78780413
0.15375854 -0.26180509 0.78629863
0.1562304 -0.26130572 0.78479886
0.15869284 -0.26080823 0.78330475
0.16114594 -0.26031268 0.78181636
0.16358972 -0.25981897 0.78033358
0.16602425 -0.25932714 0.77885646
0.16844958 -0.25883716 0.77738488
0.17086574 -0.258349 0.77591878
0.17327285 -0.25786275 0.77445835
0.17567089 -0.25737828 0.77300334
0.17805994 -0.25689563 0.77155375
0.18044005 -0.2564148 0.77010965
0.18281126 -0.25593576 0.76867092
0.18517363 -0.2554585 0.76723754
0.18752721 -0.25498304 0.76580948
0.18987204 -0.25450933 0.76438677
0.19220817 -0.25403738 0.76296932
0.19453566 -0.25356716 0.7615571
0.19685455 -0.2530987 0.76015013
0.19916488 -0.25263196 0.75874835
0.20146672 -0.25216696 0.75735176
0.20376009 -0.25170365 0.75596023
0.20604503 -0.25124201 0.75457376
0.20832163 -0.2507821 0.75319248
0.21058989 -0.25032383 0.75181615
0.21284989 -0.24986726 0.75044489
0.21510166 -0.24941234 0.74907863
0.21734525 -0.24895911 0.74771738
0.2195807 -0.2485075 0.74636102
0.22180802 -0.24805748 0.74500948
0.22649921 -0.25034124 0.75186843
0.23135747 -0.25275469 0.75911695
0.23631029 -0.25521511 0.76650649
0.24136043 -0.25772384 0.77404118
0.24651088 -0.26028243 0.78172559
0.2517646 -0.26289231 0.78956401
0.25712478 -0.26555508 0.79756135
0.26259372 -0.26827142 0.80571949
0.13887286 -0.26231539 0.79625732
0.14140473 -0.26180875 0.7947194
0.14392681 -0.26130402 0.79318732
0.14643922 -0.26080129 0.7916612
0.14894198 -0.26030046 0.79014099
0.15143512 -0.25980154 0.78862655
0.15391873 -0.25930452 0.78711784
0.15639286 -0.25880942 0.78561491
0.15885754 -0.25831619 0.7841177
0.16131286 -0.25782484 0.78262621
0.16375886 -0.25733534 0.78114039
0.16619557 -0.25684771 0.77966017
0.16862309 -0.25636193 0.77818561
0.17104143 -0.25587797 0.77671653
0.17345066 -0.25539586 0.77525306
0.17585081 -0.25491551 0.77379501
0.17824197 -0.254437 0.7723425
0.18062416 -0.25396028 0.77089542
0.18299745 -0.25348535 0.76945376
0.18536188 -0.25301218 0.76801747
0.18771748 -0.2525408 0.76658654
0.19006436 -0.25207117 0.76516098
0.19240248 -0.25160325 0.7637406
0.19473195 -0.25113705 0.76232553
0.19705281 -0.25067261 0.7609157
0.19936511 -0.2502099 0.75951111
0.20166887 -0.24974886 0.75811166
0.20396417 -0.24928954 0.75671738
0.20625104 -0.24883191 0.75532824
0.20852953 -0.24837594 0.75394416
0.21079966 -0.24792163 0.75256509
0.21306151 -0.24746896 0.75119102
0.21531513 -0.24701798 0.74982208
0.21756056 -0.24656864 0.74845809
0.21979782 -0.24612091 0.74709904
0.22235869 -0.24604186 0.74685907
0.22714463 -0.24839793 0.75401092
0.23202309 -0.25079951 0.76130092
0.23699677 -0.25324798 0.7687332
0.24206851 -0.2557447 0.77631199
0.24724129 -0.25829118 0.78404182
0.25251806 -0.26088881 0.79192698
0.25790206 -0.26353925 0.79997236
0.26339597 -0.26624349 0.80818105
0.14155351 -0.25928116 0.79555553
0.14407799 -0.25878084 0.79402041
0.14659272 -0.25828239 0.79249102
0.14909779 -0.25778589 0.79096758
0.15159325 -0.25729132 0.78945005
0.15407915 -0.2567986 0.78793824
0.15655556 -0.25630778 0.78643227
0.15902252 -0.25581884 0.78493208
0.16148008 -0.25533175 0.78343749
0.1639283 -0.25484651 0.78194863
0.16636723 -0.25436312 0.78046542
0.16879693 -0.25388154 0.77898782
0.17121744 -0.25340182 0.77751583
0.17362882 -0.25292388 0.77604938
0.17603111 -0.25244772 0.77458841
0.17842439 -0.25197336 0.77313292
0.18080865 -0.25150076 0.7716828
0.18318401 -0.25102994 0.77023822
0.1855505 -0.25056088 0.76879901
0.18790814 -0.25009358 0.76736516
0.19025703 -0.24962802 0.76593667
0.19259718 -0.24916419 0.76451349
0.19492865 -0.24870206 0.76309556
0.19725145 -0.24824163 0.76168281
0.19956572 -0.24778295 0.76027542
0.20187142 -0.24732591 0.75887311
0.20416865 -0.24687059 0.75747603
0.20645744 -0.24641694 0.75608408
0.20873784 -0.24596496 0.75469726
0.21100987 -0.24551463 0.75331551
0.21327361 -0.24506596 0.75193882
0.21552904 -0.24461885 0.75056696
0.2177763 -0.24417342 0.74920028
0.22001539 -0.24372962 0.74783856
0.22298805 -0.24409936 0.74897301
0.22779372 -0.2464435 0.75616556
0.23269252 -0.24883306 0.76349747
0.23768727 -0.2512694 0.77097297
0.24278076 -0.2537539 0.77859616
0.24797598 -0.25628802 0.78637165
0.25327605 -0.25887328 0.79430407
0.2586841 -0.26151127 0.80239815
0.26420316 -0.26420316 0.8106578
0.14422944 -0.25625229 0.79485506
0.14674653 -0.25575823 0.79332256
0.14925395 -0.2552661 0.79179603
0.15175171 -0.25477582 0.79027522
0.15423991 -0.25428742 0.7887603
0.15671858 -0.2538009 0.78725117
0.15918778 -0.25331622 0.78574777
0.16164759 -0.25283343 0.7842502
0.16409801 -0.25235239 0.78275818
0.16653915 -0.25187325 0.78127193
0.16897102 -0.25139591 0.7797913
