# .PCD v0.7 - Point Cloud Data file format
VERSION 0.7
FIELDS x y z
SIZE 4 4 4
TYPE F F F
COUNT 1 1 1
WIDTH 1379
HEIGHT 1
VIEWPOINT 0 0 0 1 0 0 0
POINTS 1379
DATA ascii
-0.11588024 -0.25814906 0.65126729
-0.11380024 -0.25863689 0.65249807
-0.11171234 -0.25912654 0.65373337
-0.10961653 -0.2596181 0.65497345
-0.10751275 -0.26011151 0.65621823
-0.10540096 -0.26060677 0.65746772
-0.10328111 -0.26110393 0.65872198
-0.10115317 -0.261603 0.65998107
-0.17901887 -0.28312913 0.72069407
-0.17440292 -0.27979749 0.71221352
-0.16989432 -0.27654332 0.70393014
-0.16548942 -0.27336401 0.69583732
-0.16118462 -0.27025694 0.68792838
-0.15776128 -0.26855543 0.68359733
-0.1555735 -0.26893714 0.68456894
-0.1533784 -0.26931798 0.68553835
-0.15117709 -0.26969993 0.68651056
-0.14105463 -0.25573319 0.65095878
-0.13728519 -0.25301319 0.64403516
-0.13453238 -0.25210688 0.64172816
-0.13247027 -0.25248605 0.64269334
-0.13040194 -0.25286636 0.64366138
-0.12832737 -0.2532478 0.64463234
-0.12624653 -0.25363043 0.64560628
-0.12415939 -0.25401416 0.64658308
-0.12206592 -0.25439909 0.64756286
-0.11996612 -0.25478518 0.64854568
-0.11785993 -0.25517246 0.64953148
-0.11574731 -0.2555609 0.65052021
-0.11362828 -0.25595057 0.65151209
-0.11150275 -0.25634137 0.65250689
-0.1094002 -0.25680256 0.65368086
-0.10730018 -0.25728968 0.65492076
-0.10519216 -0.25777861 0.6561653
-0.10307612 -0.25826937 0.65741456
-0.10095201 -0.25876206 0.65866864
-0.18391822 -0.28423727 0.73006243
-0.1791846 -0.28084961 0.72136128
-0.17456247 -0.27754176 0.71286505
-0.17004795 -0.27431092 0.70456666
-0.16563731 -0.2711544 0.69645917
-0.16132705 -0.26806974 0.68853623
-0.15799937 -0.26654854 0.68462902
-0.15581746 -0.2669431 0.68564242
-0.15362692 -0.26733503 0.68664908
-0.15142991 -0.26772809 0.68765867
-0.14117247 -0.25365135 0.65150261
-0.13739873 -0.25095141 0.64456785
-0.13469212 -0.25014248 0.64249015
-0.13262779 -0.25051916 0.64345759
-0.13055724 -0.25089696 0.64442796
-0.12848043 -0.2512759 0.64540124
-0.12639734 -0.25165597 0.6463775
-0.12430793 -0.25203717 0.64735663
-0.1222122 -0.25241959 0.64833885
-0.12011008 -0.25280312 0.64932394
-0.11800158 -0.25318787 0.65031213
-0.11588664 -0.25357375 0.65130329
-0.11376525 -0.25396082 0.6522975
-0.11163737 -0.25434905 0.65329468
-0.10950298 -0.25473851 0.65429497
-0.10736203 -0.25512913 0.65529829
-0.10521452 -0.255521 0.65630478
-0.1030604 -0.25591403 0.6573143
-0.10089964 -0.25630829 0.65832692
-0.22189167 -0.27768159 0.71973765
-0.21974096 -0.27816918 0.72100151
-0.21758264 -0.27865848 0.72226971
-0.21541674 -0.2791495 0.72354245
-0.18409073 -0.28192917 0.73074716
-0.17935064 -0.27856588 0.72202975
-0.17472231 -0.27528194 0.71351784
-0.17020221 -0.27207506 0.7052058
-0.16578633 -0.26894227 0.69708574
-0.16147071 -0.26588035 0.68914938
-0.15816604 -0.264415 0.68535125
-0.15599038 -0.26482087 0.68640327
-0.15380564 -0.26522389 0.68744791
-0.14514974 -0.25430235 0.65913975
-0.1412892 -0.2515637 0.65204132
-0.13751249 -0.24888624 0.64510149
-0.13485225 -0.24817346 0.64325398
-0.13278569 -0.24854758 0.64422369
-0.13071291 -0.24892285 0.64519638
-0.12863386 -0.24929926 0.64617199
-0.1265485 -0.24967678 0.64715052
-0.12445684 -0.25005549 0.64813209
-0.12235881 -0.25043532 0.64911664
-0.12025439 -0.25081632 0.65010411
-0.11814357 -0.25119847 0.65109468
-0.1160263 -0.25158179 0.65208822
-0.11390256 -0.25196627 0.65308475
-0.11177233 -0.25235197 0.65408444
-0.10963555 -0.2527388 0.65508711
-0.10749222 -0.25312683 0.65609288
-0.1053423 -0.25351608 0.65710181
-0.10318575 -0.25390652 0.65811378
-0.10102252 -0.25429806 0.65912867
-0.22148675 -0.27464357 0.7184242
-0.21933925 -0.27512497 0.71968347
-0.2171842 -0.27560803 0.72094709
-0.21502158 -0.2760928 0.72221518
-0.21285132 -0.27657926 0.72348768
-0.21067341 -0.27706745 0.7247647
-0.20848779 -0.27755737 0.72604626
-0.20629446 -0.27804905 0.72733241
-0.20409331 -0.27854243 0.72862303
-0.20188434 -0.27903759 0.7299183
-0.1996675 -0.27953449 0.7312181
-0.19744276 -0.2800332 0.73252261
-0.19521007 -0.28053367 0.73383182
-0.19296937 -0.28103593 0.73514563
-0.18426359 -0.27961677 0.73143333
-0.17951708 -0.27627805 0.72269976
-0.17488211 -0.27301741 0.7141704
-0.17035551 -0.26983318 0.705841
-0.165934 -0.26672354 0.69770664
-0.16161324 -0.26368475 0.6897577
-0.15826011 -0.26215604 0.68575883
-0.15609156 -0.26257262 0.68684852
-0.15391389 -0.26298672 0.68793172
-0.14527047 -0.25218952 0.659688
-0.14140752 -0.24947506 0.65258735
-0.13762642 -0.24681763 0.64563596
-0.13501275 -0.2461997 0.64401954
-0.13294399 -0.24657135 0.6449917
-0.13086897 -0.24694405 0.64596665
-0.12878767 -0.2473179 0.64694458
-0.12670004 -0.2476929 0.6479255
-0.1246061 -0.24806902 0.64890939
-0.12250578 -0.24844629 0.64989626
-0.12039906 -0.24882472 0.65088618
-0.11828591 -0.24920429 0.65187907
-0.1161663 -0.24958502 0.65287501
-0.11404022 -0.24996693 0.65387404
-0.1119076 -0.25035 0.65487605
-0.10976844 -0.25073424 0.65588117
-0.10762272 -0.25111967 0.65688944
-0.10547038 -0.2515063 0.65790075
-0.10331138 -0.25189403 0.65891504
-0.10114571 -0.25228298 0.65993243
-0.2210833 -0.27161664 0.71711558
-0.21893901 -0.27209184 0.7183702
-0.2167872 -0.2725687 0.71962923
-0.21462786 -0.27304727 0.72089273
-0.21246089 -0.27352747 0.72216058
-0.2102863 -0.27400941 0.72343296
-0.20810401 -0.27449301 0.72470975
-0.20591402 -0.27497837 0.72599113
-0.20371628 -0.2754654 0.72727704
-0.20151073 -0.27595419 0.72856748
-0.19929735 -0.2764447 0.72986257
-0.19707607 -0.27693695 0.73116219
-0.19484687 -0.27743098 0.73246646
-0.19260971 -0.27792677 0.73377544
-0.19036455 -0.27842435 0.73508912
-0.18811132 -0.27892366 0.73640746
-0.18443644 -0.27729952 0.73211944
-0.17968315 -0.27398494 0.72336835
-0.17504255 -0.27074927 0.71482563
-0.17051134 -0.26759079 0.70648664
-0.16608149 -0.26450014 0.69832683
-0.16175444 -0.26148275 0.69036037
-0.15827464 -0.25976372 0.68582177
-0.15611406 -0.2601901 0.68694752
-0.15394549 -0.26061636 0.68807298
-0.14539401 -0.25007769 0.66024899
-0.14152604 -0.24738292 0.65313435
-0.13774054 -0.2447456 0.64617133
-0.13517365 -0.24422128 0.64478707
-0.13310266 -0.24459034 0.64576143
-0.13102539 -0.2449605 0.64673871
-0.12894183 -0.24533181 0.64771903
-0.12685195 -0.24570422 0.64870226
-0.12475571 -0.24607778 0.64968854
-0.1226531 -0.24645248 0.6506778
-0.12054406 -0.24682832 0.6516701
-0.11842859 -0.2472053 0.65266538
-0.11630664 -0.24758345 0.65366375
-0.1141782 -0.24796274 0.65466517
-0.11204321 -0.2483432 0.65566963
-0.10990167 -0.24872482 0.65667719
-0.10775353 -0.24910761 0.65768784
-0.10559875 -0.24949154 0.65870148
-0.10343732 -0.24987668 0.65971828
-0.1012692 -0.25026298 0.66073817
-0.22689512 -0.2730433 0.72765106
-0.22096114 -0.26894128 0.71671933
-0.21854025 -0.26906979 0.71706182
-0.21639165 -0.26954049 0.7183162
-0.21423554 -0.27001286 0.71957505
-0.21207187 -0.27048689 0.72083831
-0.20990059 -0.27096257 0.72210604
-0.20772164 -0.27143994 0.72337818
-0.20553501 -0.27191898 0.72465485
-0.20334062 -0.27239969 0.72593594
-0.2011385 -0.27288216 0.72722167
-0.19892855 -0.27336633 0.72851193
-0.19671074 -0.2738522 0.72980678
-0.19448504 -0.27433982 0.73110628
-0.1922514 -0.27482918 0.73241037
-0.19000976 -0.27532026 0.73371911
-0.18776014 -0.27581319 0.73503274
-0.18460989 -0.27497837 0.73280799
-0.17985013 -0.27168849 0.72404057
-0.17520291 -0.2684764 0.71548045
-0.17066427 -0.26533934 0.7071203
-0.16623467 -0.26228136 0.69897091
-0.16190073 -0.25928462 0.69098467
-0.15819699 -0.25722107 0.68548536
-0.15604639 -0.257658 0.6866498
-0.15388848 -0.25809643 0.68781817
-0.14551729 -0.24796146 0.66080886
-0.14164476 -0.24528728 0.65368223
-0.13785486 -0.24267012 0.64670759
-0.13533491 -0.24223812 0.64555633
-0.13326168 -0.24260461 0.64653301
-0.13118218 -0.24297221 0.64751267
-0.12909637 -0.24334094 0.64849532
-0.12700421 -0.24371079 0.64948094
-0.1249057 -0.24408177 0.6504696
-0.12280076 -0.24445385 0.65146118
-0.12068941 -0.24482709 0.65245587
-0.11857161 -0.24520148 0.65345359
-0.11644731 -0.24557701 0.65445435
-0.11431649 -0.24595368 0.65545815
-0.11217915 -0.24633153 0.65646511
-0.1100352 -0.24671051 0.65747511
-0.10788464 -0.24709062 0.65848809
-0.10572744 -0.24747193 0.65950423
-0.10356355 -0.24785435 0.66052341
-0.10139298 -0.248238 0.66154581
-0.22716476 -0.27080092 0.72851574
-0.22121976 -0.26672783 0.71755821
-0.21814293 -0.26605871 0.71575814
-0.21599756 -0.2665233 0.71700799
-0.2138447 -0.26698953 0.71826226
-0.2116843 -0.2674574 0.71952093
-0.20951629 -0.2679269 0.72078395
-0.20734066 -0.26839805 0.72205144
-0.20515737 -0.26887083 0.7233234
-0.20296639 -0.26934534 0.7245999
-0.20076765 -0.26982149 0.72588086
-0.1985611 -0.27029932 0.7271663
-0.19634674 -0.27077886 0.72845638
-0.19412453 -0.27126011 0.72975105
-0.19189438 -0.27174306 0.73105031
-0.1896563 -0.27222773 0.73235422
-0.1874103 -0.27271429 0.73366314
-0.18478368 -0.27265286 0.73349786
-0.1800174 -0.26938775 0.72471398
-0.17536393 -0.26619992 0.71613801
-0.1708193 -0.26308665 0.7077626
-0.16637973 -0.26004535 0.69958085
-0.16204165 -0.25707361 0.69158614
-0.15799505 -0.25448057 0.68461031
-0.15586361 -0.25493971 0.68584549
-0.15372162 -0.25539574 0.68707234
-0.14564344 -0.24584614 0.66138172
-0.14176367 -0.2431881 0.65423101
-0.13796936 -0.2405912 0.64724475
-0.13549657 -0.24025021 0.64632744
-0.13342112 -0.24061415 0.6473065
-0.13133936 -0.24097916 0.64828849
-0.12925127 -0.2413453 0.64927346
-0.12715685 -0.24171257 0.65026152
-0.12505603 -0.24208094 0.65125251
-0.12294879 -0.24245042 0.65224648
-0.12083513 -0.24282107 0.6532436
-0.11871498 -0.24319282 0.65424371
-0.11658832 -0.24356571 0.65524685
-0.11445515 -0.24393977 0.65625316
-0.11231541 -0.24431495 0.6572625
-0.11016905 -0.24469125 0.65827483
-0.10801607 -0.24506873 0.65929031
-0.10585643 -0.24544732 0.66030884
-0.10369011 -0.24582712 0.66133058
-0.10151709 -0.24620812 0.66235554
-0.22743502 -0.26855323 0.72938251
-0.22147901 -0.26450923 0.71839911
-0.21774705 -0.26305857 0.71445918
-0.21560489 -0.26351708 0.7157045
-0.21345526 -0.26397723 0.71695423
-0.21129811 -0.26443896 0.71820825
-0.2091334 -0.26490232 0.71946675
-0.20696108 -0.26536727 0.72072959
-0.20478113 -0.26583388 0.7219969
-0.20259349 -0.26630214 0.72326863
-0.20039816 -0.26677206 0.72454494
-0.19819504 -0.26724365 0.72582573
-0.19598413 -0.26771688 0.72711104
-0.19376539 -0.26819181 0.72840095
-0.19153872 -0.26866838 0.72969532
-0.18930414 -0.26914671 0.7309944
-0.18706173 -0.26962692 0.73229861
-0.18481131 -0.27010885 0.73360753
-0.18018501 -0.26708272 0.72538871
-0.17552525 -0.26391926 0.71679682
-0.17097458 -0.26082984 0.70840603
-0.16652924 -0.25781193 0.7002095
-0.16218559 -0.25486308 0.69220048
-0.15794286 -0.25198516 0.68438417
-0.15550305 -0.25193906 0.68425894
-0.15338835 -0.25242651 0.68558282
-0.14576578 -0.24372037 0.66193724
-0.14188281 -0.24108541 0.65478075
-0.13808405 -0.23850882 0.6477828
-0.13565861 -0.23825756 0.64710039
-0.13358091 -0.2386189 0.64808178
-0.13149691 -0.23898134 0.64906615
-0.12940657 -0.23934489 0.65005356
-0.12730984 -0.23970953 0.65104389
-0.12520672 -0.24007528 0.65203726
-0.12309719 -0.24044217 0.65303373
-0.12098118 -0.24081016 0.65403318
-0.1188587 -0.24117929 0.65503573
-0.11672969 -0.24154957 0.65604138
-0.11459414 -0.24192096 0.65705007
-0.11245197 -0.24229342 0.65806168
-0.11030322 -0.24266708 0.65907651
-0.10814781 -0.24304187 0.66009444
-0.10598575 -0.2434178 0.66111547
-0.10381699 -0.24379495 0.66213977
-0.10164148 -0.24417321 0.66316712
-0.22770594 -0.26630017 0.73025131
-0.22173886 -0.26228538 0.71924198
-0.21735261 -0.26006931 0.71316499
-0.21521367 -0.2605218 0.71440583
-0.21306723 -0.26097584 0.71565092
-0.21091333 -0.26143149 0.71690041
-0.2087519 -0.26188877 0.71815431
-0.20658289 -0.26234761 0.71941257
-0.20440626 -0.26280805 0.72067523
-0.20222199 -0.26327014 0.72194237
-0.20003001 -0.26373383 0.72321391
-0.1978303 -0.2641992 0.72448999
-0.19562283 -0.26466617 0.72577059
-0.19340754 -0.26513484 0.72705573
-0.19118437 -0.26560512 0.72834539
-0.18895334 -0.26607716 0.72963977
-0.18671447 -0.26655099 0.73093915
-0.1844676 -0.26702654 0.73224318
-0.1803529 -0.2647734 0.72606462
-0.17568687 -0.26163441 0.71745682
-0.17113018 -0.25856894 0.70905071
-0.16667904 -0.25557452 0.70083934
-0.16232981 -0.25264865 0.69281596
-0.15808216 -0.24979395 0.68498778
-0.15472572 -0.24828079 0.68083841
-0.14986381 -0.24426621 0.66982955
-0.1458918 -0.2415968 0.6625095
-0.14200212 -0.23897916 0.65533137
-0.13819894 -0.23642297 0.64832175
-0.13582104 -0.23626013 0.64787519
-0.1337411 -0.23661886 0.6488589
-0.13165484 -0.23697872 0.64984572
-0.12956221 -0.23733962 0.65083539
-0.12746321 -0.23770165 0.65182817
-0.12535779 -0.2380648 0.65282398
-0.12324593 -0.23842905 0.65382284
-0.12112759 -0.23879439 0.65482467
-0.11900276 -0.23916088 0.65582967
-0.11687139 -0.23952848 0.6568377
-0.11473343 -0.23989716 0.65784872
-0.11258888 -0.24026701 0.65886289
-0.11043771 -0.24063794 0.6598801
-0.10827988 -0.24101007 0.66090053
-0.10611538 -0.24138334 0.66192412
-0.10394416 -0.24175777 0.66295087
-0.10176618 -0.24213333 0.66398078
-0.22797751 -0.26404175 0.73112226
-0.22199932 -0.26005635 0.72008681
-0.21695957 -0.25709081 0.71187538
-0.21482383 -0.25753734 0.71311176
-0.21268064 -0.25798538 0.71435243
-0.21052998 -0.25843501 0.71559739
-0.2083718 -0.25888619 0.71684664
-0.20620607 -0.25933892 0.71810031
-0.20403276 -0.25979328 0.71935838
-0.20185183 -0.26024923 0.72062087
-0.19966324 -0.26070678 0.72188783
-0.19746692 -0.26116592 0.72315919
-0.19526285 -0.26162669 0.72443503
-0.193051 -0.2620891 0.72571546
-0.19083132 -0.26255316 0.72700042
-0.18860385 -0.26301897 0.7282902
-0.1863685 -0.26348647 0.72958475
-0.18412519 -0.26395568 0.73088396
-0.18052112 -0.26245978 0.72674185
-0.1758488 -0.25934535 0.71811807
-0.17128605 -0.25630394 0.70969653
-0.16682908 -0.25333306 0.70147026
-0.16247427 -0.25043029 0.69343257
-0.15822144 -0.24759842 0.68559128
-0.15406057 -0.24482493 0.67791158
-0.14999135 -0.24211203 0.67039961
-0.14601456 -0.23946388 0.66306698
-0.14212163 -0.23686939 0.65588295
-0.13831401 -0.23433365 0.64886159
-0.13598387 -0.23425792 0.6486519
-0.13390167 -0.23461404 0.649638
-0.13181314 -0.23497126 0.65062708
-0.12971824 -0.23532955 0.6516192
-0.12761696 -0.23568897 0.65261441
-0.12550922 -0.23604944 0.65361255
-0.12339503 -0.23641104 0.65461379
-0.12127436 -0.23677374 0.65561813
-0.11914717 -0.23713756 0.65662551
-0.1170134 -0.23750246 0.65763587
-0.11487307 -0.23786847 0.65864938
-0.11272612 -0.23823562 0.659666
-0.11057253 -0.23860389 0.66068572
-0.10841229 -0.23897332 0.66170865
-0.10624532 -0.23934387 0.66273469
-0.10407165 -0.23971559 0.663764
-0.1018912 -0.24008845 0.66479641
-0.23442574 -0.26585713 0.74340165
-0.22824974 -0.26177794 0.73199528
-0.2222604 -0.25782207 0.72093368
-0.21656799 -0.25412312 0.71059054
-0.21443538 -0.25456366 0.71182233
-0.21229541 -0.25500575 0.71305853
-0.21014801 -0.25544935 0.71429902
-0.20799309 -0.25589454 0.71554381
-0.20583065 -0.25634122 0.71679288
-0.20366065 -0.25678954 0.71804643
-0.20148303 -0.25723934 0.7193042
-0.1992978 -0.25769079 0.72056657
-0.19710487 -0.25814378 0.72183329
-0.19490421 -0.25859839 0.72310448
-0.1926958 -0.25905463 0.7243802
-0.19047956 -0.25951242 0.72566032
-0.18825562 -0.25997207 0.72694558
-0.1860238 -0.26043332 0.72823536
-0.18378404 -0.26089621 0.72952974
-0.18068965 -0.26014185 0.72742033
-0.17601101 -0.25705206 0.71878052
-0.17144221 -0.25403479 0.71034354
-0.16697942 -0.25108758 0.70210236
-0.16261901 -0.24820796 0.69405025
-0.1583606 -0.24539849 0.6861943
-0.15419255 -0.2426441 0.67849237
-0.15012431 -0.23996249 0.67099392
-0.14613818 -0.2373284 0.66362834
-0.14224136 -0.23475607 0.65643549
-0.13842927 -0.23224086 0.64940232
-0.13614708 -0.23225091 0.64943045
-0.13406263 -0.2326044 0.65041888
-0.13197182 -0.23295896 0.65141034
-0.12987465 -0.23331465 0.6524049
-0.12777105 -0.23367138 0.65340245
-0.125661 -0.23402922 0.65440303
-0.12354451 -0.23438817 0.65540677
-0.12142149 -0.2347482 0.6564135
-0.11929191 -0.2351093 0.6574232
-0.11715578 -0.23547152 0.65843606
-0.11501304 -0.23583482 0.65945196
-0.11286369 -0.23619926 0.66047102
-0.11070769 -0.23656486 0.6614933
-0.108545 -0.23693155 0.66251868
-0.1063756 -0.2372994 0.66354728
-0.10419944 -0.23766838 0.66457903
-0.23470974 -0.26355675 0.74430227
-0.2285226 -0.2595087 0.73287034
-0.22252209 -0.25558251 0.72178251
-0.21670043 -0.25177333 0.71102512
-0.21404839 -0.25160074 0.71053767
-0.21191162 -0.2520369 0.7117694
-0.20976739 -0.25247452 0.7130053
-0.20761573 -0.25291371 0.71424562
-0.20545655 -0.2533544 0.71549016
-0.20328987 -0.25379667 0.71673912
-0.20111558 -0.25424045 0.71799242
-0.19893369 -0.25468582 0.71925014
-0.19674413 -0.2551327 0.72051221
-0.19454688 -0.2555812 0.72177875
-0.19234189 -0.25603124 0.72304976
-0.19012916 -0.25648296 0.72432542
-0.18790869 -0.25693637 0.72560591
-0.18568039 -0.25739142 0.72689098
-0.18344416 -0.25784808 0.72818059
-0.18085849 -0.25781956 0.72810006
-0.17617354 -0.25475454 0.71944422
-0.17159864 -0.25176153 0.71099174
-0.16713002 -0.24883802 0.7027356
-0.16276398 -0.24598165 0.69466901
-0.1585 -0.24319465 0.68679833
-0.15432668 -0.2404625 0.67908251
-0.15024959 -0.23779657 0.67155379
-0.14626488 -0.23519392 0.6642037
-0.14236128 -0.23263916 0.65698892
-0.13854474 -0.23014458 0.64994401
-0.1363107 -0.23023906 0.65021086
-0.13422398 -0.23058991 0.65120167
-0.13213091 -0.23094185 0.65219557
-0.13003144 -0.23129486 0.65319246
-0.12792553 -0.23164894 0.65419245
-0.12581317 -0.23200412 0.65519547
-0.12369433 -0.23236038 0.6562016
-0.12156893 -0.23271766 0.65721059
-0.119437 -0.23307608 0.65822279
-0.11729848 -0.2334356 0.6592381
-0.11515336 -0.23379622 0.66025651
-0.1130016 -0.23415795 0.66127807
-0.11084317 -0.23452081 0.66230279
-0.10867804 -0.2348848 0.66333073
-0.10650618 -0.23524991 0.66436183
-0.10432755 -0.23561616 0.66539615
-0.23499431 -0.26125064 0.74520469
-0.22879612 -0.25723407 0.73374754
-0.22278437 -0.25333765 0.72263324
-0.21695206 -0.24955755 0.7118507
-0.21366277 -0.24864848 0.7092576
-0.21152918 -0.24907874 0.71048486
-0.20938818 -0.24951047 0.71171635
-0.20723976 -0.24994372 0.7129522
-0.20508385 -0.25037843 0.71419221
-0.20292044 -0.25081471 0.71543664
-0.20074946 -0.25125247 0.71668535
-0.19857091 -0.25169179 0.71793848
-0.19638473 -0.25213265 0.71919602
-0.19419086 -0.25257504 0.72045791
-0.19198929 -0.25301901 0.72172427
-0.18978003 -0.25346461 0.72299534
-0.18756305 -0.25391188 0.72427118
-0.18533821 -0.25436074 0.72555149
-0.18310553 -0.2548112 0.72683644
-0.1808649 -0.25526321 0.72812581
-0.17633635 -0.25245276 0.72010911
-0.17175536 -0.24948408 0.71164107
-0.16728088 -0.2465844 0.70336992
-0.16290922 -0.24375139 0.6952889
-0.15863965 -0.24098697 0.6874035
-0.15446107 -0.23827717 0.67967391
-0.15037929 -0.23563367 0.67213351
-0.14638676 -0.23304772 0.66475719
-0.14248142 -0.2305187 0.6575433
-0.13866039 -0.22804478 0.65048653
-0.13647468 -0.22822237 0.65099311
-0.13438572 -0.22857058 0.65198636
-0.13229036 -0.22891985 0.65298265
-0.13018858 -0.22927018 0.65398192
-0.1280804 -0.2296216 0.65498435
-0.12596571 -0.22997409 0.65598983
-0.12384448 -0.23032759 0.65699816
-0.12171675 -0.23068222 0.65800971
-0.11958244 -0.23103793 0.65902436
-0.11744154 -0.23139472 0.66004211
-0.11529402 -0.23175263 0.66106302
-0.11313985 -0.23211165 0.66208708
-0.11097899 -0.23247179 0.66311437
-0.10881141 -0.23283301 0.66414475
-0.10663708 -0.23319536 0.66517836
-0.10445599 -0.23355889 0.6662153
-0.23527953 -0.25893894 0.74610919
-0.22907031 -0.25495395 0.73462683
-0.22304732 -0.25108755 0.72348613
-0.21720426 -0.24733666 0.71267825
-0.21327853 -0.24570684 0.70798212
-0.2111481 -0.24613121 0.70920491
-0.20901033 -0.2465571 0.71043205
-0.20686513 -0.24698442 0.71166337
-0.20471248 -0.24741325 0.71289897
-0.20255235 -0.24784356 0.71413887
-0.20038468 -0.24827535 0.71538305
-0.19820945 -0.24870867 0.71663159
-0.19602661 -0.2491435 0.71788454
-0.19383612 -0.24957985 0.71914184
-0.19163798 -0.25001776 0.72040361
-0.18943219 -0.25045732 0.72167021
-0.18721867 -0.25089848 0.72294134
-0.18499732 -0.25134119 0.724217
-0.18276815 -0.25178549 0.72549719
-0.18053105 -0.25223133 0.72678185
-0.17649947 -0.25014672 0.72077525
-0.17191239 -0.24720249 0.71229166
-0.16743203 -0.24432674 0.70400548
-0.16305472 -0.24151714 0.69590986
-0.15877958 -0.2387754 0.6880098
-0.15459602 -0.23608848 0.68026769
-0.15050919 -0.23346703 0.67271417
-0.14651491 -0.23090748 0.66533911
-0.14260226 -0.22839549 0.65810102
-0.13877624 -0.22594148 0.65103
-0.13663909 -0.22620083 0.65177733
-0.13454784 -0.22654638 0.65277296
-0.13245019 -0.22689295 0.65377158
-0.13034613 -0.22724062 0.65477335
-0.12823562 -0.22758934 0.65577817
-0.12611857 -0.22793908 0.65678591
-0.12399503 -0.22828992 0.6577968
-0.12186492 -0.22864181 0.65881073
-0.11972825 -0.2289948 0.65982789
-0.11758495 -0.22934887 0.66084808
-0.11543503 -0.22970404 0.66187149
-0.11327843 -0.23006032 0.66289806
-0.11111514 -0.23041771 0.66392785
-0.1089451 -0.23077618 0.66496074
-0.10676832 -0.23113582 0.66599703
-0.10458473 -0.23149654 0.66703641
-0.23556548 -0.2566216 0.74701595
-0.22934458 -0.25266775 0.73550642
-0.22331084 -0.24883208 0.72434092
-0.21745709 -0.24511059 0.71350777
-0.21289568 -0.24277577 0.70671123
-0.21076843 -0.24319434 0.70792967
-0.20863384 -0.24361436 0.70915234
-0.20649184 -0.24403583 0.71037918
-0.20434244 -0.24445875 0.71161032
-0.2021856 -0.24488318 0.7128458
-0.20002122 -0.24530905 0.71408552
-0.19784932 -0.24573641 0.71532953
-0.19566983 -0.24616528 0.71657795
-0.1934827 -0.24659559 0.7178306
-0.19128796 -0.2470275 0.71908784
-0.18908562 -0.24746105 0.72034991
-0.18687555 -0.24789615 0.72161645
-0.18465769 -0.24833275 0.7228874
-0.182432 -0.24877089 0.72416282
-0.18019843 -0.2492106 0.72544277
-0.17666289 -0.24783644 0.72144264
-0.17206968 -0.24491669 0.71294338
-0.16758344 -0.24206497 0.70464212
-0.16320048 -0.2392789 0.69653195
-0.15891956 -0.23655964 0.68861634
-0.15473118 -0.23389597 0.68086249
-0.15063934 -0.23129663 0.67329586
-0.14663741 -0.22875436 0.6658954
-0.14272317 -0.22626846 0.65865904
-0.13889228 -0.22383466 0.65157437
-0.13680388 -0.22417443 0.65256339
-0.13471036 -0.22451727 0.65356141
-0.13261044 -0.22486119 0.65456253
-0.13050407 -0.22520614 0.65556669
-0.12839119 -0.22555208 0.65657371
-0.12627181 -0.22589913 0.65758395
-0.12414593 -0.22624724 0.65859729
-0.12201346 -0.22659642 0.65961373
-0.11987439 -0.22694665 0.66063327
-0.11772871 -0.22729801 0.66165602
-0.11557639 -0.22765045 0.662682
-0.11341735 -0.22800395 0.66371101
-0.11125161 -0.22835857 0.6647433
-0.10907914 -0.22871432 0.66577888
-0.10689987 -0.22907116 0.66681761
-0.10471381 -0.22942911 0.66785961
-0.23585209 -0.25429863 0.74792486
-0.22961903 -0.25037554 0.7363866
-0.22357501 -0.2465713 0.72519779
-0.21771045 -0.2428793 0.71433914
-0.21251419 -0.2398552 0.70544487
-0.21039011 -0.24026799 0.70665896
-0.2082587 -0.2406822 0.70787722
-0.20611992 -0.24109785 0.70909971
-0.20397377 -0.24151495 0.71032643
-0.20182015 -0.24193347 0.71155733
-0.19965906 -0.24235345 0.71279258
-0.19749048 -0.24277492 0.71403217
-0.19531432 -0.24319783 0.715276
-0.19313057 -0.24362223 0.71652418
-0.19093926 -0.24404819 0.71777701
-0.18874034 -0.24447574 0.71903449
-0.18653369 -0.24490477 0.72029632
-0.18431929 -0.24533533 0.72156262
-0.18209708 -0.24576738 0.7228334
-0.17986703 -0.24620098 0.72410864
-0.17682661 -0.24552184 0.72211123
-0.17222728 -0.24262674 0.71359634
-0.16773513 -0.23979911 0.70527995
-0.1633465 -0.23703665 0.69715518
-0.15905942 -0.23433946 0.6892224
-0.15486661 -0.23169965 0.68145835
-0.15076968 -0.22912243 0.67387843
-0.14676291 -0.22660194 0.66646534
-0.14284442 -0.22413799 0.65921855
-0.13905846 -0.22180398 0.65235394
-0.13696906 -0.2221431 0.65335131
-0.13487327 -0.22248326 0.65435177
-0.13277104 -0.22282445 0.65535527
-0.13066234 -0.22316664 0.6563617
-0.12854715 -0.22350991 0.65737128
-0.12642545 -0.22385423 0.65838397
-0.12429719 -0.22419959 0.65939975
-0.12216234 -0.22454602 0.66041863
-0.1200209 -0.22489354 0.66144073
-0.11787283 -0.22524214 0.66246599
-0.11571807 -0.22559181 0.66349441
-0.11355662 -0.22594255 0.66452599
-0.11138844 -0.2262944 0.66556084
-0.10921349 -0.22664735 0.66659892
-0.10703176 -0.22700141 0.66764027
-0.10484318 -0.22735655 0.66868478
-0.23613943 -0.25196999 0.74883604
-0.2298941 -0.24807781 0.73726875
-0.2238398 -0.24430516 0.72605669
-0.21796446 -0.24064283 0.71517253
-0.21226263 -0.23708867 0.70460981
-0.21001315 -0.23735213 0.70539284
-0.20788492 -0.2377606 0.70660675
-0.20574935 -0.23817046 0.70782483
-0.2036064 -0.23858173 0.70904708
-0.20145604 -0.23899443 0.71027362
-0.19929823 -0.23940857 0.7115044
-0.19713293 -0.23982413 0.71273941
-0.1949601 -0.24024116 0.71397877
-0.1927797 -0.24065964 0.71522248
-0.19059183 -0.24107973 0.71647096
-0.18839629 -0.24150129 0.71772379
-0.18619306 -0.24192433 0.71898103
-0.18398212 -0.24234886 0.72024274
-0.1817634 -0.24277489 0.72150886
-0.17953685 -0.2432024 0.72277939
-0.17699064 -0.24320297 0.72278106
-0.17238514 -0.24033257 0.71425045
-0.16788709 -0.23752916 0.70591891
-0.16349278 -0.23479038 0.69777948
-0.15919954 -0.23211536 0.68982953
-0.15500225 -0.22949944 0.68205523
-0.15090027 -0.22694451 0.67446214
-0.14688864 -0.22444585 0.66703629
-0.14296438 -0.2220016 0.65977216
-0.1392263 -0.21977045 0.65314138
-0.13713464 -0.22010687 0.65414119
-0.13503659 -0.22044434 0.6551441
-0.13293201 -0.22078274 0.6561498
-0.130821 -0.22112222 0.65715873
-0.12870349 -0.22146276 0.65817076
-0.12657945 -0.22180434 0.65918595
-0.12444882 -0.22214696 0.66020417
-0.12231161 -0.22249064 0.66122556
-0.12016778 -0.22283539 0.66225016
-0.11801729 -0.2231812 0.66327786
-0.11586012 -0.2235281 0.66430885
-0.11369622 -0.22387607 0.66534299
-0.11152559 -0.22422513 0.66638035
-0.10934819 -0.22457531 0.66742104
-0.10716396 -0.22492655 0.6684649
-0.10497288 -0.22527888 0.66951203
-0.23642746 -0.2496357 0.74974942
-0.23017022 -0.24577497 0.73815423
-0.22410499 -0.24203339 0.72691685
-0.21821903 -0.23840113 0.71600783
-0.21250688 -0.23487602 0.70542061
-0.20963752 -0.2344467 0.70413119
-0.20751248 -0.23484945 0.7053408
-0.20538008 -0.23525356 0.70655447
-0.20324036 -0.23565906 0.70777237
-0.20109324 -0.23606598 0.70899451
-0.19893871 -0.23647432 0.71022087
-0.19677669 -0.23688403 0.71145141
-0.19460717 -0.2372952 0.7126863
-0.19243015 -0.23770784 0.7139256
-0.19024564 -0.23812205 0.71516961
-0.1880535 -0.23853767 0.71641791
-0.18585369 -0.23895475 0.71767056
-0.18364619 -0.2393733 0.71892762
-0.18143092 -0.23979332 0.72018909
-0.17920789 -0.24021482 0.72145504
-0.17697701 -0.24063781 0.72272539
-0.17254332 -0.2380342 0.7149058
-0.16803934 -0.23525508 0.70655906
-0.16363932 -0.23254009 0.69840491
-0.1593399 -0.22988734 0.69043773
-0.15513813 -0.22729541 0.68265319
-0.15103109 -0.22476281 0.67504686
-0.14701457 -0.22228603 0.66760814
-0.1430856 -0.21986324 0.66033161
-0.13939458 -0.21773203 0.65393078
-0.13730064 -0.21806572 0.65493298
-0.13520023 -0.21840039 0.65593809
-0.13309339 -0.2187361 0.65694636
-0.13098006 -0.21907283 0.65795773
-0.12886021 -0.21941061 0.6589722
-0.12673379 -0.21974942 0.65998977
-0.12460081 -0.22008929 0.6610105
-0.12246123 -0.22043023 0.66203445
-0.120315 -0.22077218 0.6630615
-0.11816211 -0.22111525 0.66409183
-0.11600251 -0.22145933 0.66512525
-0.11383618 -0.22180451 0.66616195
-0.11166309 -0.22215077 0.66720194
-0.1094832 -0.22249812 0.66824514
-0.10729648 -0.22284654 0.66929156
-0.1051029 -0.22319606 0.67034131
-0.23671617 -0.24729565 0.75066495
-0.2304471 -0.24346672 0.73904222
-0.22437002 -0.23975539 0.72777653
-0.21847418 -0.23615417 0.71684504
-0.21275169 -0.23265828 0.70623326
-0.20926325 -0.23155165 0.70287406
-0.20714135 -0.2319487 0.70407933
-0.20501216 -0.23234712 0.70528871
-0.20287564 -0.2327469 0.70650226
-0.20073175 -0.23314805 0.70771998
-0.19858046 -0.23355059 0.70894188
-0.19642173 -0.23395455 0.71016806
-0.19425552 -0.23435989 0.71139848
-0.19208187 -0.23476672 0.71263343
-0.18990073 -0.23517507 0.71387297
-0.18771197 -0.23558481 0.71511674
-0.18551557 -0.23599599 0.71636486
-0.18331148 -0.23640859 0.71761733
-0.18109968 -0.23682266 0.71887422
-0.17888013 -0.23723817 0.72013551
-0.17665277 -0.23765516 0.72140127
-0.17270176 -0.23573162 0.71556234
-0.16819187 -0.23297687 0.70720035
-0.16378613 -0.23028575 0.69903147
-0.15948123 -0.22765641 0.69105011
-0.15527426 -0.22508749 0.68325216
-0.15116215 -0.22257733 0.6756326
-0.14714073 -0.22012253 0.66818106
-0.14320704 -0.21772128 0.66089207
-0.13956325 -0.21568866 0.65472203
-0.137467 -0.21601956 0.65572649
-0.13536431 -0.21635151 0.65673411
-0.13325514 -0.21668445 0.65774477
-0.1311395 -0.21701846 0.65875864
-0.12901729 -0.21735346 0.65977556
-0.12688854 -0.21768951 0.66079563
-0.12475319 -0.21802661 0.66181886
-0.12261122 -0.21836475 0.66284531
-0.1204626 -0.21870394 0.66387492
-0.11830728 -0.21904418 0.66490769
-0.11614525 -0.21938546 0.66594368
-0.11397648 -0.21972786 0.66698301
-0.11180092 -0.22007129 0.66802549
-0.10961855 -0.2204158 0.66907126
-0.10742935 -0.2207614 0.67012036
-0.10523326 -0.22110808 0.67117268
-0.23700559 -0.24494992 0.7515828
-0.23072463 -0.24115285 0.73993224
-0.22463568 -0.23747201 0.72863823
-0.21872996 -0.23390198 0.71768427
-0.21299708 -0.23043543 0.70704782
-0.20889032 -0.22866692 0.70162147
-0.20677155 -0.22905831 0.70282239
-0.20464553 -0.22945105 0.70402741
-0.20251222 -0.22984515 0.70523667
-0.20037156 -0.23024061 0.70645005
-0.19822352 -0.23063742 0.70766759
-0.19606806 -0.23103561 0.70888937
-0.19390512 -0.23143515 0.71011525
-0.19173485 -0.23183624 0.71134597
-0.18955703 -0.23223875 0.71258098
-0.18737166 -0.23264265 0.71382028
-0.18517865 -0.23304796 0.71506387
-0.18297799 -0.23345467 0.71631181
-0.18076964 -0.23386282 0.71756411
-0.17855355 -0.23427239 0.71882081
-0.17632969 -0.23468341 0.72008193
-0.17286052 -0.23342478 0.71622008
-0.16834465 -0.23069452 0.70784277
-0.1639332 -0.22802737 0.69965917
-0.15962315 -0.22542199 0.69166505
-0.15541062 -0.2228757 0.6838522
-0.15129341 -0.22038804 0.67621928
-0.1472671 -0.21795532 0.66875494
-0.1433287 -0.21557568 0.66145349
-0.14005511 -0.21413384 0.65702945
-0.13791284 -0.21440232 0.65785325
-0.13576521 -0.21467149 0.65867913
-0.13361217 -0.21494131 0.65950704
-0.13145371 -0.21521182 0.66033703
-0.12928982 -0.21548302 0.66116917
-0.12712044 -0.21575487 0.66200328
-0.12494561 -0.21602745 0.66283965
-0.12276526 -0.2163007 0.66367805
-0.12061054 -0.21663059 0.66469026
-0.11845281 -0.21696801 0.66572559
-0.11628835 -0.21730651 0.6667642
-0.11411712 -0.21764606 0.66780603
-0.11193909 -0.21798664 0.66885108
-0.10975424 -0.21832833 0.66989946
-0.10756253 -0.21867108 0.67095113
-0.10536393 -0.2190149 0.67200607
-0.23729575 -0.24259844 0.75250292
-0.23100284 -0.23883344 0.74082446
-0.22490196 -0.23518319 0.72950196
-0.21898632 -0.23164448 0.71852541
-0.21324301 -0.22820744 0.70786422
-0.2085187 -0.22579244 0.70037329
-0.20640309 -0.22617824 0.70156997
-0.20428023 -0.22656535 0.70277071
-0.20215008 -0.22695377 0.70397556
-0.20001265 -0.22734357 0.70518464
-0.19786784 -0.22773468 0.70639783
-0.19571565 -0.22812715 0.7076152
-0.19355604 -0.228521 0.70883685
-0.19138908 -0.22891635 0.71006316
-0.1892146 -0.22931306 0.7112937
-0.18703258 -0.22971116 0.71252853
-0.18484296 -0.23011062 0.71376759
-0.18264572 -0.2305115 0.71501106
-0.1804408 -0.23091374 0.71625876
-0.17822818 -0.23131743 0.71751094
-0.17600781 -0.23172252 0.71876746
-0.17301954 -0.2311137 0.71687901
-0.16849771 -0.22840801 0.70848638
-0.16408052 -0.22576493 0.70028794
-0.1597653 -0.22318359 0.69228101
-0.15554723 -0.22066002 0.68445331
-0.15142493 -0.21819498 0.67680711
-0.14739369 -0.21578436 0.66932976
-0.14345056 -0.21342644 0.66201586
-0.14071468 -0.21281642 0.66012365
-0.13856314 -0.21308449 0.66095519
-0.13640618 -0.21335326 0.66178888
-0.13424379 -0.2136227 0.66262466
-0.13207589 -0.2138928 0.66346246
-0.12990253 -0.21416362 0.66430247
-0.12772365 -0.21443512 0.66514462
-0.12553924 -0.21470729 0.66598886
-0.12334928 -0.21498017 0.66683531
-0.12115375 -0.21525376 0.6676839
-0.11895261 -0.215528 0.66853458
-0.11674587 -0.21580297 0.66938746
-0.11453348 -0.21607864 0.67024255
-0.11231542 -0.21635498 0.67109972
-0.11009171 -0.21663207 0.67195922
-0.10786229 -0.21690987 0.67282093
-0.10562712 -0.21718834 0.67368472
-0.2375866 -0.2402412 0.75342524
-0.2312817 -0.23650841 0.74171877
-0.22516891 -0.23288898 0.73036784
-0.21924235 -0.22938071 0.71936548
-0.21348952 -0.22597428 0.70868248
-0.20814839 -0.22292815 0.69912946
-0.20603591 -0.22330838 0.70032191
-0.20391621 -0.22368991 0.70151842
-0.20178926 -0.22407274 0.70271903
-0.19965503 -0.22445689 0.70392376
-0.19751343 -0.22484232 0.70513254
-0.19536448 -0.22522911 0.70634556
-0.19320822 -0.22561733 0.70756304
-0.19104455 -0.22600695 0.70878494
-0.1888734 -0.22639792 0.71001107
-0.18669471 -0.22679022 0.71124136
-0.18450847 -0.22718391 0.71247602
-0.18231463 -0.22757897 0.71371496
-0.18011315 -0.22797538 0.71495819
-0.17790399 -0.22837321 0.71620584
-0.1756871 -0.22877242 0.71745777
-0.17317888 -0.22879837 0.71753919
-0.16865106 -0.22611736 0.70913118
-0.16422813 -0.22349842 0.7009179
-0.15990721 -0.2209405 0.69289595
-0.15568408 -0.21844046 0.68505549
-0.15155664 -0.21599805 0.67739582
-0.1475205 -0.21360968 0.6699056
-0.14357261 -0.21127352 0.66257912
-0.14138049 -0.21148652 0.66324711
-0.1392196 -0.21175417 0.66408652
-0.13705324 -0.21202251 0.66492808
-0.13488138 -0.21229157 0.66577184
-0.132704 -0.21256128 0.66661769
-0.13052107 -0.21283168 0.66746569
-0.12833261 -0.21310277 0.66831589
-0.12613855 -0.21337456 0.66916823
-0.12393888 -0.21364702 0.67002273
-0.12173359 -0.21392019 0.67087942
-0.11952266 -0.21419407 0.67173833
-0.11730605 -0.21446864 0.67259943
-0.11508375 -0.21474391 0.67346269
-0.11285575 -0.2150199 0.67432821
-0.110622 -0.21529658 0.67519593
-0.10838255 -0.21557409 0.67606622
-0.23787816 -0.23787816 0.75434983
-0.23156127 -0.23417778 0.74261534
-0.22543646 -0.2305893 0.73123568
-0.21949892 -0.22711159 0.72020733
-0.21373661 -0.22373597 0.7095027
-0.20814128 -0.22045735 0.69910562
-0.20567006 -0.22044875 0.69907838
-0.2035535 -0.2208247 0.70027059
-0.20142971 -0.22120196 0.70146692
-0.19929866 -0.22158051 0.70266736
-0.1971603 -0.22196035 0.70387191
-0.19501461 -0.22234149 0.70508057
-0.19286163 -0.22272408 0.70629382
-0.19070126 -0.22310801 0.70751131
-0.18853343 -0.22349326 0.70873302
-0.18635809 -0.22387986 0.70995897
-0.18417521 -0.22426777 0.71118909
-0.18198475 -0.22465704 0.71242356
-0.17978671 -0.22504769 0.71366239
-0.17758098 -0.22543968 0.71490544
-0.17536755 -0.22583303 0.71615279
-0.17314638 -0.22622776 0.71740454
-0.16880471 -0.22382253 0.70977718
-0.16437599 -0.22122784 0.70154899
-0.16004935 -0.21869339 0.69351184
-0.15582117 -0.21621698 0.68565875
-0.15168861 -0.21379733 0.67798567
-0.14764751 -0.21143124 0.6704824
-0.14421742 -0.20987739 0.66555488
-0.14205261 -0.21014395 0.66640019
-0.13988231 -0.21041121 0.66724771
-0.13770646 -0.2106791 0.66809726
-0.13552506 -0.21094771 0.66894907
-0.13333811 -0.211217 0.66980302
-0.13114555 -0.21148697 0.67065912
-0.12894739 -0.21175765 0.67151749
-0.1267436 -0.21202902 0.67237806
-0.12453416 -0.21230109 0.67324084
-0.12231901 -0.21257381 0.6741057
-0.12009819 -0.21284728 0.67497289
-0.11787164 -0.21312146 0.67584234
-0.11563934 -0.21339631 0.67671394
-0.11340127 -0.21367188 0.67758781
-0.11115754 -0.21394837 0.67846465
-0.10890798 -0.21422558 0.6793437
-0.23817044 -0.23550934 0.75527674
-0.23184149 -0.23184149 0.743514
-0.2257051 -0.22828458 0.73210704
-0.21975613 -0.2248372 0.72105128
-0.21398427 -0.22149248 0.71032482
-0.20837893 -0.21824302 0.69990379
-0.20530549 -0.21759924 0.6978392
-0.20319209 -0.21796969 0.69902724
-0.20107147 -0.21834141 0.70021933
-0.19894357 -0.21871437 0.70141542
-0.19680843 -0.21908863 0.70261568
-0.194666 -0.21946421 0.70382017
-0.1925163 -0.2198412 0.70502913
-0.19035921 -0.22021946 0.70624226
-0.18819466 -0.22059904 0.70745957
-0.18602267 -0.22097994 0.70868111
-0.18384315 -0.22136216 0.70990688
-0.18165608 -0.2217457 0.71113688
-0.17946142 -0.22213058 0.71237117
-0.17725913 -0.22251679 0.71360976
-0.17504917 -0.22290434 0.71485263
-0.17283149 -0.22329323 0.7160998
-0.1689586 -0.22152351 0.7104243
-0.16452412 -0.21895316 0.70218122
-0.16019171 -0.21644223 0.69412869
-0.1559585 -0.21398957 0.68626302
-0.15182079 -0.21159276 0.67857647
-0.14777476 -0.20924905 0.6710602
-0.14490546 -0.20852248 0.66873014
-0.14273117 -0.20878859 0.6695835
-0.14055134 -0.20905536 0.67043906
-0.13836594 -0.20932284 0.67129683
-0.13617493 -0.20959099 0.67215681
-0.13397831 -0.20985983 0.67301899
-0.13177605 -0.21012937 0.67388338
-0.1295681 -0.21039957 0.67474991
-0.12735447 -0.21067049 0.67561877
-0.12513515 -0.21094212 0.67648989
-0.12291009 -0.21121442 0.67736316
-0.12067929 -0.21148747 0.67823881
-0.11844271 -0.21176121 0.67911667
-0.11620037 -0.21203572 0.67999703
-0.11395226 -0.21231106 0.68088007
-0.11169831 -0.21258712 0.68176538
-0.10943851 -0.21286392 0.68265307
-0.23846346 -0.23313467 0.75620592
-0.23212238 -0.22949952 0.74441481
-0.22597438 -0.22597438 0.73298049
-0.2200139 -0.22255741 0.72189707
-0.21423182 -0.21924309 0.71114659
-0.20861709 -0.21602361 0.70070374
-0.20494223 -0.21475981 0.69660443
-0.20283194 -0.21512477 0.69778824
-0.20071447 -0.21549098 0.6989761
-0.19858977 -0.21585844 0.70016801
-0.19645782 -0.21622716 0.70136398
-0.19431864 -0.21659721 0.7025643
-0.1921722 -0.21696861 0.70376897
-0.19001837 -0.21734127 0.70497775
-0.18785715 -0.21771523 0.70619076
-0.18568845 -0.21809047 0.70740789
-0.18351229 -0.21846701 0.70862925
-0.18132859 -0.21884485 0.70985484
-0.17913732 -0.21922401 0.71108466
-0.17693844 -0.21960445 0.71231872
-0.17473194 -0.21998625 0.71355712
-0.17251773 -0.22036937 0.71479982
-0.1691128 -0.21922031 0.71107268
-0.16467252 -0.21667437 0.70281458
-0.16033468 -0.21418753 0.69474816
-0.15609607 -0.21175823 0.68686837
-0.15195321 -0.20938434 0.67916828
-0.14790222 -0.20706309 0.67163903
-0.14560007 -0.20715457 0.67193574
-0.14341626 -0.2074202 0.67279732
-0.14122681 -0.2076865 0.67366111
-0.13903177 -0.2079535 0.67452717
-0.13683106 -0.20822118 0.67539543
-0.13462467 -0.20848954 0.6762659
-0.13241261 -0.20875862 0.67713869
-0.13019481 -0.20902838 0.67801368
-0.12797129 -0.20929883 0.67889094
-0.125742 -0.20957001 0.67977053
-0.12350692 -0.20984186 0.68065232
-0.12126604 -0.21011442 0.68153644
-0.11901942 -0.21038786 0.68242335
-0.11676696 -0.21066204 0.68331271
-0.11450863 -0.21093695 0.6842044
-0.1122444 -0.21121258 0.68509847
-0.23875718 -0.23075415 0.75713736
-0.23240392 -0.22715186 0.7453177
-0.2262443 -0.22365865 0.73385602
-0.2202723 -0.2202723 0.72274494
-0.21447968 -0.21698822 0.71196938
-0.20885582 -0.21379915 0.7015056
-0.20458025 -0.21193044 0.69537407
-0.20247306 -0.21228994 0.69655365
-0.20035873 -0.21265067 0.69773728
-0.19823721 -0.21301265 0.69892496
-0.19610845 -0.21337585 0.70011669
-0.19397254 -0.21374044 0.70131296
-0.19182931 -0.21410626 0.70251328
-0.18967876 -0.21447337 0.70371777
-0.18752082 -0.21484172 0.70492643
-0.18535545 -0.21521136 0.70613927
-0.18318261 -0.21558225 0.70735621
-0.18100227 -0.21595444 0.70857739
-0.17881438 -0.21632789 0.70980275
-0.17661892 -0.21670265 0.71103239
-0.17441584 -0.2170787 0.71226627
-0.17220511 -0.21745607 0.71350449
-0.16926727 -0.21691287 0.71172214
-0.16482119 -0.21439147 0.70344907
-0.16047935 -0.21193075 0.69537508
-0.15623388 -0.20952296 0.68747479
-0.15208587 -0.20717208 0.67976123
-0.14848918 -0.20550902 0.67430449
-0.14630137 -0.20577347 0.67517221
-0.14410792 -0.20603861 0.67604214
-0.14190881 -0.20630442 0.67691427
-0.13970403 -0.20657092 0.67778873
-0.13749354 -0.2068381 0.6786654
-0.13527733 -0.20710599 0.67954439
-0.13305536 -0.20737456 0.68042558
-0.13082762 -0.20764385 0.68130916
-0.1285941 -0.20791383 0.68219501
-0.12635474 -0.20818448 0.68308306
-0.1241096 -0.20845594 0.68397373
-0.12185867 -0.20872822 0.68486714
-0.11960185 -0.20900121 0.68576288
-0.11733912 -0.20927492 0.68666095
-0.11507045 -0.20954935 0.68756139
-0.11279584 -0.20982452 0.68846422
-0.23905164 -0.22836776 0.75807112
-0.23268604 -0.22479838 0.7462225
-0.22651485 -0.22133736 0.73473358
-0.2205313 -0.2179818 0.72359473
-0.21472812 -0.21472812 0.71279407
-0.20909509 -0.21156959 0.70230925
-0.20421953 -0.20911102 0.694148
-0.20211548 -0.20946513 0.69532347
-0.20000428 -0.20982043 0.69650292
-0.1978859 -0.21017696 0.69768637
-0.19576034 -0.21053471 0.69887394
-0.19362766 -0.21089382 0.70006603
-0.19148767 -0.21125413 0.70126212
-0.18934037 -0.2116157 0.70246232
-0.18718569 -0.2119785 0.70366663
-0.18502362 -0.21234255 0.70487511
-0.18285412 -0.21270785 0.70608771
-0.18067712 -0.21307439 0.70730448
-0.17849262 -0.21344222 0.70852548
-0.17630056 -0.21381132 0.70975071
-0.17410091 -0.21418169 0.71098018
-0.17189361 -0.21455334 0.71221387
-0.16942202 -0.21460123 0.71237284
-0.16497013 -0.21210445 0.70408475
-0.16062269 -0.20966779 0.69599617
-0.15637192 -0.20728372 0.68808222
-0.15221874 -0.20495594 0.68035513
-0.14920694 -0.20411509 0.67756391
-0.14700946 -0.20437901 0.67843997
-0.14480631 -0.20464362 0.67931837
-0.14259745 -0.20490894 0.68019909
-0.14038283 -0.20517489 0.68108195
-0.13816246 -0.20544158 0.6819672
-0.13593632 -0.20570895 0.68285477
-0.13370436 -0.20597699 0.68374455
-0.13146661 -0.20624578 0.68463677
-0.129223 -0.20651527 0.68553132
-0.1269736 -0.20678556 0.68642861
-0.12471833 -0.20705664 0.68732846
-0.12245714 -0.20732842 0.68823063
-0.12019001 -0.20760092 0.68913519
-0.11791691 -0.20787413 0.69004214
-0.11563782 -0.20814809 0.69095153
-0.11335272 -0.20842274 0.69186324
-0.23296887 -0.2224392 0.7471295
-0.22678603 -0.21901052 0.73561323
-0.22079092 -0.21568593 0.72444659
-0.21497713 -0.21246278 0.71362066
-0.20933454 -0.20933454 0.7031135
-0.20386007 -0.20630151 0.69292617
-0.20175911 -0.20665026 0.69409752
-0.19965106 -0.20700018 0.69527286
-0.19753583 -0.20735128 0.69645214
-0.19541349 -0.20770364 0.69763565
-0.19328398 -0.20805728 0.69882345
-0.19114724 -0.20841214 0.70001537
-0.18900317 -0.2087682 0.70121133
-0.18685177 -0.20912549 0.70241135
-0.18469298 -0.20948398 0.70361549
-0.1825268 -0.20984372 0.70482379
-0.18035315 -0.21020469 0.70603621
-0.17817199 -0.21056691 0.7072528
-0.17598334 -0.21093038 0.70847362
-0.17378709 -0.21129508 0.70969862
-0.17158324 -0.21166107 0.7109279
-0.16937174 -0.21202832 0.71216142
-0.16511934 -0.2098133 0.70472157
-0.1607646 -0.20739861 0.69661111
-0.15651022 -0.20504053 0.68869078
-0.15235186 -0.20273593 0.68095011
-0.14993167 -0.20270762 0.68085498
-0.14772445 -0.202971 0.68173963
-0.14551149 -0.20323506 0.68262655
-0.14329277 -0.20349982 0.68351585
-0.14106826 -0.20376526 0.68440741
-0.13883793 -0.20403139 0.6853013
-0.13660178 -0.20429824 0.68619758
-0.13435978 -0.20456578 0.68709618
-0.13211188 -0.20483401 0.68799716
-0.12985821 -0.20510316 0.68890113
-0.12759861 -0.20537299 0.68980747
-0.12533306 -0.20564355 0.69071621
-0.12306152 -0.20591483 0.69162738
-0.12078398 -0.2061868 0.69254088
-0.11850043 -0.20645951 0.69345683
-0.11621082 -0.20673293 0.69437522
-0.23325238 -0.22007428 0.74803871
-0.2270579 -0.21667811 0.73649508
-0.22105129 -0.21338478 0.72530091
-0.21522672 -0.21019217 0.71444917
-0.20957398 -0.20709381 0.70391774
-0.20408383 -0.20408383 0.69368672
-0.20140405 -0.20384531 0.69287598
-0.1992991 -0.20418987 0.69404715
-0.19718701 -0.20453559 0.69522226
-0.19506787 -0.20488261 0.69640177
-0.19294156 -0.20523083 0.6975854
-0.19080801 -0.20558025 0.69877309
-0.18866718 -0.20593084 0.69996476
-0.18651904 -0.20628265 0.70116055
-0.18436353 -0.20663564 0.70236039
-0.18220064 -0.20698984 0.70356435
-0.18003032 -0.20734526 0.70477241
-0.17785254 -0.20770192 0.70598471
-0.17566724 -0.20805979 0.70720112
-0.1734744 -0.20841889 0.70842171
-0.17127399 -0.20877925 0.70964658
-0.16906595 -0.20914085 0.71087569
-0.16526881 -0.20751798 0.70535952
-0.16090927 -0.20512861 0.69723797
-0.15664878 -0.20279339 0.68930048
-0.15287475 -0.20102428 0.6832872
-0.15066347 -0.20128639 0.68417817
-0.14844644 -0.20154922 0.68507153
-0.14622359 -0.20181271 0.68596715
-0.14399491 -0.2020769 0.68686509
-0.14176041 -0.20234179 0.68776548
-0.13952005 -0.20260736 0.68866819
-0.13727377 -0.20287363 0.68957323
-0.13502169 -0.20314074 0.69048113
-0.1327637 -0.20340861 0.69139165
-0.13049975 -0.20367718 0.69230449
-0.12822981 -0.20394647 0.69321984
-0.12595387 -0.20421647 0.69413757
-0.12367189 -0.20448719 0.69505775
-0.12138385 -0.20475863 0.69598037
-0.11908973 -0.20503078 0.69690543
-0.11678951 -0.20530367 0.697833
-0.23353657 -0.21770358 0.74895012
-0.2273304 -0.21434009 0.73737895
-0.22131254 -0.21107844 0.72615808
-0.21547689 -0.20791629 0.71527958
-0.20981398 -0.20484798 0.70472389
-0.20431504 -0.20186815 0.69447261
-0.20105021 -0.20105021 0.69165868
-0.19894835 -0.20138945 0.69282573
-0.19683944 -0.20172986 0.69399685
-0.19472347 -0.20207152 0.69517225
-0.19260034 -0.20241436 0.69635171
-0.19046998 -0.20275837 0.69753516
-0.18833236 -0.20310353 0.6987226
-0.18618748 -0.20344989 0.69991416
-0.18403524 -0.20379741 0.70110971
-0.18187565 -0.20414613 0.70230937
-0.17970864 -0.20449604 0.70351315
-0.17753421 -0.20484716 0.70472109
-0.17535229 -0.20519948 0.70593315
-0.17316285 -0.20555301 0.70714939
-0.17096585 -0.20590778 0.70836985
-0.16876128 -0.20626378 0.70959461
-0.16541857 -0.20521852 0.70599866
-0.16105239 -0.20285225 0.69785815
-0.15678757 -0.20054224 0.68991119
-0.1536236 -0.19958971 0.68663424
-0.15140246 -0.19985124 0.68753397
-0.14917549 -0.20011346 0.68843609
-0.14694268 -0.20037636 0.68934053
-0.14470398 -0.20063998 0.69024742
-0.14245939 -0.20090427 0.69115663
-0.1402089 -0.20116928 0.69206834
-0.13795257 -0.20143516 0.69298303
-0.13569027 -0.20170176 0.69390017
-0.13342197 -0.20196904 0.69481969
-0.13114765 -0.20223704 0.69574165
-0.12886728 -0.20250574 0.69666606
-0.12658086 -0.20277518 0.69759297
-0.12428834 -0.20304532 0.69852233
-0.12198971 -0.20331618 0.69945419
-0.11968494 -0.20358779 0.70038855
-0.23382148 -0.21532711 0.7498638
-0.22760358 -0.21199648 0.73826504
-0.22157444 -0.20876667 0.7270174
-0.21572761 -0.2056351 0.7161119
-0.21005453 -0.20259698 0.70553184
-0.20454662 -0.19964729 0.69525975
-0.2006976 -0.19826491 0.69044566
-0.19859885 -0.19859885 0.69160861
-0.19649309 -0.19893399 0.69277573
-0.1943803 -0.19927037 0.69394714
-0.19226031 -0.19960785 0.69512236
-0.19013315 -0.19994648 0.69630164
-0.18799874 -0.20028624 0.69748485
-0.18585709 -0.20062719 0.69867218
-0.18370812 -0.20096928 0.69986349
-0.18155181 -0.20131256 0.70105892
-0.17938812 -0.201657 0.70225841
-0.17721702 -0.20200261 0.703462
-0.17503846 -0.20234942 0.70466977
-0.17285241 -0.20269743 0.70588166
-0.17065883 -0.20304663 0.70709777
-0.16845769 -0.20339705 0.70831805
-0.16556859 -0.20291488 0.70663893
-0.16119686 -0.20057319 0.69848412
-0.15692662 -0.19828713 0.69052303
-0.15437981 -0.19814102 0.69001424
-0.15214874 -0.19840196 0.69092292
-0.14991175 -0.19866353 0.69183385
-0.14766887 -0.19892584 0.69274729
-0.14542007 -0.19918883 0.69366318
-0.14316536 -0.19945261 0.69458175
-0.14090474 -0.19971716 0.69550306
-0.13863814 -0.19998243 0.69642687
-0.13636549 -0.20024842 0.69735312
-0.1340868 -0.20051512 0.69828188
-0.13180202 -0.20078252 0.69921309
-0.12951115 -0.20105064 0.70014679
-0.12721415 -0.20131947 0.701083
-0.12491098 -0.20158902 0.70202166
-0.12260165 -0.20185928 0.70296288
-0.12028611 -0.20213027 0.7039066
-0.23410706 -0.21294485 0.75077969
-0.22787739 -0.20964721 0.73915321
-0.22183692 -0.2064494 0.72787869
-0.21597897 -0.20334861 0.71694624
-0.21029565 -0.20034082 0.70634168
-0.20477799 -0.19742069 0.69604617
-0.20034623 -0.19548936 0.68923688
-0.19825059 -0.19581808 0.69039583
-0.19614799 -0.19614799 0.69155902
-0.1940383 -0.19647904 0.69272619
-0.1919215 -0.19681121 0.69389737
-0.18979751 -0.19714449 0.69507241
-0.18766631 -0.19747894 0.69625151
-0.18552788 -0.19781449 0.6974346
-0.18338215 -0.19815119 0.69862169
-0.18122913 -0.19848906 0.69981289
-0.17906874 -0.19882806 0.70100814
-0.17690097 -0.19916822 0.70220745
-0.17472576 -0.19950955 0.70341086
-0.17254309 -0.19985208 0.70461851
-0.17035291 -0.20019576 0.70583022
-0.16815519 -0.20054063 0.70704615
-0.16571887 -0.20060705 0.70728034
-0.16134158 -0.19829004 0.69911122
