# .PCD v0.7 - Point Cloud Data file format
VERSION 0.7
FIELDS x y z
SIZE 4 4 4
TYPE F F F
COUNT 1 1 1
WIDTH 705
HEIGHT 1
VIEWPOINT 0 0 0 1 0 0 0
POINTS 705
DATA ascii
0.26252005 -0.36185193 1.342489
0.26498887 -0.35879022 1.3311299
0.2674163 -0.35577995 1.3199615
0.2708742 -0.35422012 1.3141745
0.27726907 -0.35648879 1.3225914
0.28374684 -0.35878733 1.3311192
0.23855509 -0.35665166 1.3407215
0.24122289 -0.35363743 1.3293904
0.24384598 -0.35067374 1.3182493
0.24685912 -0.34837127 1.3095939
0.25107107 -0.34781405 1.3074992
0.25526959 -0.34725863 1.3054112
0.25945467 -0.3467049 1.3033297
0.26362652 -0.34615308 1.3012553
0.26850703 -0.3465347 1.3026899
0.27483061 -0.34873465 1.3109599
0.28123501 -0.3509627 1.3193356
0.28772303 -0.35322097 1.3278248
0.22587158 -0.34695739 1.3217859
0.23015657 -0.34639725 1.3196521
0.23442774 -0.34583893 1.317525
0.23868513 -0.34528238 1.3154048
0.24292888 -0.34472764 1.3132914
0.247159 -0.34417471 1.3111849
0.25137559 -0.34362349 1.309085
0.25557867 -0.34307405 1.3069918
0.25976831 -0.34252635 1.3049053
0.26394489 -0.34198076 1.3028268
0.26810837 -0.34143716 1.3007559
0.27243468 -0.34111568 1.2995311
0.2787677 -0.34327593 1.307761
0.28518149 -0.34546375 1.3160957
0.29167959 -0.34768209 1.3245468
0.22614859 -0.34272003 1.3234069
0.23043855 -0.3421663 1.3212688
0.23471446 -0.34161413 1.3191365
0.2389764 -0.34106341 1.3170099
0.24322483 -0.34051475 1.3148913
0.24745961 -0.33996788 1.3127795
0.25168082 -0.33942273 1.3106745
0.25588852 -0.33887941 1.3085765
0.26008287 -0.3383379 1.3064854
0.26426366 -0.33779788 1.3044002
0.26843226 -0.33726105 1.3023272
0.27258661 -0.33672464 1.3002559
0.27672777 -0.33618993 1.2981911
0.28268564 -0.33784384 1.3045776
0.28910905 -0.33999225 1.3128737
0.29561669 -0.34217048 1.3212849
0.22211763 -0.33902165 1.3271827
0.22642626 -0.33847225 1.3250319
0.23072097 -0.33792463 1.3228881
0.23500188 -0.33737892 1.3207518
0.23926887 -0.33683482 1.3186218
0.24352175 -0.33629194 1.3164965
0.24776094 -0.33575082 1.3143781
0.2519868 -0.33521178 1.312268
0.25619909 -0.33467451 1.3101647
0.2603983 -0.33413941 1.3080699
0.2645835 -0.33360529 1.305979
0.26875693 -0.33307481 1.3039023
0.27291578 -0.33254445 1.301826
0.27706143 -0.33201575 1.2997564
0.28119391 -0.33148876 1.2976933
0.28658456 -0.33243811 1.3014097
0.2930178 -0.33454788 1.309669
0.29953441 -0.33668599 1.3180391
0.30613482 -0.33885151 1.3265166
0.21806362 -0.33530214 1.3309801
0.22239114 -0.33475718 1.3288169
0.22670463 -0.33421403 1.3266609
0.23100412 -0.33367261 1.3245116
0.23528972 -0.33313298 1.3223696
0.23956162 -0.33259526 1.3202351
0.24381943 -0.33205885 1.3181058
0.24806371 -0.3315244 1.3159844
0.25229415 -0.33099142 1.3138686
0.25651047 -0.33045945 1.311757
0.26684657 -0.3376908 1.3404619
0.26490417 -0.32940257 1.3075618
0.26908129 -0.32887715 1.3054761
0.27324572 -0.32835412 1.3033999
0.27739584 -0.32783145 1.3013252
0.28153279 -0.32731047 1.2992572
0.2856566 -0.32679114 1.2971957
0.29046458 -0.32705852 1.2982571
0.29690751 -0.32913002 1.3064799
0.30343294 -0.33122832 1.3148091
0.21398637 -0.3315613 1.3347993
0.21833292 -0.33102089 1.3326237
0.22266532 -0.33048221 1.3304552
0.22698367 -0.32994533 1.3282938
0.23128802 -0.3294102 1.3261395
0.2355784 -0.32887679 1.323992
0.23985492 -0.32834509 1.3218515
0.24411772 -0.3278152 1.3197184
0.24836643 -0.3272866 1.3175902
0.25269288 -0.32687795 1.3159451
0.26158383 -0.33228219 1.3377014
0.27357525 -0.32415217 1.3049717
0.27773017 -0.323636 1.3028936
0.28187189 -0.32312143 1.3008221
0.28600055 -0.32260862 1.2987577
0.29011583 -0.32209712 1.2966985
0.29539117 -0.32286942 1.2998075
0.30322364 -0.32637048 1.3139021
0.31122756 -0.32994801 1.3283045
0.21425137 -0.32726309 1.3364524
0.21860285 -0.326729 1.3342713
0.22294019 -0.3261967 1.3320975
0.22726341 -0.32566613 1.3299308
0.23157258 -0.32513726 1.3277711
0.23586778 -0.32461011 1.3256184
0.24014908 -0.32408467 1.3234726
0.24441646 -0.32356083 1.3213334
0.24867024 -0.32303891 1.3192019
0.25530615 -0.32557389 1.3295542
0.26307076 -0.32943094 1.3453053
0.27806717 -0.31943256 1.3044746
0.28221244 -0.31892303 1.3023938
0.28634503 -0.31841567 1.3003219
0.29046491 -0.31791043 1.2982587
0.29532933 -0.31822309 1.2995355
0.30315948 -0.32167304 1.3136241
0.31116089 -0.3251982 1.32802
0.21014628 -0.32348362 1.3403029
0.21451703 -0.32295421 1.3381095
0.2188735 -0.32242656 1.3359232
0.22321573 -0.32190058 1.3337439
0.22754383 -0.32137635 1.3315718
0.23185785 -0.3208538 1.3294067
0.23615789 -0.32033297 1.3272488
0.24044394 -0.31981379 1.3250977
0.24471618 -0.31929636 1.3229537
0.24897532 -0.3187815 1.3208205
0.25605151 -0.32182622 1.3334358
0.26333728 -0.32501987 1.3466682
0.27840218 -0.31521568 1.3060461
0.28255367 -0.31471425 1.3039685
0.28669089 -0.31421322 1.3018925
0.29081497 -0.31371376 1.2998232
0.29526752 -0.3135787 1.2992635
0.30309531 -0.31697756 1.3133461
0.31109419 -0.32045043 1.3277354
0.20601749 -0.31968233 1.3441759
0.21040761 -0.31915763 1.3419697
0.21478336 -0.31863466 1.3397708
0.21914478 -0.31811339 1.337579
0.22349197 -0.31759384 1.3353945
0.22782496 -0.31707597 1.3332169
0.23214383 -0.31655976 1.3310465
0.23644869 -0.31604528 1.3288832
0.24073958 -0.31553248 1.3267269
0.24501675 -0.31502154 1.3245786
0.24928071 -0.31451303 1.3224405
0.25590566 -0.31694737 1.3326762
0.2628285 -0.31965628 1.3440664
0.26969463 -0.32220155 1.3547686
0.27874076 -0.31099176 1.3076345
0.28289565 -0.31049523 1.3055468
0.28703734 -0.31000033 1.3034658
0.29116583 -0.30950698 1.3013915
0.2952812 -0.30901521 1.2993237
0.30303124 -0.31228408 1.3130684
0.31102759 -0.3157047 1.3274511
0.20627443 -0.31533909 1.3458524
0.21066961 -0.31482089 1.3436407
0.21505035 -0.31430438 1.3414363
0.21941675 -0.31378955 1.339239
0.22376888 -0.31327641 1.337049
0.22810677 -0.31276494 1.334866
0.23243114 -0.31225598 1.3326938
0.23674066 -0.31174761 1.3305241
0.241036 -0.31124064 1.3283604
0.24531785 -0.31073594 1.3262063
0.24958628 -0.31023341 1.3240616
0.25509349 -0.31126085 1.3284466
0.26164454 -0.31350201 1.3380119
0.26808906 -0.31553847 1.3467033
0.27437437 -0.31731993 1.3543065
0.2790789 -0.30675614 1.3092208
0.2832385 -0.30626601 1.3071289
0.28738463 -0.30577725 1.3050429
0.29151756 -0.30529004 1.3029635
0.29563734 -0.30480438 1.3008908
0.30296719 -0.30759263 1.3127909
0.31096101 -0.31096101 1.3271669
0.20211728 -0.31149837 1.3497576
0.206532 -0.31098497 1.3475329
0.21093225 -0.31047332 1.3453158
0.21531829 -0.3099637 1.3431076
0.21968941 -0.30945498 1.3409033
0.22404678 -0.30894873 1.3387096
0.22838975 -0.3084439 1.3365221
0.23271856 -0.30794072 1.3343418
0.23703267 -0.3074384 1.3321652
0.24133316 -0.30693829 1.3299981
0.24561988 -0.30644003 1.3278391
0.24989274 -0.30594346 1.3256874
0.25415182 -0.30544853 1.3235428
0.25973988 -0.30653986 1.3282717
0.26562309 -0.30793473 1.3343159
0.27110311 -0.30882183 1.3381597
0.27564839 -0.30863196 1.337337
0.2752403 -0.30299562 1.3129141
0.27941754 -0.3025099 1.3108095
0.28358203 -0.30202639 1.3087143
0.28773278 -0.30154395 1.3066238
0.29187015 -0.30106291 1.3045394
0.29599434 -0.30058342 1.3024617
0.30290315 -0.30290315 1.3125134
0.31089443 -0.30621934 1.3268828
0.19793592 -0.30763534 1.3536855
0.20237048 -0.30712697 1.3514485
0.20679043 -0.3066203 1.349219
0.21119581 -0.30611527 1.3469968
0.21558671 -0.30561194 1.3447819
0.21996316 -0.30511019 1.3425741
0.2243253 -0.30461013 1.3403738
0.22867316 -0.30411172 1.3381805
0.23300681 -0.30361491 1.3359945
0.23732631 -0.30311975 1.3338156
0.24163175 -0.30262616 1.3316437
0.24592321 -0.30213422 1.329479
0.25020072 -0.30164388 1.3273213
0.25446442 -0.30115512 1.3251706
0.25871396 -0.30066755 1.3230252
0.26294979 -0.30018163 1.320887
0.26717266 -0.29969805 1.3187591
0.27138132 -0.29921532 1.3166349
0.27557665 -0.29873437 1.3145186
0.27975807 -0.29825446 1.3124069
0.28392643 -0.29777649 1.3103037
0.28808174 -0.29730037 1.3082086
0.29222357 -0.2968255 1.3061191
0.29635221 -0.29635221 1.3040364
0.3028391 -0.29821563 1.312236
0.31082788 -0.30147967 1.3265988
0.18557109 -0.29832312 1.3333817
0.19125578 -0.29987016 1.3402963
0.19699974 -0.30143335 1.347283
0.20262432 -0.30274457 1.3531437
0.2070494 -0.30224451 1.3509086
0.21145986 -0.3017461 1.3486809
0.21585581 -0.30124933 1.3464605
0.22023728 -0.30075413 1.3442472
0.2246044 -0.3002606 1.3420414
0.22895719 -0.29976869 1.3398427
0.23329575 -0.29927838 1.3376513
0.23762013 -0.29878968 1.3354669
0.24193041 -0.29830253 1.3332896
0.24622667 -0.29781702 1.3311195
0.25050896 -0.29733306 1.3289565
0.25477737 -0.29685071 1.3268005
0.25903186 -0.29636979 1.324651
0.26327258 -0.29589042 1.3225085
0.26749972 -0.29541272 1.3203733
0.27171311 -0.29493645 1.3182446
0.27591294 -0.2944617 1.3161227
0.28009927 -0.29398847 1.3140075
0.28427222 -0.29351684 1.3118995
0.2884315 -0.29304639 1.3097968
0.29257786 -0.29257786 1.3077027
0.29671091 -0.29211074 1.3056148
0.30277506 -0.29353002 1.3119584
0.31076136 -0.29674205 1.3263149
0.1793545 -0.2911599 1.3221868
0.18425509 -0.29154286 1.3239259
0.1898925 -0.29304397 1.3307426
0.19558825 -0.29456061 1.3376298
0.20134324 -0.29609302 1.3445885
0.20715761 -0.29764026 1.3516147
0.21172456 -0.29736596 1.3503691
0.21612558 -0.2968758 1.3481432
0.22051208 -0.2963872 1.3459245
0.22488418 -0.29590026 1.3437132
0.22924191 -0.29541484 1.3415089
0.23358539 -0.29493105 1.339312
0.23791467 -0.29444885 1.3371222
0.24222982 -0.29396823 1.3349397
0.24653089 -0.29348916 1.3327641
0.25081795 -0.29301164 1.3305957
0.2550911 -0.29253569 1.3284343
0.25934991 -0.29206073 1.3262775
0.26359594 -0.29158843 1.3241328
0.26782754 -0.29111689 1.3219914
0.27204555 -0.29064697 1.3198575
0.27625 -0.2901786 1.3177305
0.28044093 -0.28971168 1.3156103
0.28461835 -0.28924629 1.3134968
0.28878239 -0.28878239 1.3113903
0.2929329 -0.28831977 1.3092895
0.2970705 -0.28785902 1.3071971
0.30271098 -0.28884637 1.3116808
0.31069487 -0.29200646 1.3260311
0.17520982 -0.2873441 1.326076
0.17958161 -0.28686413 1.323861
0.1839388 -0.28638574 1.3216532
0.18854851 -0.2863144 1.321324
0.19419682 -0.28778565 1.3281138
0.1999035 -0.28927213 1.3349738
0.2056694 -0.29077399 1.3419048
0.21149455 -0.29229021 1.3489021
0.21639602 -0.29249132 1.3498302
0.22078754 -0.29200932 1.3476058
0.22516465 -0.29152897 1.345389
0.22952737 -0.29105017 1.3431793
0.23387578 -0.29057294 1.340977
0.23820995 -0.29009727 1.3387817
0.24252996 -0.28962314 1.3365937
0.24683586 -0.28915057 1.3344128
0.25112772 -0.28867954 1.332239
0.25540563 -0.28821003 1.3300723
0.25966969 -0.28774208 1.3279127
0.2639198 -0.28727555 1.3257596
0.26815617 -0.28681052 1.3236136
0.27237886 -0.286347 1.3214746
0.2765879 -0.28588498 1.3193423
0.28078339 -0.28542441 1.3172169
0.28496537 -0.28496537 1.3150983
0.28913388 -0.28450772 1.3129864
0.29328907 -0.28405163 1.3108815
0.29743096 -0.28359696 1.3087833
0.30328748 -0.28476608 1.3141787
0.17104064 -0.28350574 1.329988
0.17543231 -0.28303078 1.32776
0.17980926 -0.2825574 1.3255392
0.1841716 -0.28208563 1.323326
0.1885194 -0.28161541 1.3211201
0.19285274 -0.28114676 1.3189216
0.19848418 -0.28254807 1.3254955
0.20420164 -0.28400457 1.3323282
0.20997839 -0.28547624 1.3392321
0.21581413 -0.28696164 1.3462005
0.2210637 -0.28762051 1.3492914
0.22544584 -0.28714681 1.3470691
0.22981352 -0.28667459 1.3448539
0.23416688 -0.28620395 1.342646
0.23850594 -0.28573483 1.3404453
0.24283084 -0.28526729 1.3382519
0.24714157 -0.28480124 1.3360655
0.25143829 -0.28433675 1.3338865
0.25572097 -0.28387374 1.3317144
0.25998974 -0.28341225 1.3295494
0.26424441 -0.28295198 1.3273903
0.26848567 -0.28249359 1.3252399
0.27271295 -0.28203645 1.3230953
0.27692658 -0.28158081 1.3209578
0.28112665 -0.28112665 1.3188273
0.28531316 -0.28067392 1.3167034
0.28948626 -0.28022271 1.3145866
0.29364592 -0.27977288 1.3124764
0.29779232 -0.27932456 1.3103733
0.3098819 -0.28622681 1.3427532
0.17125848 -0.27917477 1.3316818
0.17565535 -0.27870649 1.3294481
0.1800375 -0.27823976 1.3272218
0.18440498 -0.2777746 1.3250029
0.1887579 -0.277311 1.3227915
0.19309631 -0.27684894 1.3205874
0.19742028 -0.27638841 1.3183906
0.20275468 -0.27733111 1.3228874
0.2084828 -0.2787579 1.3296933
0.21427017 -0.28019947 1.3365697
0.22011642 -0.28165436 1.3435096
0.22572766 -0.28275362 1.3487531
0.23010041 -0.28228813 1.3465327
0.23445871 -0.28182411 1.3443193
0.23880269 -0.28136158 1.342113
0.24313247 -0.28090063 1.3399142
0.24744806 -0.28044114 1.3377224
0.25174958 -0.27998316 1.3355379
0.25603703 -0.27952668 1.3333604
0.26031056 -0.27907169 1.3311901
0.26456979 -0.27861774 1.3290248
0.2688159 -0.27816603 1.32687
0.27304786 -0.27771536 1.3247203
0.27726614 -0.27726614 1.3225775
0.28147078 -0.27681836 1.3204416
0.28566191 -0.27637208 1.3183128
0.28983948 -0.27592719 1.3161906
0.29400367 -0.27548373 1.3140754
0.30420303 -0.28062141 1.3385824
0.16705993 -0.27529594 1.3356271
0.17147689 -0.27483281 1.3333801
0.17587897 -0.27437118 1.3311405
0.18026631 -0.27391115 1.3289086
0.18463896 -0.27345264 1.3266841
0.188997 -0.27299568 1.3244671
0.19334048 -0.27254021 1.3222573
0.19766954 -0.27208629 1.3200551
0.20198414 -0.27163383 1.31786
0.20700839 -0.27213463 1.3202896
0.21274707 -0.27353194 1.3270688
0.21854495 -0.27494365 1.3339179
0.22440158 -0.27636826 1.3408295
0.23031884 -0.27780727 1.347811
0.23475124 -0.27743328 1.3459966
0.23910019 -0.27697745 1.343785
0.24343485 -0.27652308 1.3415806
0.24775532 -0.27607021 1.3393835
0.25206164 -0.27561882 1.3371935
0.25635391 -0.2751689 1.3350106
0.26063222 -0.27472043 1.332835
0.26489571 -0.27427256 1.330662
0.26914695 -0.27382776 1.3285041
0.27338359 -0.27338359 1.3263491
0.27760652 -0.27294084 1.3242011
0.28181577 -0.27249953 1.32206
0.28601143 -0.27205965 1.3199259
0.29019359 -0.2716212 1.3177986
0.298558 -0.27504951 1.3344314
0.1672736 -0.27093613 1.3373353
0.17169581 -0.27047971 1.3350825
0.17610316 -0.27002484 1.3328373
0.18049571 -0.26957151 1.3305997
0.18487352 -0.26911968 1.3283695
0.1892367 -0.2686694 1.3261468
0.19358528 -0.26822057 1.3239315
0.19791938 -0.2677733 1.3217237
0.20223904 -0.26732746 1.3195231
0.20654435 -0.26688316 1.31733
0.21124543 -0.2669585 1.3177019
0.21699451 -0.26832655 1.3244545
0.2228028 -0.26970866 1.3312767
0.22866966 -0.2711032 1.33816
0.23459727 -0.27251199 1.3451138
0.23939842 -0.27258235 1.3454611
0.24373797 -0.2721346 1.3432511
0.2480633 -0.27168837 1.3410485
0.2523745 -0.27124363 1.3388532
0.25667158 -0.27080029 1.3366649
0.26095465 -0.27035841 1.3344839
0.26522362 -0.26991785 1.3323092
0.26947883 -0.26947883 1.3301423
0.27372015 -0.26904118 1.3279819
0.27794775 -0.26860496 1.3258288
0.28216156 -0.26817009 1.3236823
0.28636184 -0.26773667 1.321543
0.29294783 -0.269512 1.3303059
0.16748786 -0.26656517 1.3390483
0.17191535 -0.26611555 1.3367896
0.17632794 -0.26566744 1.3345386
0.18072571 -0.26522082 1.3322952
0.18510871 -0.26477572 1.3300593
0.18947701 -0.26433215 1.3278309
0.19383073 -0.26389003 1.32561
0.19816987 -0.26344937 1.3233964
0.20249459 -0.2630102 1.3211905
0.20680489 -0.2625725 1.3189917
0.21110088 -0.26213625 1.3168002
0.2154659 -0.26180267 1.3151245
0.22122525 -0.2631416 1.3218505
0.22704382 -0.26449436 1.3286458
0.2329208 -0.2658591 1.3355013
0.23885855 -0.26723778 1.342427
0.24404186 -0.26773524 1.3449259
0.24837208 -0.26729566 1.3427178
0.25268808 -0.2668575 1.3405168
0.25699002 -0.26642084 1.3383232
0.26127788 -0.26598558 1.3361368
0.2655516 -0.2655516 1.3339567
0.26981154 -0.26511917 1.3317845
0.27405757 -0.26468807 1.3296189
0.27828977 -0.26425835 1.3274603
0.28250828 -0.26383007 1.3253088
0.28737226 -0.26400867 1.3262061
0.29938802 -0.27064678 1.3595515
0.16770265 -0.26218301 1.3407655
0.17213544 -0.26174018 1.338501
0.17655328 -0.26129887 1.3362441
0.18095627 -0.26085904 1.333995
0.18534447 -0.26042071 1.3317534
0.18971793 -0.25998384 1.3295193
0.19407676 -0.25954843 1.3272927
0.19842103 -0.25911453 1.3250737
0.20275077 -0.25868201 1.3228619
0.20706609 -0.25825098 1.3206576
0.21136704 -0.25782135 1.3184606
0.21565373 -0.25739318 1.3162709
0.21992619 -0.25696638 1.3140885
0.22543941 -0.25797707 1.3192569
0.23126808 -0.25930056 1.3260251
0.23715502 -0.2606357 1.3328528
0.24310289 -0.26198468 1.3397512
0.2486816 -0.26289198 1.3443911
0.25300249 -0.26246056 1.3421848
0.25730926 -0.26203054 1.3399857
0.2616019 -0.2616019 1.3377937
0.26588053 -0.26117465 1.335609
0.27014509 -0.26074874 1.3334309
0.27439579 -0.26032421 1.3312598
0.27863267 -0.25990108 1.329096
0.28285578 -0.25947928 1.326939
0.29367232 -0.26502135 1.3552804
0.16791798 -0.25778958 1.3424871
0.17235611 -0.25735363 1.3402169
0.17677924 -0.25691918 1.3379543
0.18118748 -0.25648618 1.3356993
0.18558088 -0.25605461 1.333452
0.18995951 -0.25562453 1.3312122
0.19432345 -0.25519586 1.3289798
0.1986728 -0.25476864 1.326755
0.20300762 -0.25434288 1.3245378
0.20732795 -0.2539185 1.3223277
0.21163391 -0.25349557 1.3201252
0.21592556 -0.25307405 1.3179301
0.22020292 -0.2526539 1.315742
0.22446616 -0.25223517 1.3135614
0.22963704 -0.25283271 1.3166733
0.23547557 -0.25412712 1.3234141
0.24137251 -0.25543305 1.330215
0.24733035 -0.25675246 1.3370861
0.25331768 -0.25805259 1.3438568
0.25762928 -0.25762928 1.3416523
0.26192671 -0.25720733 1.3394549
0.26621011 -0.25678673 1.3372647
0.27047944 -0.25636747 1.3350812
0.27473485 -0.25594959 1.3329049
0.27897641 -0.25553301 1.3307356
0.28799242 -0.25943118 1.3510361
0.1681339 -0.25338489 1.3442134
0.17257735 -0.25295582 1.3419372
0.17700575 -0.25252822 1.3396686
0.18141925 -0.25210208 1.3374079
0.18581785 -0.25167733 1.3351548
0.19020167 -0.25125405 1.3329092
0.19457076 -0.2508322 1.3306712
0.19892523 -0.25041175 1.3284408
0.2032651 -0.24999271 1.3262178
0.20759051 -0.24957509 1.3240023
0.21190144 -0.24915884 1.321794
0.21619806 -0.24874401 1.3195933
0.22048038 -0.24833053 1.3173999
0.22474849 -0.24791844 1.3152137
0.22900246 -0.24750772 1.3130348
0.23381828 -0.24770847 1.3140998
0.23966658 -0.24897401 1.3208135
0.24557334 -0.25025094 1.3275876
0.25154102 -0.25154102 1.3344315
0.25757053 -0.25284448 1.3413464
0.26225236 -0.25280181 1.3411201
0.26654056 -0.25238794 1.3389245
0.27081466 -0.25197539 1.3367358
0.27507475 -0.25156409 1.334554
0.28234798 -0.25387591 1.3468182
0.17279914 -0.2485467 1.3436618
0.17723288 -0.24812603 1.3413876
0.18165162 -0.24770676 1.339121
0.18605547 -0.24728891 1.3368621
0.19044447 -0.24687245 1.3346107
0.19481872 -0.24645741 1.3323669
0.19917829 -0.24604379 1.3301308
0.20352328 -0.24563153 1.3279022
0.20785372 -0.24522069 1.3256811
0.21216969 -0.24481118 1.3234673
0.21647128 -0.24440305 1.3212609
0.22075851 -0.24399626 1.3190618
0.22503155 -0.24359085 1.3168701
0.22929038 -0.24318677 1.3146856
0.23353511 -0.24278402 1.3125083
0.2379832 -0.24260423 1.3115363
0.24384113 -0.24384113 1.3182231
0.24975763 -0.24508926 1.3249706
0.25573498 -0.24635023 1.3317875
0.26177421 -0.24762425 1.3386749
0.26687178 -0.24797821 1.3405885
0.27115065 -0.24757233 1.3383943
0.27673867 -0.24835524 1.3426267
0.17302153 -0.24412626 1.345391
0.17746055 -0.2437125 1.3431108
0.18188457 -0.24330015 1.3408383
0.18629368 -0.24288923 1.3385737
0.19068791 -0.24247968 1.3363167
0.19506732 -0.24207149 1.3340671
0.19943202 -0.24166468 1.3318251
0.20378208 -0.24125925 1.3295908
0.20811757 -0.24085517 1.327364
0.2124386 -0.24045247 1.3251446
0.21674515 -0.24005109 1.3229326
0.22103739 -0.23965107 1.3207281
0.22531533 -0.23925237 1.3185308
0.22957906 -0.23885499 1.3163408
0.23382865 -0.23845892 1.3141581
0.23806417 -0.23806417 1.3119826
0.24228571 -0.23767075 1.3098145
0.24799931 -0.23872831 1.3156427
0.25392544 -0.23994789 1.3223639
0.2599124 -0.24117997 1.3291539
0.26596114 -0.24242474 1.3360139
0.2714875 -0.24315839 1.340057
0.28287461 -0.24902636 1.3723958
0.17324445 -0.23969437 1.3471245
0.17768885 -0.23928764 1.3448386
0.18211816 -0.23888227 1.3425603
0.1865325 -0.23847826 1.3402897
0.19093195 -0.23807563 1.3380269
0.19531655 -0.23767437 1.3357717
0.19968641 -0.23727444 1.333524
0.20404156 -0.23687583 1.3312838
0.20838214 -0.23647863 1.3290514
0.21270819 -0.23608272 1.3268263
0.21701978 -0.23568815 1.3246088
0.22131696 -0.23529488 1.3223985
0.22559984 -0.23490292 1.3201957
0.22986847 -0.23451228 1.3180002
0.23412293 -0.23412293 1.315812
0.23836327 -0.23373486 1.3136309
0.24258958 -0.23334807 1.3114572
0.24680197 -0.23296261 1.3092908
0.2521413 -0.2336355 1.3130726
0.25807688 -0.23482671 1.3197674
0.265623 -0.23741525 1.3343154
0.27715743 -0.24341653 1.3680437
0.17346796 -0.23525108 1.3488625
0.1779177 -0.23485138 1.3465707
0.18235233 -0.23445299 1.3442866
0.18677196 -0.234056 1.3420103
0.19117661 -0.2336603 1.3397415
0.19556643 -0.23326598 1.3374805
0.19994143 -0.23287295 1.335227
0.20430171 -0.23248127 1.3329812
0.20864737 -0.23209091 1.330743
0.21297845 -0.23170184 1.3285122
0.21729507 -0.23131411 1.3262891
0.22159724 -0.23092765 1.3240732
0.22588505 -0.23054247 1.3218647
0.23015861 -0.23015861 1.3196638
0.23441796 -0.22977601 1.3174701
0.23866314 -0.22939467 1.3152835
0.24289426 -0.22901459 1.3131043
0.2471114 -0.22863577 1.3109323
0.25131461 -0.22825824 1.3087676
0.26011643 -0.23199573 1.3301973
0.27147633 -0.23784208 1.3637186
0.17814715 -0.23040365 1.3483073
0.18258712 -0.23001234 1.3460174
0.187012 -0.22962233 1.3437351
0.19142191 -0.22923364 1.3414605
0.19581692 -0.22884628 1.3391937
0.20019712 -0.22846024 1.3369346
0.20456253 -0.22807547 1.3346829
0.20891328 -0.22769201 1.3324389
0.21324943 -0.22730984 1.3302025
0.21757106 -0.22692895 1.3279736
0.22187823 -0.22654934 1.3257521
0.22617102 -0.22617102 1.3235382
0.23044947 -0.22579393 1.3213315
0.23471372 -0.22541812 1.3191323
0.23896377 -0.22504355 1.3169403
0.24319971 -0.2246702 1.3147556
0.24742164 -0.22429812 1.3125781
0.2546438 -0.22660962 1.3261049
0.26583067 -0.23230247 1.3594191
0.18282248 -0.2255602 1.3477525
0.18725267 -0.22517726 1.3454643
0.19166785 -0.22479562 1.343184
0.19606809 -0.22441527 1.3409114
0.20045346 -0.22403622 1.3386464
0.20482403 -0.22365843 1.3363891
0.20917989 -0.22328191 1.3341393
0.21352111 -0.22290665 1.3318971
0.21784775 -0.22253266 1.3296624
0.22215994 -0.22215994 1.3274354
0.22645767 -0.22178845 1.3252157
0.23074108 -0.22141822 1.3230035
0.23501021 -0.2210492 1.3207986
0.23926513 -0.22068143 1.3186011
0.24350591 -0.22031488 1.3164109
0.24920475 -0.22125655 1.3220376
0.2602205 -0.22679767 1.3551465
0.18749397 -0.22072075 1.3471981
0.19191442 -0.22034618 1.3449119
0.19631988 -0.21997286 1.3426334
0.20071045 -0.21960084 1.3403627
0.20508617 -0.21923006 1.3380995
0.20944718 -0.21886052 1.335844
0.21379347 -0.21849224 1.3335961
0.21812519 -0.21812519 1.3313558
0.22244236 -0.21775936 1.3291229
0.22674508 -0.21739477 1.3268976
0.23103343 -0.2170314 1.3246797
0.23530748 -0.21666926 1.3224694
0.23956726 -0.21630831 1.3202662
0.2438129 -0.21594857 1.3180705
0.2546455 -0.22132739 1.3509009
0.19216162 -0.21588528 1.3466443
0.19657232 -0.21551906 1.3443599
0.20096809 -0.21515408 1.3420832
0.205349 -0.21479034 1.3398143
0.20971514 -0.21442784 1.3375531
0.21406655 -0.21406655 1.3352995
0.21840331 -0.21370646 1.3330534
0.2227255 -0.21334758 1.3308147
0.22703321 -0.21298993 1.3285837
0.23132654 -0.21263349 1.3263603
0.23560549 -0.21227822 1.3241442
0.23987018 -0.21192414 1.3219355
0.20122641 -0.21069589 1.3438083
0.20561251 -0.21033923 1.3415335
0.20998378 -0.20998378 1.3392665
0.2143403 -0.20962952 1.337007
0.21868214 -0.20927645 1.3347552
0.22300939 -0.20892459 1.3325111
0.22732212 -0.20857389 1.3302743
