# .PCD v0.7 - Point Cloud Data file format
VERSION 0.7
FIELDS x y z
SIZE 4 4 4
TYPE F F F
COUNT 1 1 1
WIDTH 1359
HEIGHT 1
VIEWPOINT 0 0 0 1 0 0 0
POINTS 1359
DATA ascii
-0.13793108 -0.020750694 0.69287509
-0.13552849 -0.020756615 0.69307286
-0.13312453 -0.020762542 0.69327074
-0.13071921 -0.020768473 0.69346875
-0.1283125 -0.020774404 0.69366682
-0.12590443 -0.020780342 0.69386506
-0.12349497 -0.020786282 0.69406343
-0.12408665 -0.021307807 0.7114774
-0.12621656 -0.022120427 0.73861116
-0.22159488 -0.018163515 0.68735313
-0.21923512 -0.018168656 0.68754768
-0.216874 -0.018173799 0.68774229
-0.21451156 -0.018178945 0.68793702
-0.21214779 -0.018184096 0.68813193
-0.20978266 -0.018189248 0.6883269
-0.20741619 -0.018194403 0.68852198
-0.20504837 -0.018199559 0.68871713
-0.20267923 -0.018204721 0.68891245
-0.20030874 -0.018209886 0.68910789
-0.19793685 -0.018215047 0.68930322
-0.19556364 -0.018220216 0.68949878
-0.19318905 -0.018225383 0.68969434
-0.19081344 -0.018230584 0.68989116
-0.18843594 -0.018235736 0.69008613
-0.18605779 -0.01824096 0.69028383
-0.18367788 -0.018246148 0.69048011
-0.1812966 -0.018251335 0.69067645
-0.17891397 -0.018256526 0.69087291
-0.17652999 -0.018261723 0.69106954
-0.17414464 -0.01826692 0.69126624
-0.17175794 -0.018272122 0.69146305
-0.16936988 -0.018277325 0.69165993
-0.16698045 -0.018282531 0.69185698
-0.16458966 -0.018287741 0.69205409
-0.16219752 -0.018292954 0.69225138
-0.15980399 -0.018298168 0.69244868
-0.15740913 -0.018303387 0.69264621
-0.15501262 -0.018308578 0.69284266
-0.15261494 -0.018313792 0.69303995
-0.15021585 -0.018319005 0.69323725
-0.14781547 -0.018324232 0.69343501
-0.14541373 -0.018329462 0.69363296
-0.14301066 -0.0183347 0.69383115
-0.14060621 -0.018339941 0.69402951
-0.13820039 -0.018345185 0.69422793
-0.13579318 -0.01835043 0.69442642
-0.13338462 -0.018355681 0.69462514
-0.13097467 -0.018360933 0.69482392
-0.12856331 -0.018366188 0.69502276
-0.12615061 -0.018371448 0.69522178
-0.1237365 -0.018376708 0.69542086
-0.12404387 -0.018794527 0.71123219
-0.12617142 -0.019511046 0.73834705
-0.22202404 -0.015772199 0.68868428
-0.21965984 -0.015776673 0.68887961
-0.21729426 -0.015781147 0.68907499
-0.21492736 -0.015785625 0.6892705
-0.2125591 -0.015790105 0.68946612
-0.21018952 -0.015794588 0.68966186
-0.20781857 -0.015799072 0.68985766
-0.20544629 -0.015803561 0.69005364
-0.20307264 -0.01580805 0.69024968
-0.20069768 -0.015812544 0.6904459
-0.19832139 -0.015817042 0.69064236
-0.19594346 -0.015821522 0.69083792
-0.19356471 -0.015826046 0.69103545
-0.19118427 -0.015830545 0.69123191
-0.18880276 -0.015835071 0.6914295
-0.18641967 -0.015839579 0.69162637
-0.18403521 -0.01584409 0.69182336
-0.18164939 -0.015848605 0.69202048
-0.17926222 -0.015853122 0.69221771
-0.1768737 -0.015857641 0.69241506
-0.17448381 -0.015862163 0.69261253
-0.17209256 -0.015866689 0.69281012
-0.16969994 -0.015871217 0.69300783
-0.16730595 -0.015875746 0.6932056
-0.1649106 -0.015880279 0.69340354
-0.16251387 -0.015884815 0.69360155
-0.16011579 -0.015889354 0.69379973
-0.15771633 -0.015893893 0.69399798
-0.15531549 -0.015898436 0.69419634
-0.15291287 -0.015902938 0.69439292
-0.15050936 -0.015907494 0.69459182
-0.14810444 -0.015912047 0.69479066
-0.14569798 -0.015916586 0.69498885
-0.14329027 -0.01592114 0.69518769
-0.14088118 -0.0159257 0.69538677
-0.13847074 -0.015930263 0.69558603
-0.13605891 -0.015934827 0.69578534
-0.1336457 -0.015939396 0.69598478
-0.13123108 -0.015943963 0.69618428
-0.1288151 -0.015948538 0.69638395
-0.12639774 -0.015953112 0.69658375
-0.12397898 -0.015957691 0.69678366
-0.12400115 -0.016282979 0.71098721
-0.12612633 -0.016903529 0.73808312
-0.22245488 -0.013371604 0.69002068
-0.22008619 -0.013375403 0.69021672
-0.21771616 -0.013379205 0.69041288
-0.21534477 -0.013383009 0.69060916
-0.21297203 -0.013386813 0.69080549
-0.21059796 -0.013390621 0.69100201
-0.20822252 -0.013394431 0.69119859
-0.20584574 -0.013398244 0.69139534
-0.20346761 -0.013402058 0.69159216
-0.20108826 -0.013405885 0.69178963
-0.19870703 -0.013409676 0.69198531
-0.19632515 -0.01341352 0.69218361
-0.19394168 -0.013417349 0.69238126
-0.19155684 -0.01342118 0.69257891
-0.18917057 -0.013425008 0.6927765
-0.18678294 -0.013428839 0.69297415
-0.18439394 -0.013432671 0.69317192
-0.1820036 -0.013436507 0.69336987
-0.17961188 -0.013440344 0.69356787
-0.17721878 -0.013444183 0.693766
-0.17482433 -0.013448025 0.69396424
-0.17242847 -0.013451867 0.69416249
-0.17003128 -0.013455713 0.69436097
-0.16763273 -0.013459562 0.69455957
-0.16523278 -0.013463411 0.69475824
-0.16283146 -0.013467263 0.69495702
-0.16042879 -0.013471119 0.69515598
-0.15802471 -0.013474976 0.695355
-0.15561928 -0.013478835 0.69555414
-0.15321246 -0.013482696 0.6957534
-0.1508041 -0.013486546 0.69595206
-0.14839467 -0.013490424 0.69615221
-0.14598358 -0.01349428 0.69635117
-0.143571 -0.013498128 0.69654971
-0.14115725 -0.013501999 0.69674945
-0.13874216 -0.013505874 0.69694942
-0.13632567 -0.013509751 0.69714952
-0.13390781 -0.013513632 0.69734979
-0.13148855 -0.013517515 0.69755012
-0.1290679 -0.013521398 0.69775057
-0.12664585 -0.013525285 0.69795108
-0.12422241 -0.013529173 0.69815177
-0.12395844 -0.01377316 0.71074229
-0.12608126 -0.014297875 0.73781937
-0.22051419 -0.010964794 0.69155902
-0.21813968 -0.010967917 0.69175595
-0.21576379 -0.01097104 0.69195294
-0.21338657 -0.010974167 0.69215012
-0.21100798 -0.010977293 0.69234735
-0.20862804 -0.010980424 0.69254476
-0.20624675 -0.010983555 0.69274223
-0.20386405 -0.010986686 0.6929397
-0.20147997 -0.010989816 0.69313717
-0.19909479 -0.010992964 0.69333565
-0.19670817 -0.01099611 0.69353408
-0.1943201 -0.010999251 0.6937322
-0.19193064 -0.011002393 0.69393039
-0.18953982 -0.011005539 0.69412875
-0.18714763 -0.011008685 0.69432718
-0.18475407 -0.011011832 0.69452572
-0.18235914 -0.011014982 0.69472438
-0.17996284 -0.011018134 0.69492316
-0.17756519 -0.011021287 0.69512206
-0.17516614 -0.011024443 0.69532108
-0.17276573 -0.0110276 0.69552022
-0.17036395 -0.01103076 0.69571948
-0.16796078 -0.01103392 0.6959188
-0.16555624 -0.011037082 0.6961183
-0.16315031 -0.011040247 0.69631785
-0.160743 -0.011043413 0.69651753
-0.15833431 -0.01104658 0.69671732
-0.15592425 -0.01104975 0.69691724
-0.15351281 -0.011052921 0.69711727
-0.15109996 -0.011056095 0.69731742
-0.14868575 -0.01105927 0.69751769
-0.14627002 -0.01106244 0.69771755
-0.14385307 -0.011065621 0.69791824
-0.14143443 -0.011068781 0.69811755
-0.13901465 -0.011071963 0.69831824
-0.13659351 -0.011075149 0.69851917
-0.13417095 -0.011078334 0.6987201
-0.13174701 -0.011081524 0.69892126
-0.12932166 -0.011084715 0.69912249
-0.12689494 -0.011087907 0.69932383
-0.12446681 -0.011091101 0.6995253
-0.12391578 -0.01126507 0.71049768
-0.12603623 -0.011694083 0.73755586
-0.22094388 -0.0085447915 0.69290656
-0.21856487 -0.0085472288 0.69310427
-0.21618447 -0.0085496679 0.69330204
-0.21380273 -0.0085521089 0.69349998
-0.21141961 -0.0085545508 0.69369799
-0.20903514 -0.0085569937 0.69389611
-0.20664926 -0.0085594365 0.69409418
-0.20426217 -0.0085618868 0.6942929
-0.20187363 -0.0085643353 0.69449145
-0.19948386 -0.0085667912 0.69469059
-0.19709256 -0.0085692424 0.69488931
-0.19469993 -0.0085716946 0.69508821
-0.19230591 -0.0085741486 0.69528723
-0.18991052 -0.0085766045 0.69548631
-0.18751375 -0.0085790604 0.69568551
-0.18511562 -0.0085815182 0.69588482
-0.1827161 -0.0085839778 0.69608426
-0.18031521 -0.0085864384 0.69628382
-0.17791295 -0.0085889008 0.69648349
-0.17550932 -0.0085913651 0.69668329
-0.1731043 -0.0085938303 0.6968832
-0.17069788 -0.0085962964 0.69708318
-0.16829011 -0.0085987644 0.69728333
-0.16588095 -0.0086012343 0.6974836
-0.16347039 -0.0086037051 0.69768393
-0.16105846 -0.0086061778 0.69788444
-0.15864514 -0.0086086504 0.69808501
-0.15623043 -0.0086111268 0.69828576
-0.15381433 -0.0086136023 0.69848657
-0.15139684 -0.0086160805 0.69868749
-0.14897798 -0.0086185606 0.6988886
-0.1465577 -0.0086210417 0.69908977
-0.14413574 -0.0086235059 0.69928962
-0.14171292 -0.0086260037 0.69949222
-0.13928822 -0.0086284736 0.69969249
-0.13686237 -0.0086309602 0.69989413
-0.13443513 -0.0086334487 0.70009589
-0.13200648 -0.0086359382 0.70029777
-0.12957644 -0.0086384304 0.70049983
-0.12714501 -0.0086409235 0.70070201
-0.12471216 -0.0086434167 0.70090425
-0.12387312 -0.008758706 0.71025312
-0.12599121 -0.0090921493 0.73729247
-0.22137526 -0.0061153388 0.69425941
-0.21899171 -0.0061170869 0.69445789
-0.2166068 -0.0061188359 0.69465643
-0.21422051 -0.0061205858 0.69485509
-0.21183285 -0.0061223367 0.69505388
-0.20944384 -0.0061240885 0.69525278
-0.20705365 -0.0061258473 0.69545245
-0.20466176 -0.0061275973 0.69565111
-0.20226878 -0.006129357 0.69585085
-0.1998743 -0.0061311135 0.69605029
-0.19747846 -0.0061328714 0.69624984
-0.19508122 -0.0061346297 0.69644946
-0.19268262 -0.0061363894 0.69664925
-0.19028266 -0.0061381506 0.69684917
-0.18788131 -0.0061399117 0.69704914
-0.18547857 -0.0061416742 0.69724923
-0.18307446 -0.0061434386 0.69744951
-0.18066896 -0.006145203 0.69764984
-0.1782621 -0.0061469688 0.69785029
-0.17585383 -0.0061487355 0.69805086
-0.17344418 -0.0061505027 0.69825149
-0.17103314 -0.0061522713 0.69845229
-0.16862074 -0.0061540413 0.69865322
-0.16620693 -0.0061558122 0.69885427
-0.16379175 -0.006157584 0.69905543
-0.16137516 -0.0061593573 0.69925672
-0.15895718 -0.0061611314 0.69945812
-0.1565378 -0.0061629056 0.69965959
-0.15411705 -0.0061646821 0.69986123
-0.15169489 -0.0061664591 0.70006299
-0.14927134 -0.006168237 0.70026481
-0.14684637 -0.0061700158 0.70046675
-0.14442003 -0.006171796 0.70066887
-0.14199223 -0.0061735753 0.70087087
-0.1395629 -0.0061753499 0.70107234
-0.13713232 -0.0061771316 0.70127457
-0.13470034 -0.006178915 0.70147705
-0.132267 -0.0061807008 0.70167983
-0.12983224 -0.0061824876 0.70188266
-0.12739606 -0.0061842748 0.70208555
-0.12495849 -0.0061860634 0.70228863
-0.12383051 -0.0062540662 0.7100088
-0.12594625 -0.0064920746 0.73702931
-0.22180831 -0.0036763807 0.6956175
-0.21942022 -0.0036774338 0.69581676
-0.21703075 -0.0036784874 0.69601607
-0.21463993 -0.0036795416 0.69621557
-0.2122477 -0.0036805961 0.69641507
-0.2098543 -0.0036816546 0.69661534
-0.20745921 -0.0036827079 0.69681466
-0.20506305 -0.0036837673 0.69701511
-0.20266536 -0.0036848248 0.6972152
-0.20026629 -0.0036858825 0.69741535
-0.19786586 -0.0036869415 0.69761568
-0.19546403 -0.0036880004 0.69781607
-0.19306083 -0.0036890605 0.69801664
-0.19065626 -0.003690121 0.69821733
-0.1882503 -0.0036911825 0.69841814
-0.18584295 -0.0036922439 0.69861901
-0.18343422 -0.0036933066 0.69882005
-0.1810241 -0.0036943695 0.69902116
-0.1786126 -0.0036954333 0.69922245
-0.1761997 -0.0036964973 0.69942379
-0.17378543 -0.0036975623 0.69962531
-0.17136975 -0.0036986277 0.6998269
-0.16895269 -0.0036996938 0.7000286
-0.16653422 -0.0037007604 0.70023042
-0.16411437 -0.003701828 0.70043242
-0.16169313 -0.0037028959 0.70063448
-0.15927045 -0.0037039642 0.7008366
-0.1568464 -0.0037050333 0.7010389
-0.15442096 -0.003706103 0.70124131
-0.15199411 -0.0037071735 0.70144385
-0.14956585 -0.0037082441 0.70164645
-0.1471362 -0.0037093158 0.70184922
-0.14470513 -0.0037103882 0.70205212
-0.14227268 -0.0037114611 0.70225513
-0.1398388 -0.0037125347 0.70245826
-0.13740353 -0.003713609 0.70266151
-0.13496667 -0.003714679 0.70286399
-0.13252853 -0.0037157531 0.70306724
-0.13008903 -0.0037168292 0.70327085
-0.12764812 -0.0037179063 0.70347464
-0.12520579 -0.0037189836 0.70367849
-0.12378792 -0.0037511492 0.7097646
-0.12590131 -0.003893855 0.73676634
-0.22224306 -0.0012278622 0.69698089
-0.21985041 -0.0012282146 0.69718093
-0.21745639 -0.0012285671 0.69738108
-0.21506098 -0.0012289198 0.69758129
-0.21266417 -0.0012292727 0.69778156
-0.21026596 -0.0012296255 0.69798183
-0.20786665 -0.0012299801 0.69818318
-0.20546575 -0.0012303338 0.69838393
-0.20306347 -0.0012306877 0.69858479
-0.20065983 -0.0012310419 0.69878584
-0.19825478 -0.0012313962 0.69898695
-0.19584836 -0.0012317507 0.69918817
-0.19344054 -0.0012321054 0.69938952
-0.19103135 -0.0012324603 0.69959098
-0.18862076 -0.0012328154 0.69979256
-0.18620877 -0.0012331706 0.69999421
-0.18379541 -0.0012335262 0.70019603
-0.18138064 -0.0012338819 0.70039797
-0.17896448 -0.0012342378 0.70059997
-0.17654695 -0.001234594 0.70080215
-0.17412801 -0.0012349504 0.70100445
-0.17170766 -0.0012353068 0.7012068
-0.16928592 -0.0012356637 0.70140934
-0.16686279 -0.0012360206 0.70161194
-0.16443825 -0.0012363779 0.70181471
-0.16201231 -0.0012367351 0.70201755
-0.15958497 -0.0012370928 0.70222056
-0.15715621 -0.0012374505 0.70242363
-0.15472607 -0.0012378086 0.70262688
-0.15229452 -0.0012381668 0.7028302
-0.14986154 -0.0012385251 0.70303363
-0.14742717 -0.0012388837 0.70323718
-0.14499138 -0.0012392426 0.70344085
-0.14255418 -0.0012396015 0.70364463
-0.14011557 -0.0012399608 0.70384854
-0.13767555 -0.0012403204 0.70405263
-0.13523398 -0.0012406787 0.70425606
-0.13279118 -0.001241039 0.70446056
-0.13034683 -0.0012413984 0.70466459
-0.12790117 -0.0012417589 0.70486921
-0.12545407 -0.0012421195 0.70507389
-0.12374537 -0.0012499533 0.70952064
-0.1258564 -0.0012974887 0.73650354
-0.22267953 0.0012302736 0.69834971
-0.2202823 0.0012306273 0.69855052
-0.21788368 0.0012309812 0.69875139
-0.21548375 0.0012313357 0.69895262
-0.21308233 0.0012316898 0.6991536
-0.21067968 0.0012320449 0.69935519
-0.20827557 0.0012323998 0.69955665
-0.20587006 0.0012327548 0.69975817
-0.20346318 0.0012331102 0.69995987
-0.2010549 0.0012334656 0.70016164
-0.19864525 0.0012338214 0.70036358
-0.19623418 0.0012341773 0.70056558
-0.19382174 0.0012345334 0.70076776
-0.1914079 0.0012348897 0.70096999
-0.18899266 0.0012352462 0.70117235
-0.18657604 0.0012356029 0.70137483
-0.18415803 0.0012359599 0.70157748
-0.1817386 0.001236317 0.7017802
-0.17931779 0.0012366744 0.70198303
-0.17689556 0.0012370319 0.70218599
-0.17447194 0.0012373896 0.70238906
-0.1720469 0.0012377475 0.70259219
-0.16962048 0.0012381057 0.70279551
-0.16719265 0.001238464 0.70299894
-0.16476341 0.0012388227 0.70320249
-0.16233277 0.0012391815 0.70340616
-0.15990072 0.0012395404 0.70360994
-0.15746726 0.0012398997 0.70381385
-0.1550324 0.0012402592 0.70401788
-0.1525961 0.0012406188 0.70422202
-0.15015841 0.0012409786 0.70442629
-0.14771929 0.0012413386 0.70463061
-0.14527877 0.0012416989 0.70483512
-0.14283682 0.0012420593 0.70503974
-0.14039347 0.0012424201 0.70524448
-0.13794868 0.0012427809 0.70544934
-0.13550247 0.0012431421 0.70565432
-0.13305485 0.0012435033 0.70585942
-0.13060574 0.0012438642 0.70606428
-0.12815522 0.0012442254 0.70626932
-0.12570333 0.0012445874 0.70647478
-0.12370285 0.0012495237 0.7092768
-0.12581153 0.0012970262 0.73624098
-0.22311768 0.0036980831 0.69972384
-0.22071588 0.0036991488 0.69992548
-0.21831267 0.0037002147 0.70012718
-0.21590814 0.0037012824 0.70032918
-0.21350218 0.00370235 0.70053118
-0.21109484 0.0037034182 0.7007333
-0.2086861 0.0037044871 0.70093554
-0.20627598 0.0037055565 0.7011379
-0.20386446 0.0037066266 0.70134038
-0.20145155 0.0037076974 0.70154297
-0.19903724 0.0037087684 0.70174563
-0.19662152 0.0037098401 0.7019484
-0.19420443 0.0037109128 0.70215136
-0.19178595 0.0037119859 0.70235443
-0.18936604 0.0037130597 0.70255762
-0.18694474 0.003714134 0.70276088
-0.18452205 0.0037152092 0.70296431
-0.18209794 0.0037162846 0.7031678
-0.17967245 0.003717361 0.70337147
-0.17724554 0.0037184381 0.70357525
-0.17481722 0.0037195154 0.7037791
-0.17238751 0.0037205936 0.70398313
-0.16995637 0.0037216723 0.70418721
-0.16752383 0.0037227517 0.70439148
-0.16508989 0.0037238321 0.70459586
-0.16265452 0.0037249124 0.70480031
-0.16021773 0.0037259937 0.70500487
-0.15777953 0.0037270754 0.70520955
-0.15533993 0.0037281581 0.70541441
-0.15289889 0.0037292412 0.70561934
-0.15045644 0.003730325 0.70582443
-0.14801258 0.0037314093 0.70602959
-0.14556728 0.0037324945 0.70623493
-0.14312057 0.0037335802 0.70644033
-0.14067245 0.0037346666 0.70664591
-0.13822287 0.0037357535 0.70685154
-0.1357719 0.0037368413 0.70705736
-0.13331948 0.0037379293 0.70726323
-0.13086563 0.0037390182 0.70746928
-0.12841031 0.003740106 0.7076751
-0.1259536 0.0037411959 0.70788133
-0.12366035 0.0037472832 0.70903313
-0.12576669 0.0038896913 0.73597854
-0.22115117 0.0061774068 0.70130587
-0.21874337 0.0061791912 0.7015084
-0.21633418 0.0061809765 0.70171112
-0.21392359 0.0061827628 0.70191389
-0.21151161 0.00618455 0.70211679
-0.20909825 0.0061863386 0.70231986
-0.20668347 0.0061881281 0.70252299
-0.20426732 0.0061899186 0.7027263
-0.20184976 0.00619171 0.70292968
-0.19943078 0.0061935028 0.70313317
-0.19701041 0.0061952961 0.70333678
-0.19458866 0.0061970912 0.70354056
-0.19216549 0.0061988868 0.70374441
-0.18974091 0.0062006833 0.70394838
-0.18731491 0.0062024808 0.70415241
-0.18488754 0.0062042796 0.70435667
-0.18245874 0.0062060794 0.704561
-0.18002853 0.0062078806 0.70476544
-0.17759691 0.0062096822 0.70497
-0.17516388 0.0062114852 0.70517468
-0.17272945 0.0062132897 0.70537955
-0.1702936 0.0062150946 0.70558447
-0.16785632 0.0062169009 0.70578951
-0.16541763 0.0062187081 0.70599467
-0.16297752 0.0062205163 0.70619994
-0.16053599 0.0062223254 0.70640534
-0.15809305 0.0062241359 0.70661086
-0.15564869 0.0062259473 0.70681655
-0.15320289 0.0062277601 0.70702231
-0.15075567 0.0062295734 0.70722818
-0.14830703 0.0062313876 0.70743418
-0.14585695 0.0062332028 0.70764023
-0.14340545 0.0062350193 0.70784646
-0.14095253 0.0062368377 0.70805287
-0.13849817 0.0062386561 0.70825934
-0.13604237 0.0062404759 0.70846593
-0.13358516 0.0062422967 0.70867264
-0.13112649 0.0062441188 0.70887947
-0.1286664 0.0062459414 0.70908642
-0.12620485 0.0062477649 0.70929343
-0.12374188 0.0062495898 0.70950061
-0.12572187 0.0064805089 0.73571628
-0.22158818 0.0086654592 0.70269167
-0.21917574 0.0086679673 0.70289505
-0.21676192 0.0086704763 0.70309854
-0.21434668 0.0086729871 0.70330209
-0.21193004 0.008675498 0.70350575
-0.20951201 0.0086780125 0.7037096
-0.20709258 0.0086805271 0.70391357
-0.20467176 0.0086830445 0.70411766
-0.20224953 0.0086855628 0.70432186
-0.19982588 0.008688082 0.70452619
-0.19740085 0.0086906031 0.70473063
-0.19497439 0.008693126 0.70493519
-0.19254653 0.0086956499 0.70513988
-0.19011725 0.0086981747 0.70534462
-0.18768658 0.0087007023 0.70554954
-0.18525447 0.0087032309 0.70575458
-0.18282098 0.0087057604 0.70595974
-0.18038605 0.0087082917 0.70616502
-0.17794971 0.0087108249 0.70637041
-0.17551194 0.0087133581 0.70657587
-0.17307274 0.0087158931 0.70678145
-0.17063215 0.008718431 0.7069872
-0.16819014 0.0087209698 0.70719308
-0.16574669 0.0087235104 0.70739907
-0.16330181 0.0087260511 0.70760512
-0.16085552 0.0087285945 0.70781136
-0.15839589 0.0087304814 0.70796442
-0.15593429 0.0087323198 0.70811349
-0.15347168 0.008734161 0.70826274
-0.15100802 0.0087360013 0.70841199
-0.14854331 0.0087378416 0.70856124
-0.14607757 0.0087396838 0.70871061
-0.14361081 0.0087415269 0.7088601
-0.14114298 0.0087433709 0.70900959
-0.13867413 0.0087452149 0.70915914
-0.13620423 0.0087470608 0.7093088
-0.13373327 0.0087489057 0.70945847
-0.13126129 0.0087507525 0.7096082
-0.12878826 0.0087526003 0.70975804
-0.12631419 0.008754449 0.70990795
-0.12383907 0.0087562976 0.71005785
-0.12567709 0.0090694809 0.7354542
-0.22314142 0.01109543 0.69979829
-0.22072181 0.011097745 0.69994432
-0.21830119 0.01110006 0.70009035
-0.21587956 0.011102377 0.7002365
-0.21345691 0.011104695 0.70038265
-0.21103315 0.011107008 0.70052856
-0.2086084 0.011109323 0.70067459
-0.20618263 0.011111639 0.70082062
-0.20375587 0.011113957 0.70096678
-0.20132807 0.011116274 0.70111293
-0.19889928 0.011118594 0.70125926
-0.19646946 0.011120913 0.70140553
-0.19403861 0.011123233 0.70155185
-0.19160677 0.011125554 0.7016983
-0.18917392 0.011127878 0.70184481
-0.18674004 0.011130202 0.70199138
-0.18430515 0.011132525 0.70213795
-0.18186925 0.011134852 0.70228469
-0.1794323 0.011137178 0.70243138
-0.17699435 0.011139505 0.70257813
-0.17455539 0.011141833 0.70272499
-0.1721154 0.011144162 0.70287192
-0.1696744 0.011146493 0.7030189
-0.16723236 0.011148824 0.70316595
-0.16478932 0.011151157 0.70331305
-0.16234525 0.01115349 0.70346022
-0.15990014 0.011155824 0.70360744
-0.15745403 0.01115816 0.70375472
-0.15500689 0.011160496 0.70390207
-0.15255873 0.011162834 0.70404953
-0.15010953 0.011165172 0.70419699
-0.14765932 0.01116751 0.70434451
-0.14520806 0.011169851 0.70449209
-0.14275579 0.011172192 0.70463979
-0.14030249 0.011174535 0.70478755
-0.13784817 0.011176878 0.70493531
-0.1353928 0.011179222 0.70508313
-0.13293642 0.011181568 0.70523107
-0.13047899 0.011183914 0.70537907
-0.12802054 0.011186261 0.70552707
-0.12556104 0.011188608 0.70567513
-0.1235325 0.011230227 0.70830005
-0.12563232 0.011656607 0.73519218
-0.22182935 0.013481341 0.69568348
-0.21942368 0.013484137 0.69582772
-0.21701704 0.013486935 0.69597208
-0.21460938 0.013489733 0.69611651
-0.21220075 0.013492533 0.69626099
-0.20979108 0.013495333 0.69640547
-0.20738046 0.013498136 0.69655013
-0.2049688 0.013500938 0.69669473
-0.20255612 0.013503741 0.69683939
-0.20014246 0.013506546 0.69698411
-0.19772771 0.013509347 0.69712865
-0.19531198 0.013512149 0.69727325
-0.19289523 0.013514953 0.69741791
-0.19047746 0.013517756 0.69756258
-0.18805873 0.013520563 0.69770741
-0.18563896 0.013523368 0.69785219
-0.18321821 0.013526176 0.69799709
-0.18079644 0.013528985 0.69814205
-0.17837366 0.013531796 0.69828707
-0.17594989 0.013534606 0.69843215
-0.17352509 0.013537418 0.69857723
-0.17109929 0.013540232 0.69872242
-0.1686725 0.013543048 0.69886774
-0.16624467 0.013545861 0.69901294
-0.16381584 0.013548679 0.69915831
-0.16138601 0.013551497 0.69930375
-0.15895519 0.013554318 0.6994493
-0.15652333 0.013557139 0.69959486
-0.15409046 0.01355996 0.69974047
-0.15165657 0.013562782 0.69988608
-0.14922167 0.013565607 0.70003188
-0.14678577 0.013568433 0.70017767
-0.14434884 0.013571259 0.70032352
-0.14191091 0.013574088 0.70046949
-0.13947195 0.013576915 0.70061541
-0.13703197 0.013579745 0.70076144
-0.13459098 0.013582576 0.70090753
-0.13214898 0.013585409 0.70105374
-0.12970595 0.013588243 0.70119995
-0.12726191 0.013591077 0.70134622
-0.12481683 0.013593913 0.70149255
-0.12349005 0.013721117 0.70805669
-0.12558711 0.014241836 0.73492759
-0.2205326 0.015839359 0.69161671
-0.21814074 0.015842624 0.69175929
-0.21574791 0.015845891 0.69190198
-0.21335407 0.015849158 0.69204468
-0.21095924 0.015852429 0.69218743
-0.20856346 0.015855702 0.69233036
-0.20616665 0.015858974 0.69247323
-0.20376888 0.015862249 0.69261622
-0.20137011 0.015865523 0.69275922
-0.19897035 0.015868802 0.69290233
-0.19656959 0.015872078 0.69304544
-0.19416784 0.015875358 0.69318861
-0.1917651 0.015878638 0.6933319
-0.18936136 0.01588192 0.69347519
-0.18695661 0.015885202 0.69361848
-0.18455081 0.01588848 0.69376159
-0.18214402 0.015891761 0.69390482
-0.17973623 0.015895041 0.69404805
-0.17732745 0.015898323 0.6941914
-0.17491767 0.015901607 0.69433475
-0.17250688 0.01590489 0.69447815
-0.17009513 0.015908178 0.69462168
-0.16768236 0.015911466 0.69476527
-0.1652686 0.015914755 0.69490886
-0.16285384 0.015918044 0.6950525
-0.16043808 0.015921336 0.69519621
-0.15802132 0.015924629 0.69534004
-0.15560356 0.015927924 0.69548386
-0.15318477 0.015931217 0.69562769
-0.15076503 0.015934516 0.69577169
-0.14834428 0.015937814 0.69591576
-0.1459225 0.015941113 0.69605982
-0.14349973 0.015944414 0.69620395
-0.14107595 0.015947716 0.69634813
-0.13865119 0.015951021 0.69649243
-0.1362254 0.015954327 0.69663674
-0.13379861 0.015957633 0.6967811
-0.13137083 0.015960941 0.69692558
-0.12894203 0.015964251 0.69707012
-0.12651221 0.015967561 0.69721466
-0.1240814 0.015970873 0.69735926
-0.1234474 0.016210265 0.70781219
-0.12554191 0.016825205 0.73466319
-0.22162816 0.018166242 0.68745631
-0.21925092 0.018169966 0.68759722
-0.21687271 0.018173691 0.68773818
-0.21449351 0.018177416 0.68787915
-0.21211337 0.018181145 0.68802029
-0.2097322 0.018184874 0.68816137
-0.20735008 0.018188603 0.68830252
-0.20496701 0.018192338 0.68844384
-0.20258293 0.018196071 0.6885851
-0.20019788 0.018199807 0.68872648
-0.19781183 0.018203543 0.68886787
-0.19542482 0.018207282 0.68900937
-0.19303682 0.018211022 0.68915087
-0.19064786 0.018214764 0.68929249
-0.18825792 0.018218508 0.68943417
-0.18586697 0.018222252 0.68957585
-0.18347505 0.018226 0.68971765
-0.18108214 0.018229745 0.68985945
-0.17868826 0.018233497 0.69000137
-0.17629339 0.018237246 0.69014329
-0.17389749 0.018240996 0.69028515
-0.17150056 0.018244741 0.69042689
-0.16910265 0.018248487 0.69056869
-0.16670378 0.018252239 0.6907106
-0.16430391 0.01825599 0.69085258
-0.16190304 0.018259741 0.69099456
-0.15950119 0.018263495 0.6911366
-0.15709837 0.018267252 0.69127876
-0.15469453 0.018271009 0.69142091
-0.15228972 0.018274765 0.69156313
-0.14988391 0.018278526 0.69170541
-0.14747714 0.018282289 0.6918478
-0.14506935 0.018286051 0.6919902
-0.14266056 0.018289816 0.69213265
-0.14025079 0.01829358 0.69227511
-0.13784002 0.018297348 0.69241768
-0.13542826 0.018301116 0.69256032
-0.13301551 0.018304888 0.69270301
-0.13060178 0.01830866 0.69284576
-0.12818705 0.018312436 0.69298863
-0.12577131 0.018316211 0.69313151
-0.12335458 0.018319989 0.69327444
-0.12340462 0.01869767 0.70756686
-0.12549676 0.019406714 0.7343989
-0.22034782 0.02046947 0.68348491
-0.21798405 0.02047364 0.68362415
-0.21561933 0.020477813 0.6837635
-0.21325365 0.020481989 0.68390292
-0.21088699 0.020486163 0.68404233
-0.20851937 0.020490343 0.68418187
-0.20615077 0.020494521 0.6843214
-0.20378122 0.020498702 0.684461
-0.20141071 0.020502886 0.68460071
-0.19903922 0.020507071 0.68474042
-0.19666676 0.020511257 0.6848802
-0.19429332 0.020515444 0.68502003
-0.19191895 0.020519637 0.68515998
-0.18954358 0.020523828 0.68529993
-0.18716723 0.020528018 0.68543988
-0.18478994 0.020532215 0.68558002
-0.18241164 0.02053641 0.68572009
-0.18003242 0.02054061 0.68586034
-0.17765217 0.020544808 0.68600053
-0.17527099 0.020549012 0.68614089
-0.17288882 0.020553214 0.6862812
-0.17050566 0.02055742 0.68642163
-0.16812155 0.020561628 0.68656212
-0.16573644 0.020565836 0.68670261
-0.16335037 0.020570047 0.68684322
-0.16096328 0.020574253 0.6869837
-0.15857518 0.020578457 0.68712407
-0.1561861 0.020582665 0.68726456
-0.15379606 0.020586874 0.68740511
-0.15140502 0.020591084 0.68754566
-0.14901303 0.020595297 0.68768632
-0.14662004 0.020599509 0.68782699
-0.14422607 0.020603726 0.68796778
-0.14183114 0.020607945 0.68810862
-0.13943522 0.020612162 0.68824947
-0.13703831 0.020616382 0.68839037
-0.13464043 0.020620605 0.6885314
-0.13224155 0.020624829 0.68867242
-0.1298417 0.020629054 0.68881351
-0.12744085 0.02063328 0.68895465
-0.12503903 0.02063751 0.68909585
-0.12263622 0.02064174 0.68923712
-0.12336189 0.021183353 0.70732182
-0.12545162 0.021986367 0.73413479
-0.22143167 0.022741631 0.67942148
-0.21908219 0.022746239 0.67955911
-0.21673176 0.022750847 0.6796968
-0.21438037 0.022755457 0.67983454
-0.212028 0.022760067 0.67997229
-0.2096747 0.022764683 0.68011016
-0.20732044 0.022769297 0.68024802
-0.20496526 0.022773918 0.68038607
-0.20260909 0.022778537 0.68052405
-0.20025198 0.022783158 0.68066216
-0.19789387 0.02278778 0.6808002
-0.19553486 0.022792406 0.68093842
-0.19317485 0.022797033 0.68107665
-0.1908139 0.022801662 0.68121493
-0.18845201 0.022806294 0.68135333
-0.18608913 0.022810925 0.68149167
-0.1837253 0.022815559 0.68163013
-0.1813605 0.022820195 0.68176866
-0.17899476 0.022824835 0.68190724
-0.17662804 0.022829475 0.68204588
-0.17426038 0.022834118 0.68218458
-0.17189173 0.022838762 0.68232334
-0.16952212 0.022843407 0.6824621
-0.16715157 0.022848055 0.68260098
-0.16478004 0.022852706 0.68273991
-0.16240753 0.022857357 0.68287885
-0.16003408 0.022862012 0.68301791
-0.15765963 0.022866666 0.68315697
-0.15528426 0.022871325 0.68329614
-0.15290788 0.022875983 0.68343532
-0.15053055 0.022880644 0.68357456
-0.1481522 0.0228853 0.68371367
-0.14577287 0.022889955 0.68385273
-0.14339258 0.022894613 0.68399191
-0.1410113 0.022899272 0.68413109
-0.13862906 0.022903932 0.68427032
-0.13624585 0.022908594 0.68440962
-0.13386168 0.02291326 0.68454903
-0.13147654 0.022917928 0.68468845
-0.1290904 0.022922594 0.68482786
-0.12670331 0.022927264 0.6849674
-0.12431525 0.022931939 0.68510705
-0.1219262 0.022936612 0.68524665
-0.12331915 0.023667311 0.70707679
-0.12540655 0.024564167 0.73387098
-0.22016732 0.024991967 0.67554206
-0.21783103 0.024997003 0.67567819
-0.21549375 0.025002036 0.67581427
-0.21315555 0.025007075 0.67595047
-0.2108164 0.025012115 0.67608666
-0.20847629 0.025017155 0.67622292
-0.20613527 0.025022201 0.6763593
-0.20379327 0.025027243 0.67649561
-0.20145036 0.025032293 0.67663211
-0.19910648 0.025037343 0.6767686
-0.19676167 0.025042394 0.67690516
-0.19441591 0.025047449 0.67704177
-0.19206919 0.025052503 0.67717838
-0.18972154 0.025057562 0.67731512
-0.18737292 0.025062621 0.67745185
-0.18502337 0.025067683 0.6775887
-0.18267286 0.025072746 0.67772555
-0.18032141 0.025077812 0.67786252
-0.17796901 0.025082881 0.6779995
-0.17561565 0.025087949 0.67813653
-0.17326136 0.025093025 0.67827368
-0.1709061 0.025098098 0.67841083
-0.16854988 0.025103174 0.67854804
-0.16619271 0.025108252 0.67868531
-0.16383459 0.025113331 0.67882258
-0.16147552 0.025118416 0.67896003
-0.15911549 0.025123497 0.67909741
-0.15675452 0.025128588 0.67923498
-0.15439257 0.025133675 0.67937249
-0.15202968 0.025138766 0.67951012
-0.14966582 0.025143858 0.67964774
-0.147301 0.025148952 0.67978543
-0.14493524 0.02515405 0.67992324
-0.1425685 0.025159148 0.68006104
-0.14020082 0.02516425 0.68019897
-0.13783218 0.025169354 0.68033689
-0.13546251 0.025174448 0.68047464
-0.1330919 0.025179548 0.68061244
-0.1307203 0.025184646 0.68075025
-0.12834775 0.025189746 0.68088812
-0.12597424 0.025194846 0.68102598
-0.12359977 0.025199953 0.68116403
-0.1213282 0.025226654 0.68188578
-0.12327646 0.026149552 0.70683205
-0.12536147 0.027140113 0.73360723
-0.21891737 0.027216753 0.6717068
-0.21659404 0.027222201 0.67184126
-0.2142698 0.027227655 0.67197585
-0.21194464 0.027233111 0.6721105
-0.20961855 0.027238568 0.6722452
-0.20729151 0.027244028 0.67237991
-0.20496355 0.027249491 0.67251474
-0.20263463 0.02725495 0.6726495
-0.20030479 0.027260415 0.67278439
-0.19797404 0.027265886 0.67291939
-0.19564232 0.027271355 0.67305434
-0.19330971 0.027276829 0.67318946
-0.19097611 0.027282301 0.67332453
-0.18864159 0.027287778 0.67345965
-0.18630615 0.027293257 0.67359489
-0.18396975 0.027298737 0.67373013
-0.18163243 0.027304221 0.6738655
-0.17929415 0.027309706 0.67400086
-0.17695497 0.027315196 0.67413634
-0.1746148 0.027320683 0.67427176
-0.17227371 0.027326174 0.6744073
-0.16993169 0.027331671 0.67454296
-0.16758871 0.027337166 0.67467856
-0.1652448 0.027342664 0.67481428
-0.16289996 0.027348166 0.67495006
-0.16055416 0.02735367 0.6750859
-0.1582074 0.027359175 0.67522174
-0.15585971 0.027364681 0.67535764
-0.15351108 0.027370192 0.67549366
-0.15116149 0.027375704 0.67562968
-0.14881098 0.027381219 0.67576581
-0.1464595 0.027386736 0.67590195
-0.14410706 0.027392251 0.67603809
-0.1417537 0.027397776 0.6761744
-0.13939938 0.027403297 0.67631066
-0.13704412 0.027408825 0.67644709
-0.1346879 0.02741435 0.67658347
-0.13233073 0.02741988 0.67671996
-0.12997261 0.027425414 0.67685652
-0.12761353 0.027430946 0.67699307
-0.12525351 0.027436486 0.67712975
-0.12289248 0.02744201 0.67726612
-0.12128807 0.027620055 0.68166023
-0.1232338 0.028630074 0.70658743
-0.12531644 0.029714208 0.73334372
-0.22022481 0.02944182 0.66849154
-0.21793357 0.029450482 0.66868818
-0.21564093 0.029459143 0.66888487
-0.21334697 0.029467816 0.66908175
-0.21105166 0.029476488 0.66927868
-0.208755 0.02948517 0.66947579
-0.20645697 0.029493853 0.66967297
-0.20415759 0.029502543 0.66987026
-0.20185688 0.029511239 0.67006773
-0.19955479 0.02951994 0.67026526
-0.19725136 0.029528646 0.67046297
-0.19494654 0.029537354 0.67066067
-0.19264039 0.029546073 0.67085862
-0.19033286 0.029554794 0.67105663
-0.188024 0.029563522 0.67125481
-0.18571372 0.02957225 0.671453
-0.18340212 0.029580986 0.67165136
-0.18108915 0.029589731 0.67184991
-0.1787748 0.029598478 0.67204851
-0.17645907 0.029607227 0.67224717
-0.17414199 0.029615983 0.67244601
-0.17182353 0.029624747 0.67264497
-0.16950372 0.029633518 0.67284411
-0.16718251 0.029642288 0.67304325
-0.16485994 0.029651066 0.67324257
-0.16253598 0.029659851 0.67344201
-0.16021065 0.029668638 0.67364156
-0.15788393 0.02967743 0.67384118
-0.15555583 0.029686227 0.67404091
-0.15322636 0.029695032 0.67424083
-0.15089552 0.029703842 0.67444086
-0.14856328 0.029712657 0.67464101
-0.14622965 0.029721474 0.67484123
-0.14389466 0.029730299 0.67504162
-0.14155826 0.02973913 0.67524213
-0.13922049 0.029747967 0.67544276
-0.13688131 0.029756807 0.67564344
-0.13454075 0.029765652 0.67584431
-0.1321988 0.029774504 0.6760453
-0.12985545 0.029783363 0.6762464
-0.12751073 0.029792225 0.67644763
-0.12516458 0.029801091 0.67664897
-0.12281706 0.029809967 0.6768505
-0.12124795 0.03001187 0.68143481
-0.12319118 0.031108884 0.70634305
-0.21837249 0.031870577 0.67003495
-0.21607539 0.031879976 0.67023247
-0.21377693 0.031889375 0.67043012
-0.21147712 0.031898782 0.67062789
-0.20917594 0.031908195 0.67082578
-0.2068734 0.031917613 0.67102373
-0.20456952 0.031927034 0.67122185
-0.20226428 0.031936463 0.6714201
-0.19995767 0.031945899 0.67161846
-0.19764969 0.031955339 0.67181689
-0.19534035 0.031964786 0.67201549
-0.19302966 0.031974237 0.67221421
-0.19071759 0.031983696 0.67241305
-0.18840416 0.031993158 0.67261201
-0.18608934 0.032002624 0.67281103
-0.18377315 0.032012098 0.67301017
-0.18145561 0.032021578 0.67320949
-0.17913669 0.032031063 0.67340893
-0.17681637 0.032040551 0.67360836
-0.17449471 0.032050047 0.67380804
-0.17217165 0.03205955 0.67400777
-0.16984724 0.032069057 0.67420769
-0.16752142 0.032078572 0.67440766
-0.16519423 0.032088086 0.67460775
-0.16286567 0.032097612 0.67480803
-0.16053571 0.032107141 0.67500836
-0.15820438 0.032116678 0.67520881
-0.15587166 0.032126218 0.67540944
-0.15353754 0.032135766 0.67561013
-0.15120207 0.032145321 0.67581099
-0.14886519 0.03215488 0.67601198
-0.14652689 0.03216444 0.67621297
-0.14418724 0.03217401 0.67641419
-0.14184618 0.032183588 0.67661554
-0.13950373 0.032193169 0.67681694
-0.13715988 0.032202754 0.67701846
-0.13481465 0.032212351 0.67722023
-0.13246801 0.032221947 0.67742199
-0.13011998 0.032231554 0.67762399
-0.12777056 0.032241166 0.67782605
-0.12541972 0.032250788 0.67802829
-0.12306749 0.03226041 0.67823058
-0.12120789 0.032402109 0.68120962
-0.12314858 0.033585977 0.70609879
-0.2188132 0.034300447 0.6713872
-0.21651159 0.034310579 0.6715855
-0.21420863 0.03432072 0.67178398
-0.21190429 0.034330864 0.67198253
-0.20959862 0.034341015 0.67218125
-0.20729154 0.03435117 0.67238003
-0.20498312 0.034361333 0.67257893
-0.20267335 0.034371503 0.67277801
-0.20036219 0.034381676 0.67297715
-0.19804963 0.034391854 0.67317635
-0.19573577 0.034402043 0.67337579
-0.1934205 0.034412235 0.67357528
-0.19110385 0.034422435 0.6737749
-0.18878582 0.034432635 0.67397457
-0.18646646 0.034442849 0.67417449
-0.18414569 0.034453064 0.67437446
-0.18182355 0.034463286 0.67457455
-0.17950003 0.034473516 0.67477477
-0.17717513 0.034483749 0.6749751
-0.17484885 0.03449399 0.67517555
-0.17252119 0.034504239 0.67537612
-0.17019215 0.034514494 0.67557687
-0.16786171 0.03452475 0.67577761
-0.16552989 0.034535013 0.67597854
-0.16319671 0.034545287 0.67617965
-0.16086212 0.034555566 0.67638081
-0.15852612 0.034565847 0.67658204
-0.15618877 0.03457614 0.6767835
-0.15385 0.034586433 0.67698503
-0.15150985 0.034596737 0.67718667
-0.1491683 0.034607045 0.67738843
-0.14682534 0.034617357 0.67759031
-0.144481 0.03462768 0.67779231
-0.14213528 0.03463801 0.67799455
-0.13978815 0.034648344 0.67819685
-0.13743961 0.034658685 0.67839921
-0.13508968 0.034669034 0.6786018
-0.13273835 0.034679387 0.67880446
-0.13038561 0.034689751 0.67900729
-0.12803145 0.034700114 0.67921013
-0.1256759 0.034710489 0.6794132
-0.12331895 0.034720868 0.67961639
-0.12116783 0.034790765 0.6809845
-0.123106 0.036061354 0.70585465
-0.2192557 0.036740147 0.67274493
-0.21694957 0.036751021 0.67294407
-0.21464208 0.036761902 0.67314333
-0.21233322 0.036772791 0.6733427
-0.21002296 0.036783684 0.67354214
-0.20771134 0.036794581 0.6737417
-0.20539837 0.036805488 0.67394143
-0.20308404 0.036816403 0.67414129
-0.20076832 0.036827326 0.67434126
-0.19845121 0.036838248 0.67454129
-0.19613275 0.036849182 0.67474151
-0.19381291 0.036860123 0.67494184
-0.19149169 0.036871072 0.67514229
-0.18916908 0.036882021 0.6753428
-0.18684509 0.03689298 0.67554349
-0.18451974 0.036903948 0.6757443
-0.182193 0.036914919 0.67594522
-0.17986485 0.036925897 0.67614621
-0.17753534 0.036936883 0.67634737
-0.17520444 0.036947876 0.67654866
-0.17287216 0.036958873 0.67675006
-0.17053847 0.036969878 0.67695153
-0.1682034 0.03698089 0.67715317
-0.16586694 0.036991909 0.67735493
-0.1635291 0.037002932 0.67755681
-0.16118984 0.037013963 0.67775881
-0.15884919 0.037025001 0.67796087
-0.15650715 0.037036043 0.67816311
-0.15416372 0.037047096 0.67836547
-0.15181892 0.03705816 0.67856807
-0.14947268 0.037069224 0.67877066
-0.14712505 0.037080299 0.67897344
-0.14477603 0.037091378 0.67917633
-0.1424256 0.037102465 0.67937934
-0.14007376 0.037113559 0.67958248
-0.13772051 0.03712466 0.67978573
-0.13536586 0.037135765 0.6799891
-0.13300979 0.037146877 0.68019259
-0.13065232 0.037157997 0.6803962
-0.12829342 0.037169125 0.68059993
-0.12593314 0.03718026 0.68080384
-0.12357141 0.037191395 0.68100774
-0.1212083 0.037202545 0.68121189
-0.12306345 0.038535021 0.70561069
-0.21969998 0.039189726 0.67410809
-0.21738932 0.039201349 0.67430806
-0.21507725 0.039212979 0.67450809
-0.21276385 0.039224621 0.67470831
-0.21044904 0.039236262 0.67490858
-0.20813286 0.039247911 0.67510897
-0.20581533 0.039259572 0.67530954
-0.20349643 0.039271239 0.67551023
-0.20117609 0.039282907 0.67571092
-0.19885443 0.039294589 0.67591184
-0.19653139 0.039306276 0.67611289
-0.19420692 0.039317966 0.676314
-0.19188111 0.03932967 0.67651528
-0.18955389 0.039341375 0.67671663
-0.18722528 0.039353088 0.67691809
-0.18489532 0.039364807 0.67711973
-0.18256393 0.039376535 0.67732143
-0.18023117 0.039388269 0.67752326
-0.17789702 0.039400011 0.67772526
-0.17556149 0.039411761 0.67792737
-0.17322454 0.039423514 0.67812955
-0.1708862 0.039435275 0.67833185
-0.16854648 0.039447047 0.67853433
-0.16620536 0.039458826 0.67873693
-0.16386284 0.039470609 0.67893964
-0.16151892 0.039482404 0.67914248
-0.15917361 0.039494205 0.67934549
-0.1568269 0.039506014 0.67954862
-0.15447877 0.039517827 0.67975181
-0.15212925 0.039529648 0.67995512
-0.14977832 0.039541475 0.68015862
-0.14742599 0.039553318 0.68036228
-0.14507224 0.039565157 0.68056595
-0.14271709 0.039577007 0.6807698
-0.14036052 0.039588865 0.68097377
-0.13800254 0.03960073 0.68117785
-0.13564315 0.039612602 0.68138206
-0.13328235 0.039624482 0.68158638
-0.13092011 0.039636366 0.68179083
-0.12855649 0.039648261 0.68199545
-0.12619141 0.039660159 0.68220007
-0.12382494 0.039672069 0.68240494
-0.12145704 0.039683983 0.68260992
-0.12302094 0.041006982 0.70536697
-0.22014607 0.041649256 0.67547685
-0.21783085 0.041661639 0.67567766
-0.21551423 0.041674022 0.67587852
-0.21319625 0.041686416 0.67607951
-0.21087687 0.041698817 0.67628062
-0.20855612 0.041711222 0.67648184
-0.20623398 0.041723639 0.67668319
-0.20391048 0.041736063 0.67688471
-0.20158556 0.04174849 0.67708623
-0.19925928 0.041760925 0.67728794
-0.1969316 0.041773371 0.67748976
-0.19460256 0.041785825 0.67769176
-0.1922721 0.041798282 0.67789376
-0.18994027 0.041810751 0.678096
-0.18760704 0.041823223 0.67829829
-0.18527243 0.04183571 0.67850077
-0.1829364 0.041848198 0.67870331
-0.18059899 0.041860692 0.67890596
-0.17826018 0.041873194 0.67910874
-0.17591998 0.041885708 0.67931169
-0.17357838 0.041898232 0.67951477
-0.17123537 0.041910756 0.6797179
-0.16889098 0.041923296 0.67992127
-0.16654518 0.041935839 0.6801247
-0.16419798 0.041948389 0.68032825
-0.16184938 0.041960951 0.68053198
-0.15949936 0.041973516 0.68073577
-0.15714794 0.041986093 0.68093973
-0.15479513 0.041998677 0.68114382
-0.15244089 0.042011268 0.68134803
-0.15008523 0.042023864 0.68155229
-0.14772816 0.042036466 0.68175673
-0.14536968 0.04204908 0.6819613
-0.14300978 0.042061701 0.68216598
-0.14064845 0.042074326 0.68237072
-0.13828574 0.042086966 0.6825757
-0.13592158 0.042099606 0.68278074
-0.13355602 0.042112257 0.6829859
-0.13118902 0.042124916 0.68319118
-0.12882061 0.042137582 0.68339664
-0.12645076 0.042150255 0.68360215
-0.1240795 0.042162936 0.68380785
-0.12170681 0.042175625 0.68401361
-0.12297845 0.04347723 0.70512331
-0.22059399 0.044118799 0.67685121
-0.21827418 0.044131938 0.6770528
-0.21595299 0.044145085 0.6772545
-0.21363039 0.044158235 0.67745626
-0.21130642 0.0441714 0.6776582
-0.20898108 0.044184569 0.67786026
-0.20665434 0.044197749 0.67806244
-0.20432621 0.044210937 0.67826474
-0.20199668 0.044224124 0.67846709
-0.19966577 0.044237327 0.67866963
-0.19733348 0.04425054 0.67887235
-0.1949998 0.044263758 0.67907512
-0.1926647 0.044276979 0.67927796
-0.19032821 0.044290211 0.67948097
-0.18799034 0.044303458 0.67968416
-0.18565106 0.044316705 0.67988741
-0.18331037 0.04432996 0.68009079
-0.1809683 0.044343226 0.68029428
-0.17862482 0.044356503 0.68049794
-0.17627998 0.044369787 0.68070179
-0.1739337 0.044383083 0.68090576
-0.17158601 0.044396378 0.68110973
-0.16923693 0.044409689 0.68131393
-0.16688642 0.044423003 0.6815182
-0.16453452 0.044436328 0.68172264
-0.16218118 0.044449661 0.68192714
-0.15982646 0.044463001 0.68213183
-0.15747033 0.044476353 0.68233663
-0.15511276 0.044489704 0.68254149
-0.15275379 0.04450307 0.68274653
-0.15039338 0.04451644 0.68295169
-0.14803158 0.044529822 0.68315697
-0.14566833 0.044543207 0.68336231
-0.14330366 0.044556603 0.68356782
-0.1409376 0.04457001 0.68377352
-0.1385701 0.044583421 0.68397927
-0.13620116 0.044596843 0.68418515
-0.1338308 0.044610269 0.68439114
-0.13145904 0.04462371 0.68459737
-0.12908582 0.044637155 0.68480361
-0.12671117 0.044650603 0.68500996
-0.1243351 0.044664066 0.68521649
-0.1219576 0.044677537 0.68542314
-0.122936 0.045945778 0.70487994
-0.22104372 0.046598405 0.67823112
-0.21871932 0.046612315 0.67843354
-0.21639352 0.046626229 0.67863607
-0.21406633 0.046640147 0.67883867
-0.21173775 0.046654079 0.67904145
-0.20940776 0.046668015 0.67924428
-0.2070764 0.046681963 0.67944729
-0.20474364 0.046695918 0.67965037
-0.20240951 0.046709884 0.67985368
-0.20007396 0.046723858 0.68005705
-0.19773701 0.046737839 0.68026054
-0.19539866 0.046751827 0.68046415
-0.19305891 0.046765819 0.68066782
-0.19071776 0.046779826 0.68087167
-0.18837523 0.046793848 0.68107575
-0.18603128 0.04680787 0.68127984
-0.18368593 0.046821903 0.6814841
-0.18133917 0.046835948 0.68168849
-0.17899103 0.046850003 0.68189305
-0.17664145 0.046864055 0.68209761
-0.17429048 0.046878126 0.68230242
-0.17193809 0.046892207 0.68250734
-0.16958427 0.046906289 0.68271232
-0.16722906 0.046920381 0.68291742
-0.16487242 0.046934485 0.68312269
-0.16251437 0.046948597 0.68332809
-0.16015491 0.046962716 0.68353361
-0.15779401 0.046976842 0.68373919
-0.1554317 0.046990979 0.68394494
-0.15306796 0.047005124 0.68415082
-0.1507028 0.047019277 0.68435681
-0.14833623 0.047033437 0.68456292
-0.14596823 0.047047611 0.68476921
-0.14359879 0.04706179 0.68497556
-0.14122792 0.047075976 0.68518203
-0.13885562 0.047090169 0.68538862
-0.13648191 0.047104374 0.68559539
-0.13410676 0.047118589 0.68580228
-0.13173015 0.047132805 0.68600923
-0.12935212 0.047147039 0.68621635
-0.12697266 0.047161277 0.6864236
-0.12459178 0.047175527 0.68663102
-0.12220943 0.04718978 0.68683845
-0.21916628 0.049102828 0.67981994
-0.21683587 0.049117517 0.68002331
-0.21450402 0.049132206 0.68022668
-0.21217081 0.049146913 0.68043029
-0.20983621 0.049161628 0.68063402
-0.20750022 0.04917635 0.68083787
-0.20516279 0.04919108 0.68104178
-0.202824 0.049205821 0.68124586
-0.20048378 0.049220569 0.68145007
-0.19814217 0.049235329 0.68165439
-0.19579917 0.0492501 0.6818589
-0.19345477 0.049264878 0.68206352
-0.19110894 0.049279664 0.6822682
-0.18876173 0.049294464 0.68247312
-0.18641309 0.049309269 0.6826781
-0.18406305 0.049324084 0.6828832
-0.18171158 0.049338907 0.68308842
-0.17935872 0.049353741 0.68329382
-0.17700443 0.049368583 0.68349928
-0.17464873 0.049383435 0.68370491
-0.17229161 0.049398292 0.68391061
-0.16993307 0.049413163 0.68411648
-0.16757309 0.049428038 0.68432242
-0.16521174 0.049442928 0.68452859
-0.16284892 0.049457822 0.68473476
-0.16048469 0.049472723 0.68494111
-0.15811904 0.049487639 0.68514758
-0.15575197 0.049502563 0.68535423
-0.15338345 0.04951749 0.68556088
-0.15101352 0.049532432 0.68576777
-0.14864214 0.049547382 0.68597472
-0.14626935 0.049562342 0.68618184
-0.1438951 0.049577307 0.68638903
-0.14151944 0.049592283 0.68659639
-0.13914235 0.049607269 0.68680388
-0.13676381 0.049622267 0.68701148
-0.13438381 0.049637266 0.68721914
-0.13200241 0.049652282 0.68742704
-0.12961954 0.049667303 0.687635
-0.12723523 0.04968233 0.68784308
-0.12484949 0.049697369 0.68805128
-0.1224623 0.04971242 0.68825966
-0.21961506 0.051603541 0.68121201
-0.21727999 0.051619004 0.68141615
-0.21494353 0.051634476 0.68162042
-0.21260567 0.051649965 0.68182486
-0.21026641 0.051665463 0.68202943
-0.20792575 0.051680967 0.68223411
-0.20558369 0.051696483 0.68243897
-0.20324022 0.051712006 0.68264389
-0.20089535 0.051727545 0.68284899
-0.19854906 0.05174309 0.68305421
-0.19620138 0.051758647 0.68325955
-0.19385228 0.051774211 0.683465
-0.19150175 0.051789783 0.68367058
-0.18914981 0.051805366 0.68387628
-0.18679649 0.05182096 0.68408215
-0.1844417 0.051836554 0.68428802
-0.18208554 0.051852174 0.6844942
-0.17972793 0.051867791 0.68470037
-0.17736889 0.051883418 0.68490666
-0.17500846 0.051899061 0.68511313
-0.1726466 0.051914711 0.68531972
-0.1702833 0.051930368 0.68552643
-0.16791856 0.051946033 0.6857332
-0.16555244 0.051961713 0.68594021
-0.16318485 0.0519774 0.68614727
-0.16081586 0.051993098 0.68635452
-0.1584454 0.052008796 0.68656176
-0.15607354 0.052024513 0.68676925
-0.15370025 0.052040242 0.68697685
-0.15132551 0.052055977 0.68718457
-0.14894933 0.052071717 0.68739235
-0.14657171 0.052087471 0.68760031
-0.14419267 0.052103233 0.68780839
-0.14181218 0.052119005 0.68801659
-0.13943024 0.052134786 0.68822491
-0.13704686 0.052150574 0.68843335
-0.13466205 0.052166376 0.68864197
-0.13227579 0.05218219 0.6888507
-0.12988806 0.052198008 0.6890595
-0.12749891 0.052213836 0.68926847
-0.12510829 0.052229676 0.68947756
-0.12271622 0.05224552 0.68968672
-0.2200657 0.054114513 0.6826098
-0.21772596 0.054130767 0.68281478
-0.21538486 0.054147027 0.68301994
-0.21304235 0.054163307 0.68322527
-0.21069843 0.054179594 0.68343073
-0.20835307 0.054195888 0.68363625
-0.20600633 0.054212194 0.68384194
-0.20365818 0.054228511 0.68404776
-0.20130864 0.054244842 0.68425375
-0.19895762 0.05426117 0.68445975
-0.19660524 0.054277521 0.68466598
-0.19425142 0.054293875 0.68487227
-0.19189619 0.054310244 0.68507874
-0.18953951 0.054326613 0.68528521
-0.18718144 0.054342996 0.68549192
-0.18482193 0.054359395 0.68569875
-0.18246102 0.054375801 0.68590569
-0.18009865 0.054392211 0.6861127
-0.17773488 0.054408636 0.68631989
-0.17536967 0.054425068 0.68652719
-0.17300303 0.054441515 0.68673462
-0.17063497 0.054457966 0.68694216
-0.16826548 0.054474436 0.68714988
-0.16589454 0.054490905 0.68735766
-0.16352217 0.05450739 0.68756557
-0.16114837 0.054523885 0.68777364
-0.15877314 0.054540388 0.68798184
-0.15639646 0.054556902 0.68819016
-0.15401833 0.054573424 0.68839854
-0.15163878 0.054589961 0.68860716
-0.14925778 0.054606505 0.68881583
-0.14687534 0.05462306 0.68902469
-0.14449143 0.054639619 0.68923354
-0.1421061 0.054656193 0.68944263
-0.13971932 0.054672781 0.68965185
-0.1373311 0.054689374 0.68986118
-0.13494141 0.054705977 0.69007063
-0.13255028 0.054722592 0.6902802
-0.13015771 0.054739222 0.69048995
-0.12776364 0.054755848 0.6906997
-0.12536816 0.054772496 0.69090968
-0.12297121 0.054789152 0.69111979
-0.21817386 0.056652881 0.68421942
-0.21582803 0.056669932 0.68442535
-0.21348085 0.056687001 0.68463153
