# .PCD v0.7 - Point Cloud Data file format
VERSION 0.7
FIELDS x y z
SIZE 4 4 4
TYPE F F F
COUNT 1 1 1
WIDTH 784
HEIGHT 1
VIEWPOINT 0 0 0 1 0 0 0
POINTS 784
DATA ascii
-0.10099163 -0.089110263 1.1240522
-0.11810863 -0.086079173 1.1363206
-0.11372802 -0.085794821 1.1325669
-0.10937624 -0.085512333 1.1288378
-0.10505303 -0.085231699 1.1251333
-0.10075811 -0.084952913 1.121453
-0.097238585 -0.08533182 1.1264549
-0.093705773 -0.085730813 1.131722
-0.12223105 -0.082155295 1.1374255
-0.11783256 -0.081883639 1.1336645
-0.11346306 -0.081613779 1.1299284
-0.10912226 -0.081345685 1.1262167
-0.1048099 -0.081079349 1.1225293
-0.10063291 -0.08090096 1.1200595
-0.097136125 -0.081277169 1.125268
-0.093606666 -0.081656873 1.130525
-0.090043962 -0.082040057 1.13583
-0.12194503 -0.077964857 1.134764
-0.11755777 -0.077707678 1.1310208
-0.11319932 -0.077452168 1.1273019
-0.10886946 -0.077198341 1.1236075
-0.10456787 -0.076946169 1.1199372
-0.10052746 -0.076873936 1.1188859
-0.097033873 -0.077231042 1.1240834
-0.09350767 -0.077591471 1.1293294
-0.089948371 -0.077955253 1.1346242
-0.086355463 -0.078322396 1.1399679
-0.12166034 -0.073793977 1.1321148
-0.11728426 -0.073551148 1.1283894
-0.11293684 -0.073309876 1.1246879
-0.10861782 -0.073070168 1.1210104
-0.10432696 -0.072832033 1.117357
-0.10042223 -0.072855346 1.1177146
-0.096931837 -0.073193431 1.1229014
-0.09340889 -0.07353466 1.1281364
-0.089852944 -0.073879085 1.1334205
-0.086263455 -0.074226692 1.1387533
-0.082639985 -0.074577548 1.144136
-0.0789821 -0.074931733 1.1495697
-0.12577082 -0.069872677 1.1332105
-0.12137698 -0.069642529 1.129478
-0.11701199 -0.069413893 1.1257699
-0.11267553 -0.069186732 1.1220857
-0.10836735 -0.068961039 1.1184254
-0.10408717 -0.068736807 1.1147888
-0.10031723 -0.06884516 1.116546
-0.096830018 -0.069164298 1.1217219
-0.093310311 -0.069486402 1.1269459
-0.089757673 -0.069811523 1.1322187
-0.086171642 -0.070139706 1.1375413
-0.082551628 -0.070470899 1.1429126
-0.078897245 -0.070805222 1.1483347
-0.075208023 -0.071142726 1.1538085
-0.12547761 -0.06572637 1.1305687
-0.12109493 -0.065510377 1.1268533
-0.11674099 -0.065295808 1.1231625
-0.11241543 -0.065082625 1.1194955
-0.10811803 -0.064870819 1.1158522
-0.10384846 -0.064660363 1.1122322
-0.10021245 -0.064843349 1.1153798
-0.096728407 -0.065143622 1.1205448
-0.093211941 -0.065446682 1.1257578
-0.089662611 -0.065752581 1.1310196
-0.086079948 -0.066061355 1.1363308
-0.082463443 -0.06637302 1.1416918
-0.078812577 -0.066687562 1.1471024
-0.075126931 -0.067005105 1.1525644
-0.066634946 -0.062827237 1.0807003
-0.062629946 -0.062629946 1.0773066
-0.058650006 -0.062433876 1.0739341
-0.05475004 -0.06230177 1.0716617
-0.05100774 -0.062342793 1.0723673
-0.047260504 -0.062383868 1.0730739
-0.043508332 -0.062424999 1.0737814
-0.039751206 -0.062466178 1.0744897
-0.035989121 -0.062507421 1.0751991
-0.12518574 -0.061599337 1.127939
-0.1208142 -0.061397381 1.124241
-0.11647122 -0.061196741 1.1205671
-0.11215653 -0.060997408 1.1169171
-0.10786986 -0.060799371 1.1132909
-0.10361086 -0.060602579 1.1096874
-0.10010789 -0.06084989 1.114216
-0.096627004 -0.061131369 1.1193701
-0.09311378 -0.061415475 1.1245723
-0.089567751 -0.061702225 1.129823
-0.085988432 -0.061991662 1.1351228
-0.07862591 -0.059448857 1.0885618
-0.074553929 -0.059260815 1.0851185
-0.070507631 -0.059073962 1.0816971
-0.066486768 -0.058888283 1.0782971
-0.0624911 -0.058703762 1.0749184
-0.058520399 -0.058520399 1.0715609
-0.054658078 -0.058427602 1.0698617
-0.050922014 -0.058466017 1.0705651
-0.047181029 -0.058504473 1.0712693
-0.043435115 -0.058542982 1.0719744
-0.03968427 -0.058581542 1.0726805
-0.03592848 -0.058620147 1.0733874
-0.032167733 -0.058658808 1.0740952
-0.028402025 -0.058697518 1.0748041
-0.024631344 -0.05873628 1.0755138
-0.020855676 -0.058775086 1.0762244
-0.017075019 -0.058813956 1.0769361
-0.12489526 -0.05749147 1.1253216
-0.12053476 -0.057303414 1.1216407
-0.1162027 -0.057116583 1.1179837
-0.1118988 -0.056930967 1.1143506
-0.10762278 -0.056746554 1.1107409
-0.1034494 -0.056604389 1.1079582
-0.10000355 -0.056864761 1.1130546
-0.094959632 -0.056200597 1.1000545
-0.090792589 -0.05602096 1.0965383
-0.086652115 -0.05584247 1.0930446
-0.082537927 -0.055665109 1.089573
-0.078449793 -0.055488877 1.0861235
-0.074387468 -0.055313759 1.0826957
-0.070350692 -0.055139735 1.0792894
-0.066339239 -0.0549668 1.0759045
-0.062352873 -0.054794952 1.0725408
-0.058391366 -0.054624181 1.0691981
-0.054566424 -0.054566424 1.0680677
-0.050836571 -0.054602243 1.0687687
-0.047101811 -0.054638103 1.0694706
-0.043362144 -0.054674011 1.0701735
-0.039617553 -0.054709956 1.0708771
-0.035868037 -0.054745954 1.0715817
-0.032113586 -0.054781996 1.0722872
-0.028354183 -0.054818086 1.0729936
-0.024589824 -0.054854222 1.0737009
-0.020820502 -0.054890417 1.0744094
-0.0170462 -0.054926649 1.0751185
-0.013281024 -0.055021387 1.076973
-0.0095352409 -0.055304397 1.0825125
-0.1246061 -0.053402618 1.1227163
-0.12025661 -0.053228334 1.1190523
-0.11593542 -0.053055193 1.1154122
-0.11164225 -0.052883171 1.1117957
-0.10737683 -0.052712262 1.1082026
-0.10313894 -0.052542478 1.1046331
-0.098928317 -0.052373815 1.1010872
-0.094744682 -0.052206255 1.0975645
-0.090587735 -0.052039765 1.0940642
-0.086457215 -0.051874328 1.0905862
-0.082352869 -0.051709943 1.0871302
-0.078274466 -0.0515466 1.0836961
-0.074221738 -0.051384278 1.0802835
-0.070194446 -0.051222976 1.0768924
-0.066192374 -0.051062688 1.0735226
-0.062215269 -0.050903399 1.0701737
-0.058262892 -0.0507451 1.0668457
-0.054475076 -0.050718177 1.0662796
-0.05075141 -0.05075141 1.0669783
-0.047022864 -0.050784692 1.0676781
-0.043289419 -0.050818011 1.0683786
-0.039551064 -0.050851371 1.0690799
-0.035807803 -0.050884772 1.0697821
-0.032059617 -0.050918218 1.0704852
-0.028306503 -0.050951704 1.0711893
-0.024548449 -0.050985239 1.0718943
-0.020785445 -0.051018819 1.0726002
-0.01701748 -0.051052436 1.073307
-0.013265655 -0.051167525 1.0757266
-0.0095241368 -0.051430337 1.0812519
-0.0057439976 -0.051695976 1.0868366
-0.12431829 -0.049332652 1.120123
-0.11997973 -0.049172021 1.1164758
-0.11566936 -0.049012441 1.1128525
-0.11138688 -0.048853893 1.1092526
-0.10713203 -0.048696376 1.1056761
-0.10290461 -0.04853991 1.1021234
-0.098704271 -0.048384447 1.0985935
-0.094530746 -0.048229974 1.0950861
-0.090383805 -0.048076492 1.0916013
-0.086263195 -0.047924001 1.0881388
-0.082168654 -0.047772471 1.0846983
-0.078099914 -0.047621902 1.0812795
-0.074056745 -0.047472276 1.0778822
-0.0700389 -0.047323581 1.074506
-0.066046156 -0.047175825 1.0711511
-0.062078256 -0.047028981 1.067817
-0.058134984 -0.04688305 1.0645036
-0.054384042 -0.046882793 1.0644977
-0.050666537 -0.04691346 1.065194
-0.046944175 -0.046944175 1.0658914
-0.043216925 -0.04697492 1.0665895
-0.039484799 -0.047005713 1.0672886
-0.035747766 -0.047036536 1.0679885
-0.032005832 -0.047067404 1.0686893
-0.028258983 -0.047098305 1.069391
-0.02450721 -0.047129251 1.0700936
-0.020750504 -0.047160238 1.0707972
-0.016988855 -0.047191266 1.0715017
-0.013250322 -0.047322579 1.0744833
-0.0095130587 -0.047565293 1.0799942
-0.0057372819 -0.047810685 1.0855659
-0.0019223446 -0.048058614 1.0911953
-0.12838772 -0.045429502 1.1211957
-0.12403179 -0.045281447 1.1175417
-0.11970415 -0.045134354 1.1139114
-0.11540454 -0.044988211 1.1103046
-0.11113267 -0.044843007 1.106721
-0.10688839 -0.044698782 1.1031616
-0.10267133 -0.044555482 1.0996249
-0.098481223 -0.044413101 1.0961109
-0.094317816 -0.044271629 1.0926194
-0.090180852 -0.044131055 1.0891501
-0.086070068 -0.043991368 1.0857027
-0.08198525 -0.043852579 1.0822773
-0.077926144 -0.043714665 1.0788736
-0.073892489 -0.043577623 1.0754914
-0.069884047 -0.043441433 1.0721303
-0.065900572 -0.04330609 1.0687901
-0.061941851 -0.043171596 1.0654707
-0.058007643 -0.043037929 1.0621718
-0.054293301 -0.043060206 1.0627216
-0.050581947 -0.043088324 1.0634156
-0.046865746 -0.043116488 1.0641106
-0.043144684 -0.043144684 1.0648066
-0.039418746 -0.043172911 1.0655032
-0.035687935 -0.043201186 1.066201
-0.031952228 -0.043229483 1.0668994
-0.028211623 -0.043257821 1.0675988
-0.02446611 -0.043286197 1.0682991
-0.020715682 -0.043314606 1.0690002
-0.016960327 -0.043343056 1.0697024
-0.013235025 -0.043486509 1.0732428
-0.0095020179 -0.043709286 1.0787408
-0.0057305824 -0.043934464 1.0842983
-0.0019200883 -0.044162031 1.0899146
0.0019300854 -0.044391964 1.0955893
0.0058205612 -0.044624303 1.1013234
-0.12809157 -0.041383434 1.1186094
-0.12374662 -0.041248873 1.1149722
-0.11942981 -0.041115183 1.1113585
-0.11514091 -0.040982354 1.1077682
-0.11087967 -0.040850408 1.1042016
-0.10664586 -0.040719327 1.1006584
-0.10243911 -0.040589079 1.0971378
-0.098259196 -0.040459666 1.0936397
-0.094105855 -0.040331081 1.0901639
-0.089978822 -0.040203303 1.0867101
-0.085877858 -0.040076334 1.0832781
-0.081802711 -0.039950162 1.0798676
-0.077753149 -0.039824784 1.0764786
-0.073728964 -0.03970021 1.0731113
-0.069729865 -0.039576411 1.069765
-0.065755643 -0.039453384 1.0664395
-0.061806045 -0.03933112 1.0631347
-0.057903267 -0.039224796 1.0602607
-0.054202866 -0.039250351 1.0609515
-0.050497644 -0.039275944 1.0616432
-0.046787579 -0.039301567 1.0623358
-0.043072674 -0.039327227 1.0630294
-0.039352916 -0.039352916 1.0637238
-0.035628296 -0.039378643 1.0644193
-0.0318988 -0.0394044 1.0651155
-0.028164418 -0.039430186 1.0658125
-0.024425147 -0.03945601 1.0665104
-0.020680975 -0.03948186 1.0672092
-0.016931891 -0.039507747 1.067909
-0.013219763 -0.039659288 1.0720052
-0.009491004 -0.039862219 1.0774904
-0.0057238978 -0.040067285 1.0830334
-0.001917837 -0.040274575 1.0886366
0.0019278105 -0.040484022 1.094298
0.0058136652 -0.040695656 1.1000186
-0.12779678 -0.037355985 1.1160351
-0.12346276 -0.037234798 1.1124146
-0.11915675 -0.037114397 1.1088175
-0.11487851 -0.036994774 1.1052437
-0.11062787 -0.036875956 1.1016939
-0.10640443 -0.036757894 1.0981667
-0.10220795 -0.036640584 1.0946621
-0.098038174 -0.036524024 1.0911797
-0.093894824 -0.036408197 1.0877193
-0.089777693 -0.036293108 1.084281
-0.085686497 -0.036178742 1.0808642
-0.081621014 -0.036065098 1.077469
-0.077580988 -0.035952166 1.074095
-0.073566183 -0.035839938 1.0707421
-0.06957636 -0.035728402 1.06741
-0.06561134 -0.035617582 1.0640992
-0.061670829 -0.035507448 1.0608088
-0.057807039 -0.035430122 1.0584986
-0.054112732 -0.035453167 1.0591872
-0.050413616 -0.035476249 1.0598767
-0.046709675 -0.035499353 1.060567
-0.04300091 -0.035522491 1.0612582
-0.03928731 -0.035545662 1.0619504
-0.035568856 -0.035568856 1.0626434
-0.031845551 -0.035592087 1.0633374
-0.028117375 -0.03561534 1.0640322
-0.024384322 -0.035638623 1.0647278
-0.020646386 -0.03566194 1.0654243
-0.016903555 -0.035685282 1.0661217
-0.013204534 -0.035840876 1.0707703
-0.0094800163 -0.036024064 1.076243
-0.0057172305 -0.036209129 1.081772
-0.0019155911 -0.036396232 1.0873618
0.0019255412 -0.036585283 1.0930098
0.005806786 -0.036776312 1.098717
-0.12750337 -0.033347033 1.1134726
-0.12318017 -0.033239096 1.1098685
-0.11888491 -0.03313186 1.1062878
-0.11461736 -0.033025343 1.1027312
-0.11037718 -0.032919507 1.0991974
-0.10616408 -0.03281435 1.0956861
-0.10197782 -0.032709867 1.0921973
-0.097818121 -0.032606043 1.0887306
-0.093684755 -0.032502875 1.0852858
-0.089577466 -0.032400362 1.0818628
-0.085496001 -0.03229849 1.0784613
-0.081440113 -0.032197256 1.075081
-0.07740958 -0.032096654 1.0717219
-0.073404156 -0.031996682 1.0683838
-0.069423601 -0.031897329 1.0650663
-0.065467693 -0.031798594 1.0617695
-0.061536208 -0.03170047 1.0584931
-0.057711136 -0.031648044 1.0567425
-0.054022901 -0.031668596 1.0574288
-0.050329864 -0.031689174 1.058116
-0.046632033 -0.031709783 1.058804
-0.042929381 -0.031730413 1.0594929
-0.039221916 -0.031751074 1.0601828
-0.035509616 -0.031771764 1.0608736
-0.031792473 -0.031792473 1.0615652
-0.028070485 -0.031813215 1.0622578
-0.024343628 -0.031833977 1.062951
-0.020611906 -0.031854767 1.0636451
-0.016875308 -0.031875584 1.0643402
-0.013189343 -0.03203126 1.0695384
-0.0094690528 -0.032194782 1.0749984
-0.0057105846 -0.03235998 1.0805144
-0.0019133503 -0.032526955 1.0860898
0.0019232775 -0.032695718 1.0917249
0.0057999231 -0.032866232 1.0974184
-0.12721126 -0.029356444 1.1109217
-0.12289891 -0.029261645 1.1073343
-0.11861438 -0.029167471 1.1037705
-0.11435739 -0.029073913 1.10023
-0.11012763 -0.028980954 1.0967122
-0.10592483 -0.028888589 1.0932169
-0.10174873 -0.028796811 1.0897437
-0.097599074 -0.02870561 1.0862925
-0.093475625 -0.028614987 1.0828631
-0.089378126 -0.028524933 1.0794553
-0.085306346 -0.028435448 1.0760689
-0.081260018 -0.02834652 1.0727036
-0.07723894 -0.028258149 1.0693594
-0.073242836 -0.028170323 1.0660359
-0.069271512 -0.028083045 1.0627331
-0.065431483 -0.028042065 1.0611823
-0.06164559 -0.028020723 1.0603746
-0.057865456 -0.027999414 1.0595683
-0.054091111 -0.027978159 1.058764
-0.050322484 -0.027956935 1.0579607
-0.046559561 -0.027935738 1.0571586
-0.042858094 -0.027950931 1.0577335
-0.039156742 -0.027969101 1.0584211
-0.03545057 -0.027987292 1.0591096
-0.031739574 -0.028005507 1.0597988
-0.02802375 -0.02802375 1.0604892
-0.024303079 -0.028042015 1.0611804
-0.020577548 -0.028060295 1.0618721
-0.016852738 -0.028087899 1.0629168
-0.013174186 -0.028230399 1.0683093
-0.0094581163 -0.028374348 1.0737567
-0.0057039554 -0.028519778 1.0792601
-0.001911115 -0.028666725 1.084821
0.0019210186 -0.028815279 1.0904427
0.0057930765 -0.028965384 1.096123
-0.12692051 -0.0253841 1.1083826
-0.12261895 -0.025302323 1.1048118
-0.11834509 -0.025221085 1.1012646
-0.1140986 -0.025140369 1.0977402
-0.1098792 -0.025060169 1.0942383
-0.10568664 -0.02498048 1.0907587
-0.10152065 -0.024901291 1.087301
-0.097380996 -0.024822608 1.0838653
-0.093267418 -0.024744418 1.0804511
-0.089179672 -0.024666717 1.0770584
-0.085117526 -0.024589507 1.0736871
-0.081197083 -0.024547955 1.0718727
-0.077360958 -0.024529085 1.0710487
-0.073530726 -0.024510244 1.0702261
-0.06970638 -0.024491429 1.0694046
-0.065887898 -0.024472646 1.0685844
-0.062075261 -0.024453891 1.0677655
-0.058268469 -0.024435164 1.0669478
-0.054467563 -0.024416493 1.0661325
-0.050672475 -0.024397857 1.0653188
-0.046883091 -0.024379209 1.0645045
-0.043099541 -0.02436061 1.0636925
-0.039321762 -0.024342043 1.0628817
-0.035549738 -0.024323506 1.0620723
-0.03178345 -0.024304992 1.0612639
-0.028022896 -0.02428651 1.0604569
-0.024268052 -0.024268052 1.0596509
-0.020543303 -0.024278451 1.060105
-0.01683349 -0.024315042 1.0617027
-0.013159062 -0.024438258 1.0670829
-0.0094472039 -0.02456273 1.0725179
-0.0056973407 -0.024688477 1.0780085
-0.0019088861 -0.02481552 1.0835558
0.0019187653 -0.024943948 1.0891635
0.0057862457 -0.025073731 1.0948305
-0.13094972 -0.021499209 1.1094329
-0.12663107 -0.021429874 1.105855
-0.12234031 -0.021361006 1.1023012
-0.11807703 -0.021292578 1.0987701
-0.11384098 -0.02122459 1.0952617
-0.10963189 -0.021157032 1.0917754
-0.10544952 -0.021089904 1.0883114
-0.1012936 -0.021023201 1.0848693
-0.097283565 -0.020982729 1.0827808
-0.093395934 -0.020966435 1.0819399
-0.089514345 -0.020950167 1.0811005
-0.085638769 -0.020933922 1.0802622
-0.081769213 -0.020917704 1.0794253
-0.077905633 -0.02090151 1.0785897
-0.074048035 -0.020885343 1.0777553
-0.070196398 -0.020869199 1.0769223
-0.066350713 -0.020853082 1.0760906
-0.06251096 -0.020836987 1.07526
-0.058677141 -0.020820921 1.0744309
-0.054849215 -0.020804875 1.0736029
-0.051027279 -0.020788891 1.0727781
-0.047210868 -0.020772783 1.0719469
-0.043400895 -0.020756949 1.0711298
-0.039596487 -0.020741016 1.0703076
-0.035797916 -0.020725109 1.0694867
-0.032005168 -0.020709228 1.0686672
-0.02821823 -0.020693369 1.0678488
-0.024437068 -0.020677518 1.0670309
-0.02066176 -0.02066176 1.0662177
-0.016892079 -0.020645875 1.065398
-0.013143974 -0.020654818 1.0658594
-0.0094363168 -0.020759897 1.0712819
-0.0056907414 -0.020866051 1.0767598
-0.0019066634 -0.020973297 1.0822941
0.001916517 -0.021081688 1.0878874
0.0057794307 -0.021191247 1.093541
-0.13065082 -0.017550111 1.1069006
-0.12634304 -0.017493652 1.1033397
-0.12206292 -0.01743756 1.0998019
-0.11781017 -0.017381828 1.0962869
-0.11370081 -0.017344192 1.0939131
-0.10976037 -0.017330585 1.0930549
-0.10582612 -0.017317001 1.0921981
-0.10189801 -0.017303435 1.0913426
-0.097976051 -0.017289892 1.0904883
-0.094060235 -0.017276369 1.0896355
-0.090150535 -0.017262869 1.088784
-0.086246952 -0.01724939 1.0879339
-0.082349449 -0.017235931 1.087085
-0.078458034 -0.017222494 1.0862375
-0.074572667 -0.017209077 1.0853913
-0.070693359 -0.017195681 1.0845464
-0.066820078 -0.017182305 1.0837028
-0.062952824 -0.017168952 1.0828606
-0.059091572 -0.017155617 1.0820196
-0.055236321 -0.017142305 1.08118
-0.051387038 -0.017129013 1.0803416
-0.047543671 -0.017115721 1.0795033
-0.043706413 -0.01710251 1.07867
-0.039875444 -0.017089477 1.077848
-0.036049586 -0.01707612 1.0770055
-0.032229781 -0.017062826 1.0761671
-0.028416321 -0.017049791 1.075345
-0.024608582 -0.01703671 1.07452
-0.020806508 -0.017023506 1.0736872
-0.017010292 -0.017010292 1.0728538
-0.013220103 -0.016997276 1.0720328
-0.0094357105 -0.01698428 1.0712131
-0.0056841574 -0.017052472 1.0755141
-0.0019044462 -0.017140016 1.0810355
0.0019142744 -0.017228469 1.0866144
0.005772633 -0.017317899 1.0922548
-0.13045914 -0.01363006 1.1052766
-0.12646452 -0.013619256 1.1044005
-0.12247622 -0.013608469 1.1035258
-0.11849424 -0.013597701 1.1026525
-0.11451855 -0.013586947 1.1017805
-0.11054914 -0.01357621 1.1009099
-0.106586 -0.013565491 1.1000407
-0.10262913 -0.013554791 1.0991729
-0.098678477 -0.013544105 1.0983064
-0.094734058 -0.013533437 1.0974413
-0.090795837 -0.013522784 1.0965775
-0.086863831 -0.013512151 1.0957153
-0.082937986 -0.013501533 1.0948542
-0.07901831 -0.013490931 1.0939945
-0.075104788 -0.013480347 1.0931362
-0.071197405 -0.01346978 1.0922793
-0.06729614 -0.013459227 1.0914236
-0.063400984 -0.013448693 1.0905694
-0.059511911 -0.013438174 1.0897163
-0.055628929 -0.013427673 1.0888648
-0.051752001 -0.013417185 1.0880144
-0.04788113 -0.013406716 1.0871655
-0.044503719 -0.013544611 1.0983474
-0.040868405 -0.013622802 1.104688
-0.037084468 -0.0136627 1.1079234
-0.033232953 -0.013684158 1.1096635
-0.029338725 -0.013691405 1.1102512
-0.025414946 -0.01368497 1.1097294
-0.021469602 -0.013662474 1.1079051
-0.017130174 -0.013323468 1.0804148
-0.013313201 -0.013313201 1.0795822
-0.0095021073 -0.01330295 1.078751
-0.0056968769 -0.013292713 1.0779208
-0.0019022339 -0.013315638 1.0797797
0.0019120387 -0.01338427 1.0853453
0.0057658502 -0.01345365 1.0909714
-0.13140647 -0.0098064533 1.1133026
-0.12738214 -0.0097986264 1.112414
-0.12336422 -0.0097908108 1.1115267
-0.11935271 -0.0097830091 1.110641
-0.11534758 -0.0097752186 1.1097566
-0.11134884 -0.009767442 1.1088737
-0.10735644 -0.0097596757 1.1079921
-0.10337038 -0.0097519234 1.1071119
-0.099390656 -0.0097441822 1.1062331
-0.095417246 -0.0097364541 1.1053557
-0.09145014 -0.0097287381 1.1044798
-0.087489307 -0.0097210342 1.1036052
-0.083534747 -0.0097133424 1.1027319
-0.079586439 -0.0097056637 1.1018602
-0.075644366 -0.0096979961 1.1009897
-0.071708523 -0.0096903415 1.1001207
-0.067778885 -0.0096826982 1.0992529
-0.063855439 -0.009675066 1.0983865
-0.059938177 -0.0096674478 1.0975217
-0.056027073 -0.0096598407 1.096658
-0.052122124 -0.0096522458 1.0957958
-0.048223309 -0.009644662 1.0949348
-0.044474918 -0.0096684601 1.0976366
-0.040816937 -0.0097183185 1.1032969
-0.037029956 -0.0097447252 1.1062948
-0.033179402 -0.0097586475 1.1078753
-0.029287882 -0.0097626271 1.1083272
-0.025367646 -0.0097567867 1.1076641
-0.021426013 -0.0097390972 1.1056558
-0.017462824 -0.0097015686 1.1013952
-0.013407644 -0.0095768888 1.0872407
-0.009569563 -0.009569563 1.086409
-0.005737212 -0.0095620202 1.0855527
-0.0019109249 -0.0095546246 1.0847131
0.0019098087 -0.0095490431 1.0840795
0.0057590837 -0.0095984722 1.089691
-0.13236764 -0.0059269094 1.1214458
-0.12831311 -0.0059221438 1.1205441
-0.12426511 -0.0059173862 1.1196439
-0.1202236 -0.0059126359 1.1187451
-0.11618858 -0.0059078936 1.1178478
-0.11216002 -0.0059031588 1.1169519
-0.10813791 -0.0058984314 1.1160574
-0.10412224 -0.0058937119 1.1151644
-0.100113 -0.0058889999 1.1142728
-0.09611015 -0.0058842949 1.1133826
-0.092113696 -0.0058795977 1.1124939
-0.08812362 -0.0058749081 1.1116065
-0.084139906 -0.0058702263 1.1107206
-0.080162533 -0.0058655515 1.1098361
-0.076191492 -0.0058608842 1.108953
-0.07222677 -0.0058562243 1.1080713
-0.068268485 -0.005851584 1.1071934
-0.06431596 -0.0058469055 1.1063081
-0.060369939 -0.0058422522 1.1054276
-0.056430776 -0.0058376663 1.1045599
-0.052496996 -0.0058329995 1.1036769
-0.048569832 -0.0058283797 1.1028028
-0.044649471 -0.0058238441 1.1019446
-0.040764369 -0.0058234814 1.1018759
-0.036974806 -0.0058381273 1.1046472
-0.033125702 -0.0058457125 1.1060823
-0.029236583 -0.0058473162 1.1063858
-0.0253202 -0.005843123 1.1055924
-0.021382006 -0.0058314563 1.1033849
-0.017419914 -0.0058066379 1.098689
-0.013503455 -0.0057871947 1.09501
-0.0096377814 -0.0057826685 1.0941536
-0.005778193 -0.005778193 1.0933068
-0.0019245492 -0.0057736477 1.0924468
0.0019230471 -0.0057691415 1.0915941
-0.13334295 -0.0019901933 1.1297088
-0.12925778 -0.0019885814 1.1287938
-0.12517925 -0.0019869721 1.1278803
-0.12110728 -0.0019853653 1.1269683
-0.11704192 -0.0019837613 1.1260577
-0.1129831 -0.0019821597 1.1251487
-0.10893084 -0.0019805606 1.124241
-0.10488512 -0.0019789643 1.1233349
-0.1008459 -0.0019773706 1.1224302
-0.096813254 -0.0019757806 1.1215277
-0.092786685 -0.0019741848 1.1206218
-0.088767149 -0.0019726031 1.119724
-0.084753513 -0.001971012 1.1188208
-0.080746718 -0.001969432 1.117924
-0.076746322 -0.0019678546 1.1170285
-0.072752357 -0.0019662799 1.1161346
-0.068764761 -0.0019647074 1.1152421
-0.064783536 -0.0019631374 1.1143509
-0.060808674 -0.0019615702 1.1134613
-0.056840152 -0.0019600051 1.1125729
-0.052878071 -0.001958447 1.1116885
-0.048922632 -0.0019569052 1.1108133
-0.044973109 -0.0019553527 1.1099319
-0.04102977 -0.0019537986 1.1090498
-0.03709247 -0.0019522352 1.1081624
-0.033161528 -0.0019506782 1.1072786
-0.029236827 -0.0019491218 1.1063951
-0.025318412 -0.0019475701 1.1055143
-0.021406539 -0.001946049 1.1046509
-0.017500469 -0.0019444966 1.1037697
-0.013600683 -0.0019429547 1.1028944
-0.0097071184 -0.0019414237 1.1020254
-0.0058196858 -0.0019398953 1.1011578
-0.001938369 -0.001938369 1.1002914
0.0019368454 -0.0019368454 1.0994265
-0.13433275 0.0020049664 1.1380945
-0.13021648 0.0020033305 1.137166
-0.12610693 0.0020016972 1.1362389
-0.12200388 0.0020000637 1.1353116
-0.1179077 0.0019984357 1.1343875
-0.11381825 0.0019968115 1.1334655
-0.10973544 0.00199519 1.1325451
-0.10565926 0.0019935709 1.1316261
-0.10158969 0.0019919549 1.1307087
-0.097526714 0.0019903411 1.1297927
-0.093470305 0.0019887299 1.1288781
-0.08942046 0.0019871213 1.1279651
-0.085377172 0.0019855157 1.1270536
-0.08134041 0.0019839124 1.1261436
-0.07731016 0.0019823117 1.125235
-0.073286399 0.0019807136 1.1243278
-0.069269136 0.0019791182 1.1234221
-0.065259077 0.0019775478 1.1225307
-0.061254337 0.0019759464 1.1216217
-0.057256717 0.0019743696 1.1207267
-0.05326518 0.0019727845 1.1198269
-0.049280014 0.0019712006 1.1189278
-0.045301236 0.001969619 1.1180301
-0.041328911 0.0019680434 1.1171356
-0.037362475 0.0019664459 1.1162289
-0.033402797 0.0019648704 1.1153346
-0.029449513 0.0019633009 1.1144437
-0.025502538 0.0019617337 1.1135541
-0.021561861 0.0019601693 1.112666
-0.017627375 0.0019585972 1.1117737
-0.013699259 0.001957037 1.110888
-0.0097774398 0.0019554878 1.1100087
-0.0058618109 0.0019539369 1.1091284
-0.0019523888 0.0019523888 1.1082495
0.0019508429 0.0019508429 1.107372
-0.13533787 0.006059905 1.1466103
-0.13119009 0.0060549271 1.1456684
-0.12704909 0.0060499567 1.1447279
-0.1229149 0.0060449946 1.1437891
-0.11878748 0.0060400413 1.1428518
-0.11466683 0.0060350965 1.1419162
-0.11055291 0.0060301591 1.1409819
-0.10644572 0.0060252296 1.1400492
-0.10234523 0.0060203075 1.139118
-0.098251447 0.0060153948 1.1381884
-0.094164334 0.0060104895 1.1372602
-0.090083882 0.0060055922 1.1363336
-0.086010076 0.0060007032 1.1354085
-0.081942894 0.0059958217 1.1344849
-0.07788232 0.0059909476 1.1335627
-0.073828712 0.0059861117 1.1326476
-0.069781609 0.0059812805 1.1317335
-0.065740719 0.0059764287 1.1308155
-0.061706353 0.0059715826 1.1298985
-0.057678536 0.0059667453 1.1289833
-0.053657234 0.005961915 1.1280693
-0.04964244 0.0059570926 1.1271569
-0.045633633 0.005952213 1.1262336
-0.041631944 0.0059474204 1.1253268
-0.037636638 0.0059426273 1.1244198
-0.033647764 0.0059378408 1.1235142
-0.029665314 0.0059330626 1.1226101
-0.025689267 0.0059282919 1.1217074
-0.021719608 0.0059235296 1.1208063
-0.017756322 0.0059187743 1.1199065
-0.013799396 0.0059140269 1.1190083
-0.0098488256 0.0059092953 1.118113
-0.0059045516 0.0059045516 1.1172154
-0.0019666126 0.0058998382 1.1163236
-0.1280058 0.010159191 1.153348
-0.1238397 0.010150795 1.1523949
-0.11968049 0.010142415 1.1514435
-0.11552814 0.010134048 1.1504936
-0.11138264 0.010125695 1.1495453
-0.10724396 0.010117355 1.1485984
-0.10311209 0.010109029 1.1476532
-0.098987021 0.010100717 1.1467096
-0.094868727 0.010092418 1.1457675
-0.090757199 0.010084133 1.1448269
-0.086652495 0.010075871 1.143889
-0.082554929 0.010067674 1.1429584
-0.07846351 0.010059425 1.1420218
-0.074378788 0.010051188 1.1410867
-0.07030075 0.010042964 1.1401532
-0.066229381 0.010034755 1.1392211
-0.062164657 0.010026558 1.1382905
-0.058106575 0.010018375 1.1373615
-0.05405511 0.010010205 1.1364341
-0.050010007 0.010002001 1.1355027
-0.045971662 0.0099938391 1.1345761
-0.041940019 0.0099857179 1.1336541
-0.037914921 0.0099776108 1.1327337
-0.033896353 0.0099695157 1.1318147
-0.029884305 0.0099614346 1.1308973
-0.02587875 0.0099533657 1.1299812
-0.02187968 0.0099453097 1.1290666
-0.01788708 0.0099372668 1.1281536
-0.013900932 0.009929237 1.127242
-0.0099212211 0.0099212211 1.1263319
-0.0059479307 0.0099132182 1.1254233
-0.0019810456 0.0099052284 1.1245162
-0.12477851 0.014318845 1.161131
-0.12058703 0.014306935 1.1601652
-0.11640248 0.014295042 1.1592008
-0.11222492 0.014283172 1.1582382
-0.10805427 0.014271318 1.157277
-0.10389054 0.014259486 1.1563175
-0.099733718 0.014247674 1.1553596
-0.095584154 0.014235938 1.154408
-0.091440991 0.014224154 1.1534524
-0.087304689 0.01421239 1.1524985
-0.083175212 0.014200646 1.1515461
-0.079052575 0.014188924 1.1505955
-0.074936725 0.014177218 1.1496463
-0.070827663 0.014165533 1.1486987
-0.066725366 0.014153866 1.1477526
-0.062629819 0.014142217 1.146808
-0.058540739 0.014130522 1.1458597
-0.054458629 0.014118903 1.1449175
-0.050383303 0.014107325 1.1439786
-0.046314664 0.014095767 1.1430414
-0.042252682 0.014084227 1.1421056
-0.038197346 0.014072707 1.1411713
-0.034148641 0.014061205 1.1402386
-0.030106548 0.014049722 1.1393075
-0.026071049 0.014038257 1.1383778
-0.022042131 0.014026811 1.1374496
-0.018019781 0.014015384 1.136523
-0.11729018 0.018519504 1.168041
-0.11308002 0.018504005 1.1670635
-0.10887706 0.018488556 1.1660892
-0.1046809 0.0184731 1.1651143
-0.10049175 0.01845767 1.1641411
-0.096309587 0.018442262 1.1631693
-0.092134409 0.018426882 1.1621993
-0.087966181 0.018411526 1.1612308
-0.083804913 0.018396201 1.1602641
-0.079650551 0.018380895 1.1592989
-0.075503089 0.018365616 1.1583352
-0.071362533 0.018350365 1.1573733
-0.067228831 0.018335138 1.1564128
-0.063101798 0.018319877 1.1554503
-0.058981806 0.018304698 1.1544931
-0.054868683 0.01828956 1.1535383
-0.050762367 0.018274453 1.1525854
-0.046662822 0.018259365 1.1516339
-0.042570043 0.018244306 1.150684
-0.038484015 0.018229268 1.1497357
-0.03440471 0.018214257 1.1487889
-0.1012609 0.02273204 1.1730512
-0.097046122 0.022712922 1.1720647
-0.092838414 0.022693835 1.1710798
-0.088637784 0.022674782 1.1700965
-0.084444195 0.022655761 1.1691149
-0.080257632 0.022636769 1.1681349
-0.076078087 0.022617809 1.1671566
-0.071905538 0.022598883 1.1661799
-0.067739867 0.022579957 1.1652032
-0.06358128 0.022561099 1.1642301
-0.059429668 0.022542289 1.1632594
-0.05528497 0.022523507 1.1622902
-0.076661907 0.026935264 1.1761132
-0.072456889 0.026912557 1.1751218
