# .PCD v0.7 - Point Cloud Data file format
VERSION 0.7
FIELDS x y z
SIZE 4 4 4
TYPE F F F
COUNT 1 1 1
WIDTH 1397
HEIGHT 1
VIEWPOINT 0 0 0 1 0 0 0
POINTS 1397
DATA ascii
-0.26204824 0.046243809 0.7954464
-0.25895873 0.046192635 0.79456615
-0.25605687 0.046174191 0.79424888
-0.25315732 0.046155754 0.79393178
-0.25026011 0.04613734 0.79361504
-0.24736525 0.046118945 0.7932986
-0.24447264 0.046100557 0.79298228
-0.24158233 0.04608218 0.7926662
-0.23869397 0.046063747 0.79234916
-0.23580793 0.046045337 0.79203242
-0.23292419 0.046026934 0.79171592
-0.23004274 0.04600855 0.79139966
-0.2271636 0.045990176 0.79108363
-0.22428675 0.045971818 0.79076785
-0.2216157 0.045995712 0.79117882
-0.21962641 0.046163514 0.79406524
-0.21762258 0.046332549 0.79697281
-0.21560398 0.046502817 0.79990166
-0.21357051 0.046674348 0.80285215
-0.21152198 0.04684715 0.80582458
-0.20945841 0.047021277 0.80881971
-0.20737955 0.047196727 0.81183767
-0.20528513 0.047373492 0.81487823
-0.20317498 0.047551591 0.81794173
-0.20104887 0.047731027 0.82102823
-0.19890667 0.047911827 0.82413822
-0.19674817 0.048093997 0.82727176
-0.19457322 0.048277568 0.83042938
-0.19238159 0.048462536 0.83361107
-0.26772156 0.049578071 0.80406809
-0.26026291 0.048712309 0.79002702
-0.25737715 0.048692971 0.78971338
-0.25449362 0.048673645 0.78939992
-0.25161242 0.048654336 0.78908676
-0.24873351 0.048635043 0.78877389
-0.24585685 0.048615761 0.78846115
-0.24298249 0.048596498 0.78814876
-0.24011041 0.048577253 0.78783661
-0.23724028 0.048557952 0.78752363
-0.23437238 0.048538659 0.7872107
-0.23150676 0.048519384 0.78689808
-0.22864342 0.048500117 0.78658563
-0.22578232 0.048480868 0.78627342
-0.22292352 0.048461635 0.78596151
-0.2208606 0.048617113 0.78848308
-0.21887538 0.048793875 0.79134983
-0.21687569 0.048971929 0.79423755
-0.2148613 0.049151279 0.79714632
-0.21283212 0.049331952 0.80007648
-0.210788 0.049513958 0.80302835
-0.20872883 0.049697343 0.8060025
-0.20665453 0.049882129 0.80899942
-0.20456478 0.050068304 0.81201881
-0.20245935 0.050255865 0.81506073
-0.20033808 0.050444841 0.81812561
-0.19820079 0.050635237 0.82121348
-0.19604734 0.050827086 0.82432491
-0.19387746 0.051020384 0.82745987
-0.19169106 0.051215168 0.83061892
-0.18948786 0.051411435 0.83380204
-0.27351925 0.052985404 0.81287879
-0.26155233 0.051203363 0.78553951
-0.2586824 0.051183149 0.78522938
-0.25581476 0.051162951 0.7849195
-0.25294939 0.051142771 0.78460991
-0.25008628 0.051122606 0.78430057
-0.24722539 0.051102456 0.7839914
-0.24436678 0.051082321 0.78368253
-0.24151042 0.051062204 0.78337389
-0.23865631 0.051042102 0.7830655
-0.2358042 0.05102196 0.78275651
-0.23295422 0.051001813 0.7824474
-0.23010649 0.050981674 0.78213847
-0.22726099 0.050961554 0.78182977
-0.22441775 0.050941452 0.78152138
-0.22207758 0.051036462 0.78297895
-0.22011064 0.051220715 0.7858057
-0.21812946 0.051406305 0.78865296
-0.21613388 0.051593248 0.79152095
-0.21412373 0.051781558 0.79440987
-0.21209884 0.051971238 0.79731989
-0.21005908 0.052162323 0.80025142
-0.20800434 0.052354831 0.80320483
-0.2059346 0.052548826 0.80618101
-0.20384945 0.052744262 0.80917931
-0.20174874 0.052941158 0.81220001
-0.19963229 0.05313953 0.8152433
-0.19749992 0.053339396 0.81830955
-0.19535144 0.053540763 0.82139885
-0.19318667 0.053743657 0.82451159
-0.19100544 0.053948101 0.82764804
-0.18880755 0.054154105 0.83080846
-0.18659282 0.05436169 0.83399314
-0.27944538 0.056468237 0.82188469
-0.26282713 0.053666271 0.7811026
-0.25997293 0.053645212 0.78079605
-0.25712097 0.053624157 0.78048962
-0.25427124 0.053603124 0.78018349
-0.25142375 0.053582113 0.77987766
-0.24857847 0.053561106 0.77957195
-0.24573544 0.053540125 0.77926654
-0.24289465 0.05351916 0.77896142
-0.24005605 0.053498205 0.77865642
-0.23721969 0.053477272 0.77835172
-0.23438539 0.053456318 0.77804673
-0.23155311 0.053435333 0.77774131
-0.22872305 0.053414363 0.77743614
-0.22589518 0.053393405 0.77713108
-0.22327766 0.053422261 0.77755105
-0.22132874 0.053613793 0.78033876
-0.21936576 0.053806696 0.78314644
-0.21738862 0.054000992 0.78597438
-0.21539715 0.0541967 0.78882289
-0.21339118 0.054393832 0.79169208
-0.21137059 0.054592401 0.79458225
-0.20933519 0.05479243 0.79749364
-0.20728488 0.054993946 0.80042666
-0.20521964 0.055197008 0.80338216
-0.20313911 0.055401579 0.80635965
-0.20104311 0.055607669 0.80935925
-0.19893144 0.055815298 0.81238127
-0.19680396 0.056024484 0.81542593
-0.19466045 0.056235243 0.81849349
-0.19250078 0.056447599 0.82158428
-0.19032471 0.056661554 0.82469839
-0.18813211 0.056877151 0.82783633
-0.18655656 0.057289023 0.83383107
-0.28550357 0.060028955 0.83109027
-0.26427031 0.056140326 0.77725285
-0.26124898 0.056079622 0.77641243
-0.25841251 0.05605774 0.77610946
-0.25557828 0.056035876 0.77580678
-0.25274625 0.056014031 0.77550435
-0.2499164 0.055992201 0.7752021
-0.24708878 0.055970386 0.77490008
-0.24426337 0.055948593 0.77459836
-0.24144013 0.055926807 0.77429676
-0.23861912 0.055905052 0.77399552
-0.23580028 0.055883303 0.77369446
-0.23298354 0.055861551 0.77339327
-0.23016874 0.055839755 0.7730915
-0.22735614 0.055817973 0.77278996
-0.2245457 0.055796206 0.77248859
-0.22252996 0.055973794 0.77494729
-0.22058491 0.056173798 0.77771628
-0.21862589 0.056375228 0.78050506
-0.21665278 0.056578115 0.78331399
-0.21466541 0.056782465 0.78614318
-0.21266365 0.056988299 0.78899288
-0.21064731 0.057195626 0.79186332
-0.20861627 0.057404477 0.7947548
-0.20657034 0.057614859 0.7976675
-0.20450963 0.057826862 0.80060267
-0.20243371 0.058040436 0.80355954
-0.20034239 0.058255587 0.80653828
-0.19823553 0.05847235 0.80953932
-0.1961129 0.058690723 0.81256264
-0.19397438 0.058910735 0.81560868
-0.19181974 0.059132401 0.8186776
-0.18964884 0.059355743 0.82176977
-0.18758428 0.059619807 0.82542568
-0.18655714 0.060227111 0.83383369
-0.26983607 0.059502311 0.7854827
-0.26251078 0.058486857 0.77207786
-0.25968963 0.058464162 0.77177823
-0.25687072 0.058441486 0.77147889
-0.25405398 0.058418829 0.7711798
-0.25123939 0.058396183 0.77088088
-0.24842705 0.058373567 0.77058232
-0.24561682 0.058350958 0.77028388
-0.24280879 0.058328371 0.76998568
-0.24000296 0.058305804 0.76968777
-0.23719928 0.058283251 0.76939005
-0.23439775 0.058260713 0.76909256
-0.23159838 0.05823819 0.76879519
-0.22880083 0.0582156 0.76849699
-0.22600548 0.058193028 0.76819903
-0.22371472 0.058301415 0.76962984
-0.22178726 0.058508296 0.77236086
-0.21984608 0.058716655 0.77511138
-0.21789101 0.0589265 0.7778815
-0.21592191 0.059137847 0.78067148
-0.21393865 0.059350725 0.78348166
-0.21194106 0.059565134 0.78631204
-0.20992896 0.059781097 0.78916293
-0.20790225 0.059998639 0.79203469
-0.20586072 0.060217761 0.7949273
-0.20380454 0.060438585 0.79784238
-0.20173319 0.060661029 0.80077881
-0.19964656 0.06088512 0.80373704
-0.19754444 0.061110869 0.8067171
-0.19542669 0.061338305 0.80971944
-0.19329309 0.061567429 0.81274408
-0.1911435 0.061798271 0.81579143
-0.18897775 0.062030863 0.81886184
-0.18758501 0.062528335 0.8254289
-0.18655765 0.063165188 0.83383596
-0.27552053 0.062936164 0.79388756
-0.26375854 0.060867354 0.76779127
-0.26095259 0.06084387 0.76749504
-0.25814882 0.060820404 0.76719904
-0.25534722 0.060796957 0.76690328
-0.25254774 0.060773522 0.76660764
-0.24975047 0.060750112 0.76631236
-0.24695532 0.060726717 0.76601726
-0.24416231 0.060703337 0.76572233
-0.24137148 0.06067998 0.76542771
-0.23858277 0.060656637 0.76513326
-0.2357962 0.060633309 0.76483899
-0.2330118 0.060610004 0.76454502
-0.23022953 0.060586721 0.76425129
-0.2274491 0.060563371 0.76395679
-0.22488335 0.060597308 0.76438487
-0.22297317 0.060810864 0.7670787
-0.2210495 0.061025936 0.76979166
-0.21911219 0.061242536 0.77252388
-0.21716106 0.061460674 0.77527553
-0.21519595 0.061680369 0.77804679
-0.21321678 0.061901648 0.78083801
-0.21122335 0.062124517 0.78364933
-0.20921551 0.062348992 0.7864809
-0.20719312 0.062575102 0.78933311
-0.205156 0.062802859 0.79220605
-0.20310426 0.063032359 0.79510099
-0.20103751 0.06326355 0.79801732
-0.19895552 0.063496441 0.80095506
-0.19685815 0.063731052 0.80391449
-0.19474523 0.063967407 0.80689591
-0.19261657 0.06420552 0.80989951
-0.19047202 0.064445421 0.81292564
-0.18859221 0.064783581 0.81719124
-0.18758577 0.065436892 0.82543224
-0.18655816 0.06610328 0.83383816
-0.18550842 0.066783033 0.84241265
-0.28132764 0.066444218 0.80247331
-0.26499254 0.063221574 0.76355213
-0.26220161 0.063197307 0.76325911
-0.25941283 0.063173071 0.76296639
-0.25662619 0.063148849 0.76267385
-0.25384167 0.063124642 0.76238149
-0.25105929 0.063100465 0.76208943
-0.24827905 0.063076295 0.76179761
-0.24550091 0.063052148 0.7615059
-0.24272493 0.063028015 0.76121449
-0.23995106 0.063003905 0.76092333
-0.23717928 0.06297981 0.76063228
-0.23440966 0.062955737 0.76034153
-0.23164214 0.062931679 0.76005101
-0.22887675 0.062907644 0.75976074
-0.22611324 0.062883563 0.75946987
-0.22414298 0.063082159 0.76186836
-0.22223653 0.063303739 0.76454449
-0.22031662 0.063526876 0.76723945
-0.21838318 0.063751608 0.76995361
-0.21643595 0.063977927 0.7726869
-0.21447487 0.064205855 0.77543968
-0.21249978 0.064435422 0.77821225
-0.21051051 0.064666621 0.78100461
-0.2085069 0.064899497 0.78381711
-0.2064888 0.065134056 0.78664994
-0.20445609 0.065370314 0.78950334
-0.20240878 0.065608367 0.79237837
-0.20034659 0.065848179 0.79527473
-0.19826925 0.066089749 0.79819226
-0.19617663 0.066333108 0.80113137
-0.19406852 0.066578254 0.80409211
-0.19194479 0.066825226 0.8070749
-0.18980524 0.067074031 0.81007981
-0.18859296 0.067663126 0.81719452
-0.18758652 0.068345472 0.82543552
-0.18655866 0.069041394 0.83384043
-0.18550894 0.06975136 0.84241498
-0.28726178 0.070028991 0.81124687
-0.26687568 0.065713108 0.76124978
-0.26406825 0.065681949 0.76088881
-0.2612634 0.065650806 0.76052803
-0.25846124 0.065619692 0.7601676
-0.2556617 0.065588601 0.75980747
-0.25286481 0.065557547 0.75944769
-0.2500706 0.065526523 0.75908828
-0.24727902 0.065495528 0.75872922
-0.24449007 0.065464556 0.75837046
-0.24170378 0.065433614 0.75801206
-0.23892011 0.065402709 0.75765401
-0.23613906 0.065371826 0.75729626
-0.23336063 0.065340981 0.75693887
-0.23058484 0.065310158 0.75658184
-0.22781165 0.065279365 0.75622511
-0.225297 0.065322801 0.75672829
-0.22340748 0.0655507 0.75936836
-0.22150472 0.065780193 0.76202691
-0.21958861 0.066011302 0.76470417
-0.21765898 0.066244036 0.76740032
-0.21571571 0.066478424 0.77011555
-0.2137586 0.066714466 0.77284998
-0.21178758 0.066952199 0.77560401
-0.20980243 0.067191631 0.77837765
-0.20780304 0.067432776 0.7811712
-0.2057893 0.067675672 0.78398502
-0.20376092 0.067920305 0.78681898
-0.20171806 0.068166792 0.7896744
-0.19966041 0.068415105 0.79255092
-0.19758771 0.068665236 0.79544854
-0.19549981 0.0689172 0.79836738
-0.19339651 0.069171019 0.80130774
-0.19127767 0.069426708 0.80426979
-0.18958025 0.069845356 0.80911958
-0.18859369 0.070542678 0.81719768
-0.18758725 0.071254067 0.82543874
-0.18655916 0.071979515 0.83384264
-0.18550943 0.072719701 0.84241724
-0.27185422 0.068977937 0.76773494
-0.26743934 0.068539724 0.76285756
-0.26462573 0.068507172 0.76249522
-0.26181474 0.068474621 0.76213294
-0.25900638 0.068442099 0.76177096
-0.2562007 0.068409607 0.76140934
-0.25339767 0.068377152 0.76104808
-0.2505973 0.06834472 0.76068711
-0.24779961 0.068312325 0.7603265
-0.24500455 0.068279952 0.75996625
-0.24221215 0.068247616 0.75960636
-0.23942237 0.068215311 0.75924677
-0.23663524 0.068183035 0.75888753
-0.23385076 0.068150789 0.75852865
-0.23106891 0.06811858 0.75817013
-0.22828968 0.068086393 0.7578119
-0.22551315 0.068054266 0.75745428
-0.2227394 0.068022214 0.75709754
-0.22077774 0.068240389 0.7595259
-0.21886536 0.068479344 0.76218551
-0.2169396 0.068719998 0.76486397
-0.21500021 0.068962328 0.7675612
-0.2130471 0.069206387 0.77027756
-0.21108013 0.069452174 0.77301323
-0.20909913 0.069699712 0.77576834
-0.20710395 0.069949016 0.77854317
-0.20509447 0.070200115 0.78133798
-0.20307051 0.070453033 0.78415293
-0.20103204 0.07070782 0.78698879
-0.19897893 0.070964515 0.78984582
-0.19691084 0.071223073 0.7927236
-0.19482765 0.071483523 0.79562247
-0.19272913 0.07174588 0.79854256
-0.19061516 0.072010174 0.80148417
-0.18958099 0.07269647 0.80912274
-0.18859443 0.073422261 0.8172009
-0.18758801 0.074162699 0.82544208
-0.18655966 0.074917659 0.8338449
-0.18550992 0.075688049 0.84241945
-0.2774297 0.072432384 0.77576143
-0.2708278 0.071412303 0.76483619
-0.26800534 0.071378306 0.76447207
-0.26518556 0.071344338 0.7641083
-0.26236838 0.071310379 0.76374459
-0.25955385 0.071276441 0.76338112
-0.25674197 0.071242534 0.76301795
-0.25393277 0.071208656 0.76265514
-0.25112623 0.071174815 0.76229268
-0.24832238 0.071141005 0.76193058
-0.24552117 0.071107224 0.76156878
-0.24272266 0.071073487 0.7612074
-0.23992677 0.071039774 0.76084632
-0.23713353 0.071006082 0.76048553
-0.23434295 0.070972435 0.76012516
-0.231555 0.070938818 0.75976509
-0.2287697 0.070905231 0.75940537
-0.22598706 0.070871681 0.75904608
-0.22320725 0.070838228 0.75868779
-0.22043009 0.070804819 0.75832993
-0.21814689 0.070931196 0.75968349
-0.21622494 0.071179636 0.7623443
-0.21428946 0.071429819 0.76502377
-0.21234031 0.07168176 0.76772213
-0.2103774 0.071935497 0.77043968
-0.2084005 0.07219103 0.77317643
-0.20640953 0.07244838 0.77593273
-0.20440434 0.072707579 0.77870882
-0.20238471 0.072968639 0.78150475
-0.2003507 0.07323163 0.78432149
-0.19830208 0.073496573 0.78715903
-0.19623858 0.073763438 0.79001719
-0.19416007 0.074032255 0.79289627
-0.19206633 0.074303031 0.79579633
-0.19054896 0.074808106 0.80120575
-0.18958172 0.075547598 0.80912584
-0.18859519 0.076301873 0.81720418
-0.18758871 0.077071331 0.82544518
-0.18656014 0.077855803 0.83384705
-0.18551041 0.07865642 0.84242171
-0.28312305 0.075959839 0.78395766
-0.27423388 0.074299812 0.76682508
-0.27140248 0.074264362 0.76645917
-0.26857376 0.074228927 0.76609349
-0.26574776 0.074193537 0.76572818
-0.26292437 0.074158162 0.7653631
-0.26010358 0.074122787 0.76499802
-0.25728554 0.074087456 0.76463336
-0.25447011 0.074052148 0.76426899
-0.25165743 0.074016884 0.76390505
-0.24884737 0.07398165 0.7635414
-0.24604 0.073946454 0.76317811
-0.2432353 0.073911279 0.76281512
-0.24043328 0.07387615 0.76245254
-0.23763391 0.073841043 0.76209027
-0.2348372 0.07380598 0.76172835
-0.23204316 0.073770948 0.76136678
-0.22925174 0.073735945 0.76100552
-0.22646299 0.073700972 0.76064461
-0.22367711 0.073666111 0.76028484
-0.22089386 0.073631287 0.75992543
-0.21811324 0.073596492 0.75956631
-0.21551497 0.073623128 0.7598412
-0.21358337 0.073881038 0.76250303
-0.2116382 0.074140772 0.76518363
-0.20967932 0.07440234 0.76788318
-0.20770656 0.074665755 0.77060181
-0.20571977 0.07493104 0.77333975
-0.20371881 0.075198218 0.77609724
-0.20170355 0.075467311 0.77887446
-0.19967389 0.075738378 0.781672
-0.19762981 0.076011464 0.78449047
-0.19557092 0.076286525 0.78732932
-0.19349706 0.076563582 0.79018873
-0.19149816 0.076878823 0.79344219
-0.19054967 0.077631347 0.80120879
-0.18958247 0.078398764 0.80912906
-0.18859592 0.079181492 0.81720734
-0.1875892 0.079979897 0.82544738
-0.18656065 0.080793977 0.83384931
-0.18551092 0.081624806 0.84242398
-0.28893793 0.079562619 0.79232883
-0.27765775 0.077202395 0.76882446
-0.27481732 0.077165447 0.76845652
-0.2719796 0.077128544 0.768089
-0.26914459 0.077091672 0.76772177
-0.2663123 0.077054828 0.76735491
-0.26348278 0.077018037 0.76698852
-0.26065573 0.076981224 0.76662189
-0.25783139 0.076944441 0.76625562
-0.25500977 0.076907709 0.76588976
-0.25219083 0.076871 0.76552421
-0.24937457 0.076834328 0.76515901
-0.24656101 0.076797694 0.76479417
-0.24375013 0.076761089 0.76442969
-0.24094191 0.076724522 0.7640655
-0.2381364 0.076687992 0.76370174
-0.23533356 0.076651499 0.76333833
-0.23253337 0.076615036 0.76297522
-0.22973584 0.07657861 0.76261246
-0.22694091 0.076542206 0.76224989
-0.22414894 0.076505929 0.76188862
-0.2213596 0.076469682 0.76152766
-0.2185729 0.076433472 0.76116705
-0.21578883 0.076397285 0.76080674
-0.21300741 0.076361142 0.76044679
-0.21094072 0.076583572 0.76266187
-0.20898588 0.076852873 0.76534367
-0.2070172 0.077124059 0.76804429
-0.2050346 0.07739716 0.77076405
-0.2030379 0.077672213 0.77350318
-0.20102696 0.077949226 0.77626181
-0.19900168 0.07822825 0.77904046
-0.19696209 0.078509368 0.78183997
-0.19490775 0.078792498 0.78465956
-0.19283858 0.079077691 0.78749967
-0.19149888 0.079674713 0.79344517
-0.19055043 0.080454625 0.80121195
-0.1895832 0.081249945 0.80913216
-0.18859665 0.082061134 0.8172105
-0.18758969 0.082888469 0.82544953
-0.18656114 0.083732165 0.83385152
-0.2810995 0.080120146 0.77083421
-0.27824998 0.080081701 0.77046436
-0.2754032 0.080043301 0.77009487
-0.2725592 0.080004938 0.7697258
-0.26971787 0.079966605 0.76935703
-0.26687929 0.079928316 0.76898861
-0.26404342 0.079890057 0.76862055
-0.26121017 0.079851814 0.76825261
-0.25837958 0.079813585 0.76788479
-0.2555517 0.0797754 0.76751739
-0.2527265 0.079737239 0.76715028
-0.24990402 0.079699121 0.76678354
-0.24708423 0.079661041 0.76641715
-0.24426715 0.079622991 0.76605111
-0.24145275 0.079584986 0.76568544
-0.23864102 0.07954701 0.76532006
-0.23583198 0.079509065 0.76495504
-0.23302564 0.079471171 0.76459044
-0.23022194 0.0794333 0.76422608
-0.22742087 0.079395451 0.76386195
-0.22462276 0.079357743 0.76349914
-0.2218273 0.079320066 0.76313663
-0.21903448 0.079282418 0.76277447
-0.21624433 0.079244815 0.76241267
-0.21345681 0.079207249 0.76205122
-0.21067193 0.079169706 0.76169008
-0.20829698 0.079287238 0.76282084
-0.20633242 0.079566099 0.7655037
-0.20435396 0.079846911 0.7682054
-0.20236152 0.080129728 0.77092642
-0.20035489 0.080414549 0.77366662
-0.19833399 0.080701418 0.77642661
-0.19629887 0.080990441 0.77920729
-0.19424908 0.081281528 0.78200787
-0.19242987 0.081678867 0.78583062
-0.19149962 0.082470641 0.79344827
-0.19055115 0.083277911 0.80121499
-0.18958393 0.08410114 0.80913526
-0.1885974 0.084940806 0.81721371
-0.1875902 0.085797064 0.82545173
-0.18656164 0.086670369 0.83385378
-0.28455928 0.083053187 0.77285445
-0.28170067 0.083013237 0.77248275
-0.27884477 0.082973324 0.7721113
-0.27599165 0.082933448 0.77174026
-0.27314126 0.082893617 0.77136958
-0.27029359 0.082853816 0.77099925
-0.26744869 0.08281406 0.77062929
-0.26460648 0.082774334 0.77025962
-0.26176685 0.082734607 0.76988989
-0.25893012 0.082694963 0.769521
-0.25609592 0.082655303 0.76915193
-0.25326446 0.082615681 0.76878327
-0.25043574 0.082576104 0.76841497
-0.24760969 0.082536563 0.76804703
-0.24478635 0.08249706 0.76767939
-0.24196573 0.082457595 0.76731217
-0.23914778 0.082418166 0.76694524
-0.23633255 0.082378775 0.76657873
-0.23352 0.082339421 0.76621252
-0.23071013 0.082300104 0.76584667
-0.22790295 0.082260832 0.76548117
-0.2250986 0.082221642 0.76511651
-0.22229698 0.082182519 0.76475245
-0.21949804 0.082143441 0.7643888
-0.21670176 0.082104392 0.76402545
-0.21390814 0.082065389 0.76366246
-0.21111715 0.082026407 0.76329976
-0.20832886 0.081987485 0.76293755
-0.20565213 0.081992023 0.76297981
-0.20367783 0.08228045 0.76566374
-0.20168962 0.082570918 0.76836669
-0.19968729 0.082863435 0.77108872
-0.19767074 0.083158039 0.77383018
-0.19564006 0.083454855 0.7765922
-0.19359486 0.083753809 0.77937412
-0.1924306 0.084447958 0.7858336
-0.19150034 0.085266575 0.79345125
-0.19055189 0.086101227 0.80121809
-0.18958466 0.086952366 0.80913842
-0.18859814 0.087820515 0.81721699
-0.18759069 0.088705674 0.82545394
-0.28803727 0.086001649 0.77488542
-0.28516945 0.085960172 0.77451169
-0.28230441 0.085918732 0.77413833
-0.27944213 0.085877337 0.77376533
-0.2765826 0.085835978 0.77339274
-0.27372581 0.085794657 0.77302039
-0.27087179 0.085753374 0.77264845
-0.26802051 0.085712142 0.77227694
-0.26517197 0.085670941 0.77190572
-0.26232615 0.085629776 0.7715348
-0.25948298 0.085588627 0.77116406
-0.25664249 0.085547499 0.7707935
-0.25380474 0.085506417 0.77042329
-0.25096971 0.085465357 0.77005339
-0.24813738 0.085424341 0.76968384
-0.24530779 0.085383378 0.76931471
-0.2424809 0.085342437 0.76894587
-0.23965672 0.085301548 0.7685774
-0.23683524 0.085260689 0.76820928
-0.23401648 0.085219875 0.76784152
-0.2312004 0.085179098 0.76747411
-0.2283871 0.085138388 0.76710731
-0.22557643 0.085097693 0.76674068
-0.22276865 0.085057124 0.76637512
-0.21996357 0.085016593 0.76600993
-0.21716112 0.084976092 0.76564503
-0.21436135 0.084935635 0.76528049
-0.21156427 0.084895223 0.76491636
-0.20876983 0.084854834 0.76455247
-0.20597805 0.084814496 0.764189
-0.20318893 0.084774189 0.76382583
-0.20102216 0.084995948 0.76582396
-0.19902414 0.085296057 0.76852798
-0.19701195 0.085598297 0.77125114
-0.19498573 0.085902803 0.7739948
-0.19334388 0.086387694 0.7783637
-0.19243133 0.087217078 0.78583658
-0.19150108 0.08806254 0.79345429
-0.19055261 0.08892455 0.80122113
-0.18958542 0.089803621 0.80914164
-0.18859887 0.090700224 0.81722015
-0.1875912 0.091614306 0.82545614
-0.29153359 0.088965647 0.77692705
-0.2886565 0.08892262 0.77655131
-0.28578225 0.088879645 0.77617604
-0.28291076 0.088836707 0.77580106
-0.28004202 0.088793814 0.77542645
-0.27717608 0.088750966 0.77505225
-0.27431288 0.088708147 0.77467835
-0.27145243 0.088665366 0.77430475
-0.2685948 0.088622645 0.77393168
-0.26573986 0.088579945 0.7735588
-0.26288766 0.088537298 0.77318633
-0.26003844 0.088494755 0.77281481
-0.25719139 0.088452071 0.77244204
-0.25434732 0.088409491 0.77207023
-0.25150597 0.088366956 0.77169877
-0.24866733 0.088324465 0.77132767
-0.24583144 0.088282011 0.77095693
-0.24299827 0.088239595 0.77058655
-0.24016783 0.088197224 0.77021652
-0.23734009 0.08815489 0.7698468
-0.23451507 0.0881126 0.76947749
-0.23169278 0.088070348 0.76910853
-0.22887303 0.088028088 0.76873946
-0.22605631 0.087985992 0.76837182
-0.22324234 0.087943956 0.76800472
-0.22043104 0.08790195 0.76763791
-0.21762243 0.087859988 0.76727146
-0.2148165 0.087818064 0.76690537
-0.21201327 0.087776192 0.76653969
-0.20921269 0.087734357 0.76617432
-0.20641479 0.087692559 0.7658093
-0.20361954 0.087650791 0.76544458
-0.20082694 0.087609068 0.76508021
-0.19836538 0.087712578 0.76598418
-0.19635755 0.088022351 0.76868933
-0.19433571 0.088334411 0.77141458
-0.19334461 0.089130491 0.77836663
-0.19243205 0.089986205 0.7858395
-0.1915018 0.090858519 0.79345727
-0.19055337 0.091747917 0.80122429
-0.18958615 0.092654884 0.80914474
-0.1885996 0.093579955 0.81722331
-0.292162 0.091900721 0.77860177
-0.28927842 0.091856182 0.77822441
-0.2863977 0.091811694 0.77784753
-0.28351969 0.091767244 0.77747089
-0.28064451 0.091722831 0.77709466
-0.2777721 0.091678478 0.77671885
-0.27490246 0.091634154 0.77634335
-0.2720356 0.091589876 0.77596819
-0.26917151 0.091545641 0.77559346
-0.26631019 0.091501445 0.77521902
-0.26345164 0.091457307 0.77484506
-0.26059586 0.0914132 0.7744714
-0.25774264 0.091369085 0.77409762
-0.2548922 0.091325007 0.7737242
-0.25204447 0.091280974 0.77335113
-0.24919952 0.091236986 0.77297843
-0.24635732 0.091193043 0.77260613
-0.24351785 0.091149136 0.7722342
-0.2406811 0.091105275 0.77186257
-0.23784707 0.091061451 0.77149129
-0.23501579 0.091017678 0.77112043
-0.23218721 0.090973936 0.77074987
-0.22936134 0.090930238 0.7703796
-0.22653826 0.0908866 0.77000993
-0.22371803 0.090843081 0.76964122
-0.22090054 0.090799607 0.76927286
-0.21808572 0.09075617 0.76890486
-0.21527359 0.090712763 0.76853716
-0.21246417 0.090669423 0.76816994
-0.20965743 0.090626113 0.76780301
-0.20685335 0.09058284 0.76743639
-0.20405197 0.090539612 0.76707017
-0.20125324 0.090496421 0.76670426
-0.19845721 0.090453282 0.76633877
-0.19570747 0.090430349 0.76614445
-0.19424067 0.091007873 0.77103734
-0.19334531 0.091873303 0.77836949
-0.19243276 0.092755355 0.78584242
-0.19150254 0.093654528 0.79346037
-0.19055408 0.094571285 0.80122733
-0.18958686 0.095506169 0.80914783
-0.18860023 0.096459657 0.81722599
-0.29279315 0.094848484 0.78028375
-0.28990304 0.094802417 0.77990478
-0.28701577 0.094756402 0.77952623
-0.28413126 0.094710425 0.77914798
-0.28124958 0.094664499 0.77877015
-0.27837071 0.094618611 0.77839267
-0.27549461 0.094572768 0.77801555
-0.27262127 0.094526976 0.77763885
-0.26975074 0.094481222 0.77726245
-0.26688299 0.094435513 0.7768864
-0.264018 0.094389856 0.77651078
-0.26115575 0.094344229 0.77613544
-0.25829652 0.094298728 0.77576113
-0.25543943 0.094253056 0.77538538
-0.25258535 0.09420751 0.7750107
-0.24973403 0.09416201 0.77463639
-0.24688546 0.094116561 0.77426249
-0.24403964 0.09407115 0.77388889
-0.24119656 0.094025776 0.77351564
-0.23835623 0.093980454 0.77314281
-0.23551862 0.093935177 0.77277029
-0.23268376 0.093889944 0.77239817
-0.22985181 0.093844824 0.77202702
-0.22702222 0.093799599 0.77165496
-0.22419576 0.09375459 0.7712847
-0.22137202 0.093709625 0.77091479
-0.21855097 0.093664698 0.77054518
-0.21573265 0.093619831 0.77017605
-0.212917 0.093574986 0.76980716
-0.21010406 0.093530193 0.76943868
-0.20729381 0.093485445 0.76907051
-0.20448624 0.093440734 0.76870269
-0.20168136 0.09339606 0.76833522
-0.19887917 0.093351446 0.76796818
-0.19607964 0.093306869 0.76760143
-0.19424127 0.093724802 0.77103966
-0.19334592 0.094616093 0.77837193
-0.1924334 0.095524497 0.78584504
-0.1915032 0.096450515 0.79346305
-0.19055475 0.097394653 0.80123013
-0.18958756 0.098357461 0.80915082
-0.29342696 0.097808987 0.78197283
-0.29053044 0.09776143 0.78159261
-0.28763652 0.097713836 0.78121215
-0.28474548 0.097666323 0.78083229
-0.28185728 0.097618863 0.78045285
-0.27897188 0.097571447 0.78007376
-0.27608928 0.097524069 0.77969497
-0.27320948 0.097476751 0.77931666
-0.27033246 0.097429462 0.77893859
-0.26745823 0.097382225 0.77856094
-0.26458681 0.097335041 0.7781837
-0.26171812 0.097287893 0.77780676
-0.25885245 0.097240865 0.77743077
-0.25598902 0.097193696 0.77705365
-0.25312853 0.09714663 0.77667737
-0.25027081 0.09709961 0.77630144
-0.24741587 0.097052634 0.77592587
-0.24456368 0.09700571 0.77555072
-0.24171427 0.096958831 0.77517593
-0.2388676 0.096911997 0.77480149
-0.23602365 0.0968652 0.77442735
-0.23318247 0.096818455 0.77405363
-0.23034436 0.096771888 0.77368134
-0.22750828 0.096725076 0.77330709
-0.22467554 0.096678562 0.77293521
-0.22184551 0.096632093 0.7725637
-0.21901821 0.096585669 0.77219254
-0.21619363 0.096539296 0.7718218
-0.21337175 0.096492961 0.77145135
-0.21055259 0.096446671 0.77108127
-0.20773613 0.096400425 0.77071154
-0.20492236 0.096354224 0.77034217
-0.2021113 0.096308067 0.76997316
-0.19930294 0.096261963 0.76960456
-0.19649726 0.096215896 0.76923627
-0.19424179 0.096441731 0.77104175
-0.19334646 0.097358853 0.77837408
-0.19243391 0.09829358 0.78584713
-0.19150372 0.099246457 0.79346526
-0.19055529 0.10021797 0.8012324
-0.1895881 0.10120869 0.80915308
-0.18860118 0.10221896 0.81723017
-0.2911604 0.10073322 0.78328735
-0.28825995 0.1006841 0.7829054
-0.28536236 0.10063504 0.78252393
-0.28246763 0.10058603 0.78214288
-0.27957568 0.10053706 0.78176206
-0.27668652 0.10048814 0.78138167
-0.27380022 0.10043927 0.78100169
-0.2709167 0.10039045 0.78062201
-0.26803598 0.10034167 0.78024274
-0.26515806 0.10029294 0.77986383
-0.26228294 0.10024426 0.77948529
-0.25941062 0.10019563 0.77910715
-0.2565411 0.10014705 0.77872944
-0.25367409 0.10009842 0.77835125
-0.25080994 0.10004987 0.77797371
-0.24794859 0.10000136 0.77759653
-0.24508999 0.099952899 0.77721971
-0.24223419 0.099904492 0.77684331
-0.23938112 0.099856123 0.7764672
-0.23653084 0.099807814 0.77609152
-0.23368332 0.099759541 0.77571619
-0.23083888 0.099711463 0.77534235
-0.22799642 0.099663109 0.7749663
-0.22515737 0.099615075 0.77459282
-0.22232105 0.0995671 0.77421975
-0.21948747 0.099519163 0.77384704
-0.21665661 0.099471271 0.77347463
-0.21382847 0.099423431 0.77310264
-0.21100305 0.099375635 0.77273095
-0.20818034 0.099327877 0.77235961
-0.20536037 0.099280179 0.77198869
-0.20254308 0.09923251 0.77161807
-0.1997285 0.099184901 0.77124786
-0.19691662 0.099137329 0.77087796
-0.1942423 0.09915866 0.77104378
-0.19334698 0.10010163 0.77837616
-0.19243443 0.10106269 0.78584927
-0.19150424 0.10204241 0.7934674
-0.19055581 0.10304129 0.8012346
-0.18958864 0.10405993 0.80915534
-0.18860167 0.10509864 0.81723225
-0.29179314 0.10371795 0.7849896
-0.28888622 0.1036673 0.78460634
-0.28598213 0.10361671 0.78422344
-0.28308061 0.10356607 0.78384018
-0.28018209 0.10351555 0.78345776
-0.27728638 0.10346507 0.78307569
-0.27439353 0.10341464 0.78269404
-0.27150345 0.10336426 0.78231275
-0.26861623 0.10331393 0.78193182
-0.26573181 0.10326365 0.7815513
-0.26285017 0.10321341 0.78117108
-0.25997135 0.10316323 0.78079128
-0.25709513 0.10311303 0.78041124
-0.25422198 0.10306296 0.78003234
-0.25135136 0.10301286 0.77965313
-0.24848358 0.10296281 0.77927434
-0.24561857 0.10291281 0.77889591
-0.24275635 0.10286286 0.7785179
-0.23989689 0.10281295 0.77814019
-0.23704021 0.10276309 0.77776283
-0.23418631 0.10271329 0.77738589
-0.23133555 0.1026637 0.77701056
-0.22848666 0.10261376 0.77663261
-0.22564127 0.10256422 0.77625757
-0.22279862 0.1025147 0.77588284
-0.21995874 0.10246525 0.77550858
-0.21712159 0.10241584 0.77513462
-0.21428715 0.10236647 0.77476096
-0.21145545 0.10231715 0.77438772
-0.20862648 0.10226788 0.77401477
-0.20580024 0.10221866 0.77364224
-0.2029767 0.10216948 0.77327007
-0.20015606 0.10212044 0.77289885
-0.19733776 0.10207126 0.77252662
-0.19452228 0.10202218 0.77215517
-0.1933475 0.10284441 0.77837825
-0.19243497 0.10383181 0.78585142
-0.19150478 0.10483838 0.79346961
-0.19055633 0.10586463 0.80123681
-0.18958916 0.10691118 0.80915761
-0.18860216 0.10797834 0.8172344
-0.29242861 0.10671565 0.78669912
-0.28951505 0.10666344 0.78631419
-0.28660434 0.10661128 0.78592968
-0.28369626 0.10655908 0.78554487
-0.28079113 0.10650698 0.78516078
-0.27788883 0.10645492 0.78477705
-0.2749894 0.10640293 0.78439379
-0.27209279 0.10635099 0.78401083
-0.26919901 0.10629909 0.78362828
-0.26630804 0.10624725 0.78324604
-0.26341987 0.10619545 0.78286421
-0.26053455 0.10614371 0.78248274
-0.25765204 0.10609202 0.78210175
-0.25477216 0.10604031 0.78172052
-0.25189513 0.10598867 0.78133982
-0.24902089 0.10593706 0.78095943
-0.24614944 0.10588551 0.78057939
-0.24328077 0.10583401 0.78019971
-0.24041489 0.10578255 0.77982038
-0.23755179 0.10573114 0.77944142
-0.23469149 0.10567979 0.77906281
-0.23183437 0.10562867 0.77868599
-0.22897902 0.10557716 0.77830619
-0.22612725 0.10552605 0.77792948
-0.22327825 0.105475 0.77755314
-0.22043201 0.10542401 0.77717721
-0.21758853 0.10537306 0.77680165
-0.21474777 0.10532216 0.77642637
-0.21190977 0.10527131 0.77605152
-0.20907451 0.1052205 0.77567703
-0.206242 0.10516976 0.77530289
-0.2034122 0.10511906 0.77492917
-0.20058519 0.10506843 0.77455592
-0.19776073 0.10501777 0.77418244
-0.19493902 0.10496716 0.77380937
-0.19334801 0.10558721 0.77838033
-0.19243549 0.10660096 0.78585356
-0.1915053 0.10763436 0.79347175
-0.19055687 0.10868799 0.80123901
-0.18958969 0.10976245 0.80915987
-0.18860264 0.11085805 0.81723648
-0.29014665 0.10967266 0.78802961
-0.28722927 0.1096189 0.78764337
-0.28431478 0.10956521 0.78725755
-0.2814028 0.10951143 0.78687114
-0.27849391 0.10945781 0.78648585
-0.27558786 0.10940423 0.78610086
-0.27268466 0.1093507 0.78571624
-0.2697843 0.10929722 0.78533202
-0.26688674 0.1092438 0.78494811
-0.26399204 0.10919042 0.78456461
-0.26110017 0.10913711 0.78418154
-0.25821114 0.10908385 0.78379881
-0.25532475 0.10903057 0.78341603
-0.25244129 0.10897738 0.78303385
-0.24956052 0.10892421 0.78265178
-0.24668258 0.10887109 0.78227007
-0.24380744 0.10881801 0.78188872
-0.2409351 0.10876498 0.78150773
-0.23806556 0.10871202 0.78112715
-0.23519883 0.1086591 0.78074694
-0.23233525 0.10860642 0.78036839
-0.2294735 0.10855333 0.77998692
-0.22661534 0.10850068 0.77960861
-0.22375998 0.10844809 0.77923071
-0.22090736 0.10839553 0.77885312
-0.2180575 0.10834303 0.77847588
-0.21521041 0.10829059 0.77809906
-0.21236606 0.10823819 0.77772254
-0.20952448 0.10818584 0.77734643
-0.20668566 0.10813356 0.77697074
-0.20384964 0.10808136 0.77659565
-0.20101625 0.10802913 0.77622044
-0.19818553 0.10797694 0.77584541
-0.19535753 0.10792479 0.77547067
-0.19334853 0.10833003 0.77838242
-0.19243601 0.1093701 0.78585571
-0.19150582 0.11043037 0.79347396
-0.19055741 0.11151137 0.80124128
-0.18959022 0.11261374 0.80916214
-0.18860313 0.11373776 0.81723857
-0.29078099 0.11269502 0.78975242
-0.28785694 0.11263967 0.78936458
-0.28493577 0.11258437 0.78897703
-0.28201747 0.11252914 0.78858995
-0.27910164 0.11247379 0.78820211
-0.27618894 0.11241861 0.78781539
-0.2732791 0.11236349 0.78742909
-0.27037212 0.11230843 0.78704321
-0.26746798 0.11225341 0.78665763
-0.26456669 0.11219844 0.78627247
-0.26166826 0.11214354 0.78588772
-0.25877264 0.11208868 0.78550327
-0.25588009 0.11203398 0.78511995
-0.25298977 0.11197908 0.7847352
-0.25010252 0.11192433 0.78435153
-0.24721806 0.11186963 0.78396815
-0.24433641 0.11181497 0.78358513
-0.2414576 0.11176037 0.78320253
-0.23858158 0.11170582 0.78282028
-0.23570837 0.11165133 0.7824384
-0.23283829 0.11159705 0.782058
-0.22997014 0.1115424 0.78167504
-0.22710554 0.11148817 0.781295
-0.22424375 0.11143401 0.78091544
-0.22138473 0.1113799 0.78053623
-0.21852851 0.11132584 0.78015739
-0.21567503 0.11127183 0.7797789
-0.21282433 0.11121787 0.77940077
-0.20997639 0.11116397 0.77902305
-0.20713122 0.11111013 0.77864569
-0.204289 0.11105644 0.77826947
-0.20144916 0.11100259 0.77789211
-0.19861214 0.11094885 0.77751547
-0.19577783 0.11089513 0.77713907
-0.19334905 0.11107285 0.77838451
-0.19243655 0.11213928 0.78585786
-0.19150634 0.11322638 0.7934761
-0.19055793 0.11433475 0.80124348
-0.18959075 0.11546504 0.8091644
-0.18860359 0.11661749 0.8172406
-0.18759568 0.11779264 0.82547587
-0.29141811 0.11573063 0.79148281
-0.28848734 0.11567367 0.79109323
-0.28555948 0.11561676 0.79070407
-0.28263447 0.11555991 0.79031521
-0.27971205 0.11550298 0.78992593
-0.27679265 0.11544618 0.78953743
-0.27387613 0.11538944 0.7891494
-0.27096254 0.11533277 0.78876185
-0.26805177 0.11527615 0.7883746
-0.26514387 0.11521959 0.78798783
-0.26223883 0.11516308 0.78760135
-0.25933662 0.11510663 0.78721523
-0.25643724 0.11505023 0.78682953
-0.25354105 0.11499403 0.7864452
-0.25064686 0.11493751 0.78605866
-0.24775586 0.11488121 0.78567362
-0.24486768 0.11482496 0.78528893
-0.24198236 0.11476877 0.78490466
-0.23909983 0.11471264 0.78452075
-0.23622012 0.11465655 0.78413719
-0.23334353 0.11460067 0.783755
-0.23046908 0.11454451 0.78337091
-0.22759789 0.11448863 0.78298879
-0.22472966 0.11443289 0.78260756
-0.22186421 0.1143772 0.78222668
-0.21900155 0.11432156 0.78184617
-0.21614166 0.11426597 0.78146601
-0.21328457 0.11421045 0.78108627
-0.21043025 0.11415497 0.78070688
-0.20757914 0.11409979 0.78032947
-0.20473006 0.11404426 0.77994972
-0.20188394 0.11398889 0.77957106
-0.19904059 0.11393358 0.77919275
-0.19619998 0.11387831 0.77881479
-0.19336213 0.1138231 0.7784372
-0.19243705 0.11490846 0.78585994
-0.19150688 0.11602242 0.79347831
-0.19055845 0.11715816 0.80124569
-0.18959129 0.11831637 0.80916667
-0.18860409 0.11949725 0.81724274
-0.18759616 0.1207014 0.82547796
-0.29205802 0.11877958 0.79322082
-0.2891205 0.11872098 0.79282951
-0.28618589 0.11866245 0.79243863
-0.28325421 0.11860397 0.79204816
-0.28032535 0.11854555 0.79165798
-0.277399 0.11848701 0.79126704
-0.27447584 0.11842866 0.7908774
-0.27155554 0.11837036 0.79048806
-0.2686381 0.11831211 0.79009908
-0.26572359 0.11825395 0.78971064
-0.26281187 0.11819582 0.78932244
-0.25990304 0.11813775 0.78893465
-0.25699708 0.11807974 0.78854728
-0.2540943 0.11802194 0.78816128
-0.25119355 0.11796382 0.78777313
-0.24829599 0.11790592 0.78738648
-0.24540129 0.11784808 0.78700018
-0.24250939 0.11779027 0.78661418
-0.23962034 0.11773254 0.7862286
-0.23673411 0.11767485 0.78584337
-0.23385096 0.11761735 0.78545934
-0.23097014 0.11755965 0.78507406
-0.22809234 0.11750212 0.78468984
-0.22521764 0.11744478 0.78430694
-0.22234572 0.1173875 0.7839244
-0.21947664 0.11733028 0.78354228
-0.21661033 0.11727311 0.78316051
-0.21374682 0.117216 0.7827791
-0.21088611 0.11715894 0.7823981
-0.20802867 0.11710224 0.78201938
-0.20517309 0.11704504 0.78163749
-0.20232061 0.11698811 0.78125721
-0.19947088 0.11693121 0.78087723
-0.19662394 0.11687437 0.78049767
-0.19377974 0.11681758 0.78011841
-0.19243757 0.11767765 0.78586209
-0.19150738 0.11881845 0.79348046
-0.19055897 0.11998158 0.80124789
-0.18959181 0.1211677 0.80916893
-0.18860458 0.12237702 0.81724483
-0.18759663 0.12361019 0.8254801
-0.28975645 0.1217817 0.79457343
-0.28681511 0.12172154 0.79418087
-0.28387663 0.12166141 0.79378861
-0.28094104 0.12160135 0.79339671
-0.2780084 0.12154136 0.79300529
-0.27507773 0.12148102 0.79261166
-0.27215114 0.12142128 0.79222184
-0.269227 0.1213614 0.79183114
-0.2663058 0.1213016 0.79144096
-0.26338744 0.12124185 0.79105109
-0.26047197 0.12118214 0.79066157
-0.25755936 0.12112252 0.79027253
-0.25464961 0.12106293 0.78988379
-0.25174317 0.12100362 0.78949678
-0.24883853 0.12094386 0.78910691
-0.24593721 0.12088439 0.78871888
-0.24303874 0.12082498 0.78833121
-0.24014312 0.12076561 0.7879439
-0.23725036 0.12070633 0.78755707
-0.23436058 0.12064716 0.78717107
-0.23147342 0.12058794 0.78678471
-0.22858895 0.12052872 0.78639829
-0.22570775 0.12046978 0.78601372
-0.22282936 0.1204109 0.78562951
-0.21995379 0.12035207 0.78524572
-0.21708101 0.1202933 0.78486228
-0.21421105 0.12023459 0.7844792
-0.21134415 0.12017608 0.78409749
-0.20847981 0.1201175 0.78371525
-0.20561805 0.12005886 0.78333265
-0.20275916 0.12000032 0.7829507
-0.19990304 0.11994183 0.78256905
-0.19704974 0.1198834 0.78218788
-0.19419919 0.11982503 0.78180701
-0.1924381 0.12044687 0.78586423
-0.19150792 0.12161452 0.79348266
-0.19055952 0.12280502 0.80125016
-0.18959235 0.12401905 0.8091712
-0.18860506 0.12525679 0.81724691
-0.18759714 0.12651901 0.82548231
-0.29039523 0.12485592 0.79632509
-0.28744704 0.12479408 0.79593068
-0.28450179 0.12473232 0.79553676
-0.28155947 0.12467061 0.79514319
-0.27862003 0.12460896 0.79474998
-0.27568352 0.12454737 0.79435718
-0.27274951 0.12448567 0.79396367
-0.26981851 0.12442408 0.79357082
-0.26689059 0.12436263 0.79317892
-0.26396555 0.12430123 0.79278731
-0.2610434 0.12423991 0.79239619
-0.25812411 0.12417863 0.79200536
-0.25520772 0.12411741 0.79161489
-0.25229403 0.12405618 0.79122436
-0.24938338 0.12399509 0.79083472
-0.24647546 0.12393399 0.79044503
-0.24357037 0.12387294 0.79005563
-0.24066816 0.12381195 0.78966665
-0.23776883 0.12375103 0.78927815
-0.23487246 0.12369023 0.78889036
-0.23197886 0.12362946 0.78850275
-0.22908773 0.12356853 0.78811419
-0.2262 0.12350798 0.78772795
-0.22331509 0.12344747 0.78734207
-0.22043303 0.12338704 0.78695661
-0.21755376 0.12332665 0.7865715
-0.21467733 0.12326634 0.78618681
-0.21180408 0.1232063 0.78580385
-0.20893307 0.12314598 0.78541917
-0.20606495 0.12308577 0.78503519
-0.20319963 0.12302562 0.78465152
-0.20033711 0.12296554 0.78426832
-0.19747737 0.12290549 0.78388536
-0.19462045 0.12284552 0.78350288
-0.19243863 0.1232161 0.78586638
-0.19150844 0.12441059 0.79348481
-0.19056004 0.12562847 0.80125237
-0.18959287 0.12687042 0.80917346
-0.18860553 0.12813659 0.817249
-0.18759762 0.12942782 0.8254844
-0.29103681 0.12794372 0.79808444
-0.28808182 0.12788023 0.79768836
-0.28512973 0.12781678 0.79729259
-0.28218061 0.12775341 0.79689729
-0.27923438 0.12769011 0.79650241
-0.27629107 0.12762684 0.79610783
-0.27335072 0.12756367 0.79571378
-0.2704131 0.12750047 0.79531962
-0.26747796 0.12743714 0.79492456
-0.26454619 0.1273741 0.79453123
-0.26161733 0.12731111 0.79413837
-0.25869134 0.12724818 0.79374582
-0.25576824 0.1271853 0.79335362
-0.2528483 0.12712263 0.79296267
-0.24993126 0.12706003 0.79257214
-0.24701609 0.12699696 0.79217881
-0.24410437 0.12693428 0.79178774
-0.24119553 0.12687165 0.79139704
-0.23828956 0.12680908 0.79100674
-0.23538655 0.12674661 0.79061711
-0.23248658 0.12668431 0.79022849
-0.22958869 0.12662163 0.7898376
-0.22669441 0.12655945 0.78944969
-0.22380295 0.12649733 0.78906214
-0.22091433 0.12643525 0.78867495
-0.21802858 0.12637325 0.78828818
-0.21514563 0.1263113 0.78790182
-0.21226618 0.12624982 0.78751826
-0.20938836 0.1261877 0.78713071
-0.20651378 0.12612587 0.78674507
-0.203642 0.12606409 0.78635973
-0.20077303 0.12600239 0.7859748
-0.19790687 0.12594073 0.78559023
-0.1950435 0.12587914 0.78520608
-0.19243915 0.12598534 0.78586853
-0.19150895 0.12720667 0.79348689
-0.19056056 0.12845193 0.80125457
-0.1895934 0.12972181 0.80917573
-0.18860602 0.1310164 0.81725115
-0.18759809 0.13233663 0.82548648
-0.18656968 0.13368379 0.83388966
-0.28871939 0.13098001 0.79945374
-0.28576046 0.13091488 0.79905623
-0.28280449 0.13084984 0.79865921
-0.27985144 0.13078485 0.79826254
-0.27690136 0.13071993 0.79786628
-0.27395418 0.13065507 0.79747039
-0.27100971 0.13059017 0.79707432
-0.26806849 0.1305255 0.79667956
-0.26512939 0.13046049 0.79628277
-0.2621938 0.13039584 0.79588819
-0.25926107 0.13033125 0.7954939
-0.25633126 0.13026671 0.79510003
-0.25340438 0.13020225 0.79470658
-0.25047988 0.13013759 0.79431194
-0.24755909 0.13007341 0.79392022
-0.24464072 0.13000907 0.79352748
-0.24172524 0.12994477 0.79313505
-0.23881263 0.12988055 0.79274303
-0.23590291 0.1298164 0.79235142
-0.23299626 0.12975241 0.7919609
-0.23009184 0.12968813 0.79156858
-0.22719097 0.12962429 0.79117894
-0.22429295 0.12956053 0.79078972
-0.22139779 0.12949681 0.79040086
-0.21850546 0.12943317 0.79001236
-0.21561611 0.12936966 0.78962475
-0.21272966 0.12930626 0.7892378
-0.20984568 0.1292427 0.78884983
-0.20696457 0.12917922 0.7884624
-0.2040863 0.12911583 0.78807545
-0.20121086 0.12905248 0.78768879
-0.19833824 0.1289892 0.78730261
-0.19546843 0.12892599 0.78691673
-0.19260144 0.12886283 0.78653127
-0.19150947 0.13000278 0.7934891
-0.19056109 0.13127542 0.80125678
-0.18959394 0.1325732 0.80917799
-0.1886065 0.13389622 0.81725317
-0.18759859 0.1352455 0.82548869
-0.18657015 0.13662224 0.83389181
-0.28935978 0.13409355 0.80122697
-0.28639397 0.13402674 0.80082774
-0.28343111 0.13395998 0.80042887
-0.28047124 0.13389331 0.80003047
-0.27751431 0.13382669 0.79963243
-0.27456033 0.13376015 0.79923487
-0.27160925 0.13369367 0.7988376
-0.26866034 0.13362688 0.79843849
-0.26571548 0.1335607 0.79804307
-0.2627728 0.1334942 0.79764575
-0.25983334 0.13342792 0.79724973
-0.25689676 0.13336171 0.79685408
-0.25396314 0.13329557 0.7964589
-0.2510328 0.13322969 0.79606527
-0.24810505 0.13316372 0.79567111
-0.24517941 0.1330974 0.79527479
-0.24225725 0.13303144 0.79488069
-0.23933798 0.13296553 0.79448694
-0.2364216 0.13289972 0.79409361
-0.2335081 0.13283394 0.79370064
-0.23059723 0.13276809 0.79330719
-0.22768973 0.1327026 0.79291582
-0.2247851 0.13263717 0.79252487
-0.22188333 0.1325718 0.79213428
-0.21898444 0.1325065 0.79174417
-0.21608925 0.1324418 0.79135752
-0.21319543 0.13237624 0.7909658
-0.21030496 0.13231108 0.7905764
-0.20741734 0.13224596 0.7901873
-0.20453256 0.13218091 0.78979868
-0.2016506 0.13211592 0.78941029
-0.19877151 0.13205101 0.78902245
-0.19589521 0.13198613 0.78863484
-0.19302176 0.13192134 0.7882477
-0.19150999 0.1327989 0.79349124
-0.19056161 0.13409892 0.80125898
-0.18959446 0.13542461 0.80918026
-0.18860698 0.13677606 0.81725526
-0.18759908 0.13815436 0.82549083
-0.18657063 0.13956071 0.83389395
-0.290003 0.13722093 0.80300802
-0.28703031 0.13715242 0.80260706
-0.2840606 0.13708396 0.80220652
-0.28109378 0.13701557 0.80180621
-0.27812997 0.13694724 0.80140644
-0.27516913 0.136879 0.80100709
-0.27221122 0.13681082 0.8006081
-0.26925626 0.13674271 0.80020952
-0.26630351 0.13667428 0.7998091
-0.26335433 0.13660626 0.799411
-0.2604081 0.1365383 0.79901332
-0.2574648 0.13647041 0.79861599
-0.25452438 0.13640256 0.79821903
-0.25158688 0.13633479 0.79782242
-0.24865226 0.13626707 0.79742604
-0.24572051 0.13619937 0.79702991
-0.24279162 0.13613172 0.79663402
-0.23986565 0.13606414 0.79623854
-0.23694257 0.13599662 0.79584348
-0.23402216 0.13592903 0.79544795
-0.23110482 0.13586162 0.79505342
-0.22819069 0.13579446 0.79466039
-0.22527941 0.13572735 0.79426765
-0.22237103 0.13566032 0.7938754
-0.21946621 0.13559377 0.793486
-0.21656364 0.13552693 0.79309481
-0.21366334 0.13545977 0.79270178
-0.21076627 0.1353929 0.79231054
-0.20787211 0.13532613 0.79191983
-0.20498076 0.13525942 0.79152936
-0.2020923 0.13519278 0.79113942
-0.19920665 0.13512619 0.79074973
-0.19632387 0.13505968 0.79036057
-0.19344391 0.13499323 0.78997165
-0.19151053 0.13559504 0.79349345
-0.19056214 0.13692243 0.80126125
-0.189595 0.13827606 0.80918252
-0.18860745 0.1396559 0.81725734
-0.18759955 0.14106323 0.82549292
-0.18657114 0.14249922 0.83389622
-0.29064909 0.14036225 0.80479705
-0.28766945 0.140292 0.8043943
-0.28469279 0.14022182 0.80399191
-0.28171912 0.14015172 0.80359
-0.27874839 0.14008167 0.80318832
-0.27578065 0.14001171 0.80278718
-0.27281588 0.13994183 0.80238646
-0.26985404 0.13987198 0.80198604
-0.26689517 0.13980223 0.80158609
-0.26393813 0.13973194 0.8011831
-0.2609852 0.13966234 0.80078399
-0.2580353 0.13959287 0.80038565
-0.25508809 0.13952333 0.7999869
-0.25214383 0.13945384 0.79958856
-0.24920288 0.13938466 0.79919183
-0.24626437 0.13931526 0.79879397
-0.24332835 0.1392457 0.7983951
-0.24039565 0.13917643 0.79799789
-0.23746584 0.13910721 0.79760104
-0.23453853 0.13903782 0.79720312
-0.23161466 0.1389688 0.79680741
-0.22869384 0.13889994 0.79641259
-0.2257759 0.13883114 0.79601812
-0.22286089 0.13876243 0.7956242
-0.21994944 0.13869423 0.79523313
-0.21703985 0.13862546 0.79483879
-0.21413328 0.13855682 0.79444528
-0.21122962 0.13848829 0.79405236
-0.20832886 0.13841984 0.79365987
-0.20543094 0.13835146 0.79326773
-0.20253591 0.13828315 0.79287606
-0.19964372 0.13821487 0.79248464
-0.1967544 0.1381467 0.79209375
-0.19386791 0.13807859 0.79170316
-0.19151106 0.1383912 0.79349566
-0.19056268 0.13974597 0.80126345
-0.18959554 0.1411275 0.80918479
-0.18860796 0.14253578 0.81725949
-0.18760005 0.14397213 0.82549506
-0.18657161 0.14543772 0.83389837
-0.28831145 0.1434456 0.80618948
-0.28532785 0.1433737 0.80578536
-0.28234723 0.14330186 0.8053816
-0.27936953 0.14323007 0.80497813
-0.27639487 0.14315838 0.8045752
-0.27342322 0.14308676 0.80417275
-0.2704545 0.14301521 0.8037706
-0.26748875 0.14294372 0.80336881
-0.26452595 0.1428723 0.80296743
-0.26156476 0.14280021 0.8025623
-0.25860816 0.14272909 0.80216259
-0.25565431 0.14265794 0.80176264
-0.25270322 0.14258674 0.80136251
-0.24975535 0.14251576 0.80096364
-0.24681026 0.14244477 0.80056465
-0.24386743 0.14237347 0.80016392
-0.24092796 0.14230248 0.79976493
-0.23799142 0.14223157 0.79936635
-0.2350574 0.14216046 0.79896677
-0.23212674 0.14208971 0.79856908
-0.22919922 0.14201914 0.79817253
-0.22627458 0.14194866 0.79777634
-0.22335377 0.14187881 0.79738384
-0.22043516 0.1418086 0.79698926
-0.21751846 0.14173783 0.79659152
-0.21460529 0.14166754 0.79619646
-0.21169502 0.14159733 0.79580188
-0.20878762 0.14152718 0.79540759
-0.20588312 0.14145711 0.79501379
-0.20298149 0.1413871 0.79462034
-0.20008272 0.14131717 0.7942273
-0.19718681 0.14124729 0.79383457
-0.1942938 0.14117751 0.79344237
-0.19151157 0.14118737 0.7934978
-0.1905632 0.14256951 0.80126566
-0.18959606 0.14397897 0.80918705
-0.18860844 0.14541566 0.81726158
-0.18760052 0.14688103 0.82549721
-0.1865721 0.14837624 0.83390051
-0.18552253 0.14990221 0.84247673
-0.28895637 0.14661333 0.80799282
-0.28596574 0.14653966 0.80758679
-0.28297812 0.14646606 0.80718124
-0.2799935 0.14639254 0.80677605
-0.27701187 0.14631909 0.80637121
-0.27403325 0.14624572 0.80596691
-0.27105764 0.14617243 0.80556303
-0.26808497 0.14609922 0.80515951
-0.26511526 0.14602605 0.80475628
-0.26214844 0.14595291 0.80435324
-0.25918397 0.14587951 0.80394864
-0.25622296 0.14580643 0.80354595
-0.25326514 0.14573357 0.8031444
-0.25031015 0.14566071 0.8027429
-0.24735798 0.14558785 0.80234128
-0.24440917 0.14551529 0.80194145
-0.24146266 0.14544243 0.8015399
-0.23851934 0.14536978 0.80113953
-0.23557876 0.14529708 0.80073887
-0.23264116 0.14522448 0.8003388
-0.22970684 0.14515217 0.79994029
-0.22677548 0.14507997 0.79954237
-0.22384717 0.14500791 0.79914528
-0.2209224 0.14493635 0.79875088
-0.21799922 0.14486401 0.79835218
-0.21507938 0.14479201 0.79795539
-0.21216245 0.14472008 0.79755902
