# .PCD v0.7 - Point Cloud Data file format
VERSION 0.7
FIELDS x y z
SIZE 4 4 4
TYPE F F F
COUNT 1 1 1
WIDTH 1325
HEIGHT 1
VIEWPOINT 0 0 0 1 0 0 0
POINTS 1325
DATA ascii
-0.036182128 -0.07708367 0.8929714
-0.032920029 -0.0768134 0.88984048
-0.029680723 -0.076545022 0.88673151
-0.026463974 -0.076278515 0.88364416
-0.023269547 -0.076013856 0.88057822
-0.020097209 -0.075751022 0.87753344
-0.016946739 -0.075490013 0.87450981
-0.013817899 -0.075230785 0.87150675
-0.010710476 -0.07497333 0.86852431
-0.0076242494 -0.074717641 0.86556232
-0.0045732679 -0.074696712 0.86531985
-0.0015248859 -0.074719407 0.86558276
0.0015253492 -0.074742116 0.8658458
0.0045774393 -0.07476484 0.86610907
0.0076313848 -0.074787572 0.86637241
0.01068719 -0.074810326 0.86663604
0.013744854 -0.074833095 0.86689979
0.016804378 -0.074855871 0.8671636
0.01986577 -0.07487867 0.86742777
0.022929022 -0.074901469 0.86769187
0.025994143 -0.074924298 0.86795628
0.029061129 -0.074947126 0.86822075
0.032129988 -0.07496997 0.86848539
0.035200715 -0.074992828 0.86875015
0.038273316 -0.075015694 0.8690151
0.041347787 -0.075038575 0.86928016
0.044424135 -0.07506147 0.8695454
0.047502365 -0.075084381 0.86981082
0.050582476 -0.075107314 0.87007642
0.053664468 -0.075130254 0.8703422
0.056748345 -0.075153209 0.87060815
0.059834104 -0.075176179 0.87087423
0.062921748 -0.075199164 0.87114048
0.06601128 -0.075222149 0.87140679
0.069102697 -0.075245164 0.87167335
0.072196014 -0.075268187 0.87194008
0.075291231 -0.075291231 0.87220699
0.078388333 -0.075314283 0.87247407
0.081487335 -0.07533735 0.87274128
0.084588245 -0.07536044 0.87300873
0.088446483 -0.076032944 0.88079935
0.092733115 -0.077015638 0.8921833
-0.039387606 -0.074048698 0.89431566
-0.036109358 -0.073788688 0.89117539
-0.03285405 -0.073530488 0.88805705
-0.029621443 -0.073274098 0.88496047
-0.026411304 -0.07301949 0.88188547
-0.023223395 -0.072766639 0.87883168
-0.020057488 -0.072515532 0.875799
-0.016913356 -0.072266154 0.87278718
-0.013790774 -0.072018489 0.86979598
-0.010689523 -0.071772508 0.86682522
-0.0076093841 -0.071528211 0.86387473
-0.0045561031 -0.071378954 0.86207205
-0.0015191609 -0.07140056 0.86233306
0.0015196208 -0.071422175 0.86259407
0.0045602433 -0.071443811 0.86285537
0.0076027075 -0.071465448 0.86311674
0.010647018 -0.071487114 0.86337841
0.013693172 -0.071508788 0.86364013
0.016741175 -0.071530469 0.86390203
0.019791028 -0.07155218 0.86416417
0.022842726 -0.071573876 0.8644262
0.025896277 -0.071595587 0.86468846
0.028951684 -0.07161732 0.86495095
0.032008942 -0.071639061 0.86521351
0.035068057 -0.071660817 0.86547625
0.038129039 -0.071682587 0.86573923
0.041191876 -0.07170438 0.86600238
0.044256579 -0.071726181 0.86626565
0.047323141 -0.071747988 0.86652905
0.050391573 -0.071769819 0.86679268
0.053461868 -0.071791656 0.86705643
0.056534037 -0.071813509 0.86732036
0.059608068 -0.071835369 0.86758435
0.062683977 -0.071857244 0.86784858
0.06576176 -0.071879134 0.86811298
0.068841428 -0.071901046 0.86837757
0.071922958 -0.071922958 0.86864227
0.075006381 -0.071944892 0.86890715
0.078091674 -0.071966842 0.86917222
0.081178859 -0.071988799 0.86943746
0.084267914 -0.072010763 0.8697027
0.087459318 -0.072115578 0.87096858
0.091686197 -0.073038161 0.88211095
0.096021041 -0.073983423 0.89352733
-0.042602751 -0.071004584 0.89566404
-0.039308269 -0.070754878 0.89251423
-0.036036879 -0.070506938 0.88938659
-0.032788336 -0.070260718 0.88628078
-0.029562399 -0.070016205 0.88319647
-0.026358843 -0.069773406 0.88013375
-0.023177424 -0.069532275 0.87709206
-0.020017922 -0.069292806 0.87407142
-0.016880106 -0.069054984 0.8710714
-0.013763756 -0.068818778 0.86809194
-0.010668653 -0.068584196 0.86513287
-0.0075945775 -0.068351194 0.86219376
-0.0045413189 -0.068119779 0.85927463
-0.0015134787 -0.06810654 0.85910761
0.0015139352 -0.068127081 0.85936671
0.0045431759 -0.068147637 0.85962605
0.0075742453 -0.068168208 0.85988551
0.010607146 -0.068188794 0.86014515
0.013641878 -0.068209387 0.86040497
0.016678443 -0.068229988 0.86066484
0.019716844 -0.068250611 0.86092496
0.022757079 -0.068271235 0.86118513
0.025799152 -0.068291873 0.86144543
0.028843062 -0.068312518 0.86170584
0.031888817 -0.068333179 0.86196643
0.034936413 -0.068353854 0.86222726
0.037985854 -0.068374537 0.86248815
0.041037139 -0.068395235 0.86274922
0.044090278 -0.068415947 0.86301053
0.047145259 -0.068436667 0.86327189
0.050202105 -0.068457417 0.86353362
0.053260792 -0.06847816 0.86379528
0.056321342 -0.068498924 0.86405724
0.059383743 -0.068519704 0.86431932
0.062448006 -0.068540491 0.86458158
0.065514125 -0.068561293 0.86484396
0.068582118 -0.068582118 0.86510658
0.071651965 -0.068602942 0.86536932
0.074723676 -0.068623789 0.86563224
0.077797249 -0.068644628 0.86589515
0.080872692 -0.068665497 0.86615837
0.083950013 -0.068686374 0.86642176
0.087029204 -0.068707265 0.86668527
0.090661369 -0.069148503 0.87225109
0.094935574 -0.070034444 0.88342649
0.099318892 -0.070942067 0.89487541
0.10381719 -0.071873434 0.9066239
-0.045827609 -0.067951284 0.89701658
-0.042516805 -0.067711949 0.89385718
-0.039229248 -0.067474306 0.89072007
-0.03596469 -0.067238331 0.88760501
-0.032722879 -0.067003995 0.88451153
-0.029503595 -0.066771291 0.88143969
-0.026306588 -0.066540189 0.87838894
-0.023131635 -0.066310689 0.8753593
-0.01997851 -0.066082768 0.87235051
-0.016846986 -0.065856405 0.86936229
-0.013736843 -0.065631583 0.86639452
-0.010647862 -0.065408297 0.86344695
-0.0075798281 -0.065186523 0.86051929
-0.004532529 -0.064966246 0.85761148
-0.0015078388 -0.064837068 0.85590625
0.0015082919 -0.064856552 0.85616344
0.0045262361 -0.06487605 0.85642081
0.0075459951 -0.064895555 0.85667831
0.010567571 -0.064915083 0.85693604
0.013590964 -0.064934611 0.85719383
0.016616179 -0.064954154 0.85745186
0.019643215 -0.064973712 0.85771006
0.02267207 -0.06499327 0.85796821
0.02570275 -0.065012842 0.85822654
0.028735256 -0.065032423 0.85848504
0.031769589 -0.065052018 0.85874373
0.034805752 -0.06507162 0.85900253
0.037843745 -0.065091245 0.85926151
0.040883575 -0.065110877 0.85952073
0.043925229 -0.065130517 0.85977995
0.046968728 -0.065150172 0.86003941
0.05001406 -0.065169841 0.86029905
0.053061228 -0.065189511 0.86055875
0.056110244 -0.065209202 0.86081868
0.059161097 -0.065228902 0.86107874
0.062213801 -0.065248616 0.86133903
0.065268353 -0.065268353 0.8615995
0.068324752 -0.065288097 0.86186016
0.071382985 -0.065307841 0.86212081
0.074443087 -0.065327607 0.86238176
0.077505037 -0.065347381 0.86264282
0.080568843 -0.065367177 0.86290407
0.083634503 -0.065386973 0.86316544
0.086702026 -0.065406792 0.86342704
0.089771405 -0.065426618 0.86368877
0.09387286 -0.066172674 0.87353736
0.098194607 -0.06702172 0.88474548
0.10262673 -0.067891523 0.89622772
0.10717539 -0.068784207 0.90801191
-0.045882616 -0.064868525 0.89809322
-0.042431217 -0.064432591 0.89205778
-0.039150555 -0.064206913 0.8889333
-0.035892792 -0.063982807 0.88583058
-0.03265769 -0.063760251 0.88274938
-0.029445019 -0.063539252 0.87968969
-0.02625454 -0.063319772 0.87665105
-0.023086028 -0.063101813 0.87363338
-0.019939255 -0.062885344 0.87063646
-0.016813997 -0.06267035 0.86765993
-0.013710035 -0.062456828 0.86470371
-0.010627153 -0.062244758 0.86176765
-0.0075651365 -0.062034119 0.85885137
-0.0045237732 -0.061824903 0.85595483
-0.0015028559 -0.061617091 0.85307771
0.0015026905 -0.061610311 0.85298383
0.004509422 -0.061628766 0.85323936
0.0075179543 -0.061647229 0.85349494
0.010528291 -0.061665706 0.85375077
0.013540431 -0.061684188 0.85400665
0.01655438 -0.061702687 0.85426277
0.019570133 -0.061721191 0.85451895
0.022587694 -0.061739698 0.85477519
0.025607068 -0.061758224 0.85503167
0.028628254 -0.061776757 0.85528827
0.031651251 -0.061795302 0.85554498
0.034676064 -0.061813854 0.85580188
0.037702698 -0.061832424 0.85605896
0.040731147 -0.061851002 0.85631615
0.043761414 -0.061869588 0.85657346
0.046793513 -0.061888192 0.85683107
0.049827427 -0.061906803 0.85708874
0.052863166 -0.061925426 0.85734653
0.055900734 -0.061944056 0.8576045
0.058940131 -0.061962701 0.85786265
0.061981358 -0.061981358 0.85812092
0.065024413 -0.062000025 0.85837936
0.068069309 -0.062018704 0.85863799
0.071116038 -0.062037393 0.85889673
0.074164599 -0.062056094 0.85915565
0.077215008 -0.06207481 0.85941476
0.080267265 -0.062093541 0.8596741
0.083321355 -0.062112283 0.85993356
0.086377285 -0.062131032 0.86019313
0.089435063 -0.062149789 0.86045283
0.092833675 -0.062396403 0.86386716
0.097093843 -0.063188054 0.87482744
0.10146325 -0.063999891 0.88606721
0.10594455 -0.064831741 0.89758396
-0.046018708 -0.061887227 0.90075707
-0.042345975 -0.061166406 0.89026564
-0.039072171 -0.060952589 0.88715357
-0.035821181 -0.060740266 0.88406324
-0.032592766 -0.060529418 0.88099444
-0.029386679 -0.060320023 0.87794673
-0.026202699 -0.060112074 0.87492007
-0.023040598 -0.059905555 0.87191421
-0.019900154 -0.059700459 0.86892909
-0.016781136 -0.059496757 0.86596423
-0.013683333 -0.059294444 0.86301959
-0.010606525 -0.059093498 0.86009485
-0.0075505013 -0.058893912 0.85718989
-0.0045150514 -0.058695666 0.85430449
-0.0014999679 -0.058498748 0.8514384
0.0014971307 -0.058388099 0.84982789
0.0044927327 -0.058405522 0.8500815
0.0074901218 -0.058422953 0.85033518
0.010489302 -0.058440398 0.8505891
0.013490273 -0.058457848 0.85084307
0.016493037 -0.058475312 0.85109729
0.019497592 -0.05849278 0.8513515
0.022503946 -0.058510263 0.85160595
0.025512096 -0.058527749 0.85186046
0.028522041 -0.058545243 0.85211509
0.031533789 -0.058562752 0.85236996
0.034547344 -0.058580276 0.85262501
0.037562694 -0.058597803 0.85288012
0.040579852 -0.058615342 0.85313541
0.043598823 -0.058632899 0.85339093
0.046619594 -0.05865046 0.85364652
0.049642179 -0.058668029 0.85390222
0.052666578 -0.058685616 0.85415822
0.055692784 -0.058703206 0.85441422
0.058720805 -0.058720805 0.85467041
0.061750647 -0.058738422 0.85492676
0.064782314 -0.05875605 0.85518336
0.067815788 -0.058773685 0.85544002
0.070851088 -0.058791328 0.85569686
0.073888212 -0.05880899 0.85595387
0.076927163 -0.058826655 0.85621101
0.079967938 -0.058844328 0.85646826
0.083010539 -0.058862016 0.85672569
0.086054973 -0.058879722 0.85698336
0.08910124 -0.058897428 0.85724109
0.092149355 -0.058915161 0.85749918
0.096017428 -0.059439361 0.86512882
0.10032434 -0.060194608 0.87612128
0.10474167 -0.060969029 0.88739288
0.10927244 -0.061762683 0.89894438
-0.046155609 -0.058888193 0.90343678
-0.042338625 -0.058019597 0.89011115
-0.038994107 -0.057711277 0.88538104
-0.03574986 -0.057510648 0.88230306
-0.032528091 -0.057311401 0.87924629
-0.029328572 -0.057113536 0.87621075
-0.026151067 -0.056917027 0.87319601
-0.022995353 -0.05672187 0.870202
-0.019861205 -0.056528043 0.86722839
-0.016748404 -0.056335539 0.8642751
-0.013656734 -0.056144349 0.86134195
-0.010585977 -0.055954449 0.85842854
-0.0075359223 -0.055765826 0.85553479
-0.0045063631 -0.055578474 0.85266054
-0.0014970913 -0.055392373 0.84980547
0.0014920951 -0.055207517 0.84696949
0.0044761659 -0.055206046 0.8469469
0.0074624945 -0.055222459 0.84719872
0.010450601 -0.055238891 0.84745079
0.013440484 -0.055255327 0.84770292
0.016432147 -0.055271767 0.84795517
0.01942559 -0.055288218 0.84820753
0.022420814 -0.055304676 0.84846002
0.025417823 -0.055321146 0.84871268
0.028416619 -0.055337626 0.84896553
0.031417198 -0.055354115 0.84921849
0.03441957 -0.05537061 0.84947157
0.037423726 -0.055387113 0.84972477
0.040429682 -0.055403639 0.84997827
0.043437429 -0.055420164 0.85023183
0.046446964 -0.055436701 0.8504855
0.049458306 -0.055453252 0.85073942
0.05247144 -0.055469807 0.85099339
0.055486374 -0.055486374 0.85124755
0.05850311 -0.055502951 0.85150188
0.061521653 -0.05551954 0.85175639
0.064541996 -0.05553614 0.85201102
0.067564145 -0.055552743 0.85226578
0.070588112 -0.055569366 0.85252076
0.073613875 -0.055585988 0.85277581
0.076641455 -0.055602625 0.85303104
0.079670854 -0.055619273 0.85328645
0.082811661 -0.05570966 0.85467315
0.085966453 -0.055802785 0.85610181
0.08913181 -0.055896219 0.85753524
0.092307784 -0.055989966 0.85897344
0.095494382 -0.056084003 0.86041611
0.099210486 -0.056473661 0.8663941
0.10356443 -0.057192296 0.87741905
0.10802992 -0.057929087 0.8887226
0.11261044 -0.058684316 0.90030897
-0.046293333 -0.055871263 0.90613252
-0.04246309 -0.055044744 0.89272785
-0.038916346 -0.054482885 0.88361549
-0.035678823 -0.054293856 0.88054979
-0.032463677 -0.054106131 0.87750518
-0.029270694 -0.053919699 0.87448162
-0.026099635 -0.053734541 0.87147868
-0.022950284 -0.053550661 0.86849648
-0.019822411 -0.053368032 0.86553454
-0.016715802 -0.053186644 0.86259276
-0.013630237 -0.053006481 0.85967082
-0.010565507 -0.052827537 0.85676867
-0.0075213998 -0.0526498 0.85388607
-0.0044977074 -0.052473255 0.85102284
-0.0014942255 -0.05229789 0.84817874
0.0014892485 -0.052123699 0.84535366
0.004459721 -0.052030079 0.84383535
0.0074350708 -0.052045494 0.84408534
0.010412184 -0.052060921 0.8443355
0.013391062 -0.052076351 0.84458578
0.016371707 -0.052091792 0.84483618
0.019354116 -0.052107234 0.84508663
0.022338295 -0.052122686 0.84533727
0.025324248 -0.052138157 0.84558815
0.02831197 -0.052153628 0.84583908
0.031301465 -0.052169107 0.84609014
0.034292735 -0.0521846 0.84634137
0.03728579 -0.052200105 0.84659284
0.040280618 -0.052215613 0.84684438
0.043277223 -0.052231129 0.84709603
0.046275619 -0.052246667 0.84734797
0.049275789 -0.052262202 0.84759992
0.052277748 -0.052277748 0.84785205
0.055281498 -0.052293308 0.84810442
0.058287028 -0.052308872 0.84835684
0.061294347 -0.052324444 0.84860939
0.064334668 -0.052365426 0.84927404
0.067438804 -0.0524524 0.85068464
0.070553266 -0.052539665 0.8520999
0.073678114 -0.052627224 0.85351998
0.0768134 -0.052715078 0.85494477
0.079959162 -0.052803222 0.85637432
0.083115473 -0.052891664 0.85780871
0.086282365 -0.052980401 0.85924786
0.089459896 -0.053069428 0.86069173
0.092647985 -0.053158678 0.86213923
0.095847018 -0.053248342 0.8635934
0.099056818 -0.053338286 0.8650521
0.10241292 -0.053499281 0.8676632
0.10681412 -0.054181073 0.87872064
0.11132803 -0.054880012 0.89005619
-0.046431877 -0.052836273 0.90884429
-0.042588286 -0.052052349 0.89535993
-0.038857076 -0.051291339 0.88226968
-0.035608061 -0.051089827 0.87880343
-0.03239952 -0.050913528 0.87577093
-0.029213043 -0.050738443 0.87275922
-0.026048409 -0.050564557 0.8697682
-0.022905389 -0.050391857 0.86679757
-0.019783769 -0.050220337 0.8638472
-0.016683325 -0.050049976 0.86091679
-0.013603847 -0.049880769 0.8580063
-0.010545119 -0.049712703 0.85511535
-0.0075069335 -0.049545761 0.85224378
-0.0044890856 -0.049379941 0.84939146
-0.0014913706 -0.049215231 0.84655827
0.0014864127 -0.049051616 0.84374392
0.0044444622 -0.048889086 0.84094816
0.0074078473 -0.04889179 0.84099472
0.010374049 -0.048906229 0.84124309
0.013342001 -0.048920672 0.84149152
0.016311707 -0.048935119 0.84174001
0.019283164 -0.048949573 0.84198862
0.022256384 -0.048964042 0.84223753
0.025231356 -0.048978515 0.84248644
0.028208088 -0.048992995 0.84273553
0.031186584 -0.04900749 0.84298486
0.034166839 -0.049021985 0.84323424
0.037148859 -0.049036495 0.84348381
0.040132646 -0.049051013 0.84373349
0.043118201 -0.049065538 0.84398335
0.046105519 -0.04908007 0.84423333
0.04914416 -0.04914416 0.84533572
0.052208763 -0.049225405 0.84673327
0.05528352 -0.049306922 0.84813547
0.058368478 -0.04938871 0.84954232
0.061463684 -0.049470771 0.85095382
0.06456919 -0.0495531 0.85236996
0.067685053 -0.049635708 0.85379094
0.070811324 -0.049718592 0.85521662
0.073948056 -0.049801752 0.85664707
0.0770953 -0.049885191 0.85808235
0.080253102 -0.049968913 0.85952246
0.083421513 -0.050052911 0.86096728
0.086600602 -0.050137192 0.86241704
0.089790426 -0.050221764 0.86387175
0.092991054 -0.050306633 0.86533165
0.096202277 -0.05039167 0.86679435
0.099424586 -0.050477095 0.86826378
0.10265783 -0.050562814 0.86973822
0.10590208 -0.05064882 0.87121761
0.11007345 -0.051160902 0.88002604
0.11463606 -0.051821779 0.89139384
-0.046571251 -0.049783062 0.9115724
-0.042714223 -0.049042255 0.89800757
-0.038970295 -0.048323166 0.88484043
-0.035537582 -0.047898483 0.87706405
-0.032335609 -0.047733519 0.87404346
-0.029155618 -0.047569692 0.87104362
-0.02599738 -0.047406986 0.86806434
-0.022860672 -0.047245391 0.86510539
-0.019745277 -0.04708489 0.86216646
-0.016650975 -0.046925474 0.85924745
-0.013577556 -0.046767138 0.85634816
-0.010524808 -0.046609867 0.85346836
-0.0074925241 -0.046453647 0.85060787
-0.0044804974 -0.046298474 0.84776652
-0.0014885268 -0.046144333 0.844944
0.0014835877 -0.045991216 0.84214032
0.0044360426 -0.045839109 0.83935511
0.0073808222 -0.045761097 0.83792663
0.01033619 -0.045774557 0.83817309
0.013293297 -0.045788024 0.83841968
0.016252143 -0.045801498 0.83866638
0.019212734 -0.04581498 0.83891326
0.022175066 -0.045828469 0.83916026
0.025139142 -0.045841966 0.83940738
0.02810497 -0.045855477 0.8396548
0.031078143 -0.045877259 0.84005368
0.034093887 -0.045952629 0.84143376
0.037119556 -0.046028249 0.84281844
0.040155198 -0.046104118 0.84420764
0.043200869 -0.046180241 0.8456015
0.046256613 -0.046256613 0.84699994
0.049322475 -0.046333235 0.84840298
0.052398518 -0.046410114 0.84981072
0.055484783 -0.046487253 0.85122317
0.058581319 -0.046564639 0.85264021
0.061688188 -0.046642289 0.85406202
0.064805441 -0.046720199 0.85548866
0.067933112 -0.046798367 0.85692
0.071071282 -0.046876803 0.85835618
0.074219979 -0.046955496 0.85979718
0.077379256 -0.04703445 0.86124289
0.080549195 -0.047113683 0.86269367
0.083729826 -0.047193177 0.86414927
0.086921215 -0.047272939 0.86560982
0.090123154 -0.047352843 0.86707294
0.093336575 -0.047433339 0.8685469
0.096560188 -0.047513742 0.87001914
0.099795103 -0.047594588 0.87149948
0.10304105 -0.04767571 0.87298489
0.10629809 -0.047757115 0.87447548
0.10956626 -0.047838792 0.87597108
0.1133425 -0.048131749 0.88133538
-0.046711467 -0.046711467 0.91431695
-0.042840905 -0.046014309 0.90067095
-0.039084177 -0.045337647 0.8874262
-0.035467383 -0.044719744 0.87533152
-0.032271955 -0.044566035 0.87232286
-0.029098419 -0.044413377 0.86933482
-0.02594655 -0.044261761 0.8663671
-0.022816127 -0.044111177 0.86341965
-0.019706933 -0.043961622 0.86049223
-0.016618751 -0.043813072 0.8575846
-0.013551368 -0.043665521 0.85469645
-0.010504576 -0.043518957 0.85182768
-0.0074781687 -0.04337338 0.84897816
-0.0044719423 -0.043228775 0.84614772
-0.001485694 -0.043085124 0.84333599
0.0014807733 -0.042942427 0.84054285
0.0044276561 -0.042800672 0.8377682
0.0073551475 -0.042659856 0.83501184
0.010298608 -0.04266566 0.83512551
0.013244947 -0.042678166 0.83537024
0.016204352 -0.042720564 0.83620018
0.019181915 -0.042790428 0.83756763
0.022169234 -0.042860519 0.83893961
0.025166357 -0.042930845 0.84031612
0.028173329 -0.043001398 0.8416971
0.031190202 -0.043072183 0.84308267
0.034217022 -0.043143202 0.84447271
0.037253842 -0.043214455 0.84586746
0.040300705 -0.043285944 0.84726673
0.04335767 -0.04335767 0.84867072
0.046424784 -0.043429639 0.85007936
0.049502093 -0.043501843 0.85149264
0.052589651 -0.043574281 0.85291058
0.055687513 -0.043646969 0.85433334
0.058795728 -0.043719899 0.85576087
0.061914347 -0.043793075 0.85719317
0.06504342 -0.043866493 0.85863024
0.068183005 -0.043940157 0.86007214
0.07133314 -0.044014066 0.8615188
0.0744939 -0.04408823 0.86297041
0.077665344 -0.044162646 0.86442703
0.080847494 -0.044237308 0.86588848
0.084040433 -0.044312228 0.86735493
0.087244198 -0.0443874 0.86882633
0.090458378 -0.044462595 0.87029815
0.09368439 -0.044538483 0.87178355
0.096920766 -0.044614322 0.87326801
0.1001684 -0.044690516 0.87475944
0.10342715 -0.044766974 0.87625599
0.10669706 -0.044843692 0.87775767
0.10997821 -0.044920679 0.87926459
0.11327065 -0.044997931 0.88077664
0.11662128 -0.045093562 0.88264853
-0.046852529 -0.04362132 0.91707808
-0.042968344 -0.042968344 0.90335011
-0.039198726 -0.042334624 0.89002705
-0.035538685 -0.041719325 0.87709123
-0.032208551 -0.041410994 0.87060899
-0.029041447 -0.041269425 0.86763269
-0.025895922 -0.041128814 0.86467659
-0.022771759 -0.040989164 0.86174065
-0.019668737 -0.040850453 0.85882443
-0.01658665 -0.040712688 0.85592806
-0.01352528 -0.04057584 0.85305107
-0.010484423 -0.040439915 0.85019338
-0.0074638687 -0.040304892 0.84735471
-0.0044634189 -0.04017077 0.84453499
-0.0014828718 -0.040037539 0.84173399
0.0014779699 -0.03990519 0.83895153
0.0044193012 -0.03977371 0.83618736
0.0073558888 -0.039721798 0.835096
0.010315062 -0.03978667 0.83645982
0.013283917 -0.039851751 0.83782804
0.0162625 -0.039917044 0.83920074
0.019250875 -0.039982587 0.84057873
0.022249065 -0.040048316 0.84196061
0.025257129 -0.040114261 0.84334701
0.028275114 -0.040180422 0.84473795
0.03130307 -0.040246803 0.84613353
0.034341052 -0.040313408 0.84753376
0.0373891 -0.040380228 0.84893858
0.040447272 -0.040447272 0.85034811
0.043515619 -0.04051454 0.85176229
0.04659418 -0.040582027 0.85318112
0.04968302 -0.040649746 0.85460478
0.052782189 -0.040717687 0.85603321
0.055891737 -0.04078586 0.85746646
0.059011709 -0.04085426 0.85890442
0.062142164 -0.040922888 0.86034727
0.065283149 -0.040991742 0.86179483
0.068434723 -0.041060835 0.86324739
0.07159695 -0.041130163 0.86470491
0.074769869 -0.041199721 0.86616731
0.07795354 -0.041269522 0.86763471
0.081148013 -0.041339554 0.86910707
0.084353335 -0.04140982 0.87058431
0.087569363 -0.041480225 0.87206447
0.090796515 -0.041550949 0.87355137
0.094034791 -0.041621957 0.87504417
0.097284041 -0.041693158 0.87654114
0.10054449 -0.041764636 0.87804383
0.10381615 -0.041836359 0.87955171
0.10709906 -0.041908327 0.88106471
0.11039327 -0.041980539 0.8825829
0.11369887 -0.042053007 0.88410646
0.1170159 -0.042125724 0.8856352
-0.046994451 -0.040512457 0.91985601
-0.043096542 -0.039904207 0.90604532
-0.039313946 -0.039313946 0.89264321
-0.035641622 -0.038740896 0.87963176
-0.032145396 -0.038268328 0.86890191
-0.028984692 -0.038137753 0.86593711
-0.025845487 -0.038008068 0.86299258
-0.022727558 -0.037879266 0.86006802
-0.019630693 -0.037751332 0.85716325
-0.016554672 -0.037624255 0.85427791
-0.013499293 -0.037498035 0.851412
-0.010464345 -0.03737266 0.84856528
-0.0074496237 -0.03724812 0.84573752
-0.0044549285 -0.037124407 0.84292853
-0.0014800603 -0.037001505 0.84013808
0.0014751769 -0.036879424 0.8373661
0.0044221133 -0.036850944 0.83671945
0.0073822481 -0.036911242 0.83808851
0.010352087 -0.036971737 0.83946216
0.013331676 -0.037032433 0.84084028
0.016321065 -0.03709333 0.84222293
0.0193203 -0.037154421 0.84361011
0.022329431 -0.037215721 0.84500188
0.025348511 -0.037277222 0.84639829
0.028377615 -0.037338965 0.84780025
0.031416766 -0.037400912 0.84920675
0.034465976 -0.037463021 0.85061693
0.037525348 -0.037525348 0.85203212
0.040594909 -0.037587877 0.85345191
0.043674715 -0.037650619 0.85487646
0.046764825 -0.037713569 0.85630578
0.049865283 -0.037776727 0.85773987
0.052976146 -0.037840106 0.85917884
0.056097455 -0.037903685 0.86062253
0.059229277 -0.037967484 0.8620711
0.062371656 -0.0380315 0.86352456
0.06552466 -0.038095731 0.86498302
0.068688326 -0.038160179 0.86644632
0.07186272 -0.03822485 0.86791468
0.07504788 -0.038289733 0.86938792
0.078243874 -0.03835484 0.87086618
0.08145076 -0.038420167 0.8723495
0.084668592 -0.038485724 0.87383795
0.087896995 -0.038551316 0.87532723
0.091136649 -0.038617227 0.87682378
0.094387911 -0.038683571 0.87833017
0.097650051 -0.038750019 0.87983894
0.10092342 -0.038816702 0.88135296
0.10420808 -0.038883612 0.88287222
0.10750408 -0.038950752 0.88439667
0.1108115 -0.039018132 0.8859266
0.11413059 -0.03908582 0.88746345
0.11746055 -0.039153516 0.88900054
-0.047137272 -0.037384734 0.92265153
-0.043225504 -0.036821727 0.90875655
-0.039429847 -0.036275458 0.89527476
-0.035745163 -0.035745163 0.88218707
-0.032166652 -0.035230145 0.8694765
-0.028928163 -0.035018303 0.86424828
-0.025795249 -0.034899455 0.86131513
-0.022683533 -0.034781419 0.85840195
-0.019592792 -0.034664169 0.85550833
-0.016522819 -0.034547713 0.85263419
-0.013473406 -0.034432039 0.84977931
-0.010444344 -0.034317128 0.84694338
-0.0074354322 -0.034202989 0.8441264
-0.0044464702 -0.034089603 0.84132808
-0.0014772596 -0.033976972 0.8385483
0.001476909 -0.033968907 0.83834928
0.0044379914 -0.0340246 0.83972377
0.0074087987 -0.034080472 0.84110272
0.010389379 -0.034136534 0.84248626
0.013379781 -0.034192774 0.84387428
0.016380053 -0.034249201 0.84526694
0.019390246 -0.034305818 0.84666425
0.022410404 -0.034362622 0.84806609
0.025440583 -0.034419611 0.84947264
0.028480828 -0.034476791 0.85088384
0.031531192 -0.034534164 0.85229975
0.034591723 -0.034591723 0.85372037
0.037662499 -0.034649499 0.85514623
0.040743604 -0.034707516 0.85657805
0.043834802 -0.034765534 0.85800993
0.046936743 -0.034824032 0.85945374
0.050048642 -0.034882389 0.86089391
0.053171519 -0.034941286 0.86234748
0.056304697 -0.035000216 0.8638019
0.059448462 -0.035059351 0.86526132
0.062602863 -0.03511868 0.86672556
0.065767959 -0.035178211 0.86819482
0.068943813 -0.035237949 0.86966908
0.072130449 -0.035297882 0.87114823
0.075327963 -0.035358023 0.87263256
0.078536391 -0.035418373 0.87412196
0.081755787 -0.035478927 0.87561643
0.084986053 -0.03553962 0.87711436
0.088227428 -0.035600539 0.87861782
0.09147992 -0.035661664 0.88012636
0.094743758 -0.035723057 0.88164151
0.098018825 -0.035784651 0.88316166
0.10130481 -0.035846319 0.88468361
0.10460263 -0.035908367 0.88621497
0.10791229 -0.035970762 0.88775486
0.11123293 -0.036033202 0.88929588
0.1145648 -0.036095757 0.89083976
0.11790864 -0.036158651 0.89239192
-0.043355282 -0.033720776 0.91148502
-0.039546434 -0.033219002 0.89792192
-0.035849299 -0.032731969 0.88475722
-0.032259017 -0.032259017 0.8719731
-0.028871851 -0.031910993 0.86256593
-0.025745211 -0.031802908 0.85964429
-0.022639677 -0.031695548 0.85674232
-0.019555038 -0.031588908 0.85385984
-0.016491087 -0.031482983 0.85099667
-0.013447617 -0.031377774 0.84815276
-0.01042442 -0.031273261 0.84532773
-0.0074212956 -0.031169441 0.84252149
-0.004438044 -0.031066306 0.83973372
-0.0014797914 -0.031075619 0.83998543
0.0014822222 -0.031126667 0.84136528
0.0044539832 -0.031177882 0.84274966
0.0074355393 -0.031229265 0.84413856
0.01042694 -0.031280819 0.84553212
0.013428234 -0.031332545 0.84693027
0.01643947 -0.031384442 0.848333
0.019460695 -0.031436507 0.84974039
0.022491964 -0.03148875 0.85115248
0.025533322 -0.031541165 0.85256928
0.028584827 -0.031593755 0.85399085
0.03164652 -0.03164652 0.85541713
0.034718461 -0.031699464 0.85684818
0.037800692 -0.031752583 0.858284
0.040893275 -0.03180588 0.85972464
0.043996256 -0.031859357 0.86117017
0.047109686 -0.031913016 0.86262053
0.050233722 -0.031966913 0.86407745
0.053368315 -0.03202099 0.86553913
0.05651328 -0.032075103 0.86700189
0.05966891 -0.032129414 0.86846989
0.062835783 -0.032184184 0.86995029
0.06601245 -0.032238636 0.87142223
0.069201149 -0.032293867 0.87291515
0.072400205 -0.032349028 0.8744061
0.075610153 -0.032404352 0.87590158
0.078831099 -0.032459866 0.87740213
0.082063109 -0.032515571 0.87890786
0.085305691 -0.032571264 0.88041323
0.0922952 -0.034003496 0.91912699
0.095222473 -0.033892743 0.91613334
0.098035477 -0.033749919 0.91227275
0.10067534 -0.033558447 0.90709716
0.10290302 -0.033245593 0.89864063
0.10500158 -0.032910943 0.88959491
0.10832305 -0.032967884 0.89113408
0.11165704 -0.033025321 0.89268661
0.11500276 -0.033082984 0.89424527
0.11836017 -0.033140846 0.89580929
-0.043485861 -0.030601162 0.91423023
-0.039663743 -0.030144444 0.90058547
-0.035954054 -0.029701177 0.88734257
-0.032351911 -0.029270776 0.87448406
-0.028852673 -0.028852673 0.86199296
-0.025695361 -0.028718345 0.85797983
-0.022595989 -0.028621586 0.85508907
-0.019517431 -0.028525477 0.85221773
-0.01645948 -0.028430009 0.84936559
-0.013421927 -0.028335178 0.84653246
-0.010404571 -0.028240979 0.84371817
-0.0074072117 -0.028147405 0.84092259
-0.0044480553 -0.028171016 0.84162802
-0.0014851255 -0.028217385 0.84301329
0.001487574 -0.028263904 0.84440309
0.0044700913 -0.028310576 0.84579748
0.0074624754 -0.028357405 0.84719652
0.010464774 -0.028404389 0.84860015
0.013477039 -0.028451527 0.85000843
0.016499318 -0.028498823 0.85142142
0.019531662 -0.028546276 0.85283911
0.022574123 -0.028593889 0.85426158
0.025626747 -0.028641658 0.85568875
0.028689586 -0.028689586 0.85712063
0.031762693 -0.028737675 0.85855734
0.034846123 -0.028785929 0.85999894
0.037939928 -0.028834345 0.86144537
0.041044153 -0.028882923 0.86289668
0.044158857 -0.028931664 0.86435288
0.047284089 -0.02898057 0.86581397
0.050419908 -0.029029643 0.86728007
0.053566363 -0.029078882 0.86875111
0.056723509 -0.029128289 0.87022716
0.059891403 -0.029177863 0.87170821
0.063070312 -0.029227704 0.87319726
0.066259965 -0.02927766 0.8746897
0.069460288 -0.029327676 0.87618399
0.072671458 -0.029377822 0.87768215
0.075894065 -0.029428313 0.87919056
0.079127975 -0.029479049 0.88070637
0.085943386 -0.030809894 0.92046624
0.089066945 -0.030768583 0.91923201
0.092117794 -0.030705933 0.91736031
0.09508279 -0.030619882 0.9147895
0.097949997 -0.030509016 0.91147727
0.10068318 -0.03036477 0.90716785
0.10319141 -0.03016364 0.90115899
0.10540095 -0.029889822 0.89297849
0.1087372 -0.029942127 0.89454114
0.11208476 -0.029994514 0.89610618
0.11544406 -0.030047083 0.89767677
0.11881515 -0.030099837 0.89925283
-0.039781768 -0.027051602 0.9032653
-0.036059447 -0.026652634 0.8899436
-0.032445341 -0.026265277 0.87700951
-0.028934805 -0.025889035 0.8644467
-0.025645707 -0.025645707 0.85632181
-0.022552468 -0.025559464 0.85344213
-0.019479966 -0.025473801 0.85058182
-0.01642799 -0.025388712 0.84774065
-0.013396335 -0.025304189 0.84491837
-0.010384799 -0.025220226 0.84211487
-0.0074279504 -0.02525503 0.84327698
-0.0044641201 -0.025296681 0.84466767
-0.0014904981 -0.025338467 0.84606296
0.0014929642 -0.025380392 0.84746283
0.0044863154 -0.025422456 0.84886736
0.0074896058 -0.02546466 0.85027659
0.010502884 -0.025507003 0.85169047
0.0135262 -0.025549488 0.85310906
0.016559605 -0.025592115 0.85453236
0.019603148 -0.025634885 0.85596049
0.02265688 -0.025677796 0.85739332
0.025720853 -0.025720853 0.85883099
0.028795119 -0.025764054 0.86027348
0.031879731 -0.025807401 0.86172086
0.034974735 -0.025850892 0.86317307
0.038080193 -0.025894532 0.86463022
0.041196153 -0.025938319 0.86609226
0.04432267 -0.025982255 0.86755931
0.047459796 -0.026026338 0.86903131
0.050607581 -0.026070572 0.87050825
0.053766087 -0.026114956 0.87199026
0.05693537 -0.026159493 0.8734774
0.060115475 -0.026204182 0.87496954
0.063306473 -0.026249025 0.87646687
0.066508397 -0.026294019 0.87796926
0.069721326 -0.02633917 0.87947685
0.072945312 -0.026384475 0.88098961
0.076180749 -0.026430055 0.88251162
0.082457103 -0.0274857 0.91776007
0.085684441 -0.027483689 0.9176929
0.088838078 -0.027459042 0.91686994
0.091916539 -0.027413705 0.9153561
0.094918914 -0.027349517 0.91321284
0.097830102 -0.027264126 0.91036159
0.10063033 -0.027154215 0.90669161
0.10327005 -0.02700909 0.90184581
0.10580521 -0.026846098 0.89640343
0.10915461 -0.026893165 0.89797503
0.11251578 -0.026940398 0.89955217
0.11588877 -0.026987797 0.90113479
-0.0399005 -0.023940301 0.90596122
-0.036165476 -0.02358618 0.89256042
-0.032539338 -0.023242384 0.87955028
-0.029017406 -0.022908479 0.86691445
-0.025596242 -0.022584919 0.85467017
-0.022509117 -0.022509117 0.85180163
-0.019442646 -0.022433823 0.84895229
-0.016396621 -0.022359028 0.84612191
-0.013374496 -0.022290826 0.84354097
-0.010419547 -0.0223276 0.84493256
-0.0074548312 -0.022364493 0.84632868
-0.0044803019 -0.022401508 0.84772944
-0.0014959098 -0.022438647 0.84913486
0.0014983939 -0.022475909 0.85054493
0.0045026587 -0.022513295 0.85195971
0.0075169345 -0.022550803 0.85337913
0.010541271 -0.022588439 0.85480338
0.013575721 -0.022626201 0.85623235
0.016620332 -0.022664089 0.85766613
0.019675158 -0.022702105 0.85910475
0.022740247 -0.022740247 0.86054814
0.025815653 -0.022778517 0.86199641
0.02890143 -0.022816917 0.86344957
0.031997629 -0.022855449 0.86490768
0.035104297 -0.022894107 0.86637062
0.038221501 -0.0229329 0.86783862
0.041349281 -0.022971822 0.86931157
0.044487696 -0.023010876 0.87078947
0.0476368 -0.023050064 0.87227243
0.050796654 -0.023089388 0.87376052
0.053967305 -0.023128845 0.87525368
0.057148807 -0.023168435 0.8767519
0.060341198 -0.023208153 0.87825489
0.063544564 -0.023248009 0.87976319
0.066758983 -0.023288019 0.8812772
0.069984496 -0.023328165 0.88279647
0.073221035 -0.023368416 0.88431966
0.076468624 -0.023408761 0.88584644
0.08214429 -0.024160087 0.91427845
0.085406259 -0.024171583 0.9147135
0.088587999 -0.024160363 0.91428894
0.091697082 -0.024130812 0.91317064
0.094729997 -0.024083897 0.91139525
0.097680688 -0.024019841 0.90897125
0.10053357 -0.023936564 0.90581983
0.10325847 -0.023828877 0.90174466
0.10621296 -0.02377902 0.89985794
0.10957523 -0.023820702 0.90143532
0.11295011 -0.023862699 0.90302455
0.11633693 -0.023904847 0.90461957
-0.036272135 -0.02050164 0.89519268
-0.032633897 -0.020201936 0.88210624
-0.0291005 -0.019910868 0.86939692
-0.02566749 -0.01962808 0.85704917
-0.022465931 -0.019470474 0.85016733
-0.019405469 -0.019405469 0.84732896
-0.016378706 -0.019356653 0.84519744
-0.01342291 -0.019388648 0.84659451
-0.010457327 -0.019420749 0.84799618
-0.0074819061 -0.019452956 0.84940243
-0.0044966005 -0.019485269 0.85081339
-0.0015013608 -0.01951769 0.85222906
0.0015038631 -0.019550221 0.8536495
0.0045191213 -0.019582858 0.85507458
0.007544464 -0.019615607 0.8565045
0.010579942 -0.019648464 0.85793918
0.013625606 -0.019681431 0.8593787
0.016681507 -0.01971451 0.86082304
0.019747699 -0.019747699 0.86227226
0.022824232 -0.019781001 0.86372632
0.025911154 -0.019814413 0.86518526
0.029008517 -0.019847933 0.86664891
0.032116398 -0.01988158 0.86811811
0.03523479 -0.019915314 0.86959112
0.038363706 -0.019949127 0.87106752
0.041503362 -0.0199831 0.8725509
0.044653844 -0.02001724 0.87404162
0.047815107 -0.020051496 0.8755374
0.05098718 -0.02008586 0.87703782
0.054170147 -0.020120341 0.87854344
0.057364054 -0.020154938 0.88005412
0.060568865 -0.020189622 0.88156855
0.063784719 -0.020224424 0.88308817
0.067011692 -0.020259347 0.8846131
0.070249826 -0.020294394 0.88614339
0.073499203 -0.020329569 0.88767922
0.078351118 -0.02078703 0.90765411
0.081799127 -0.020850757 0.91043669
0.085104682 -0.020874733 0.91148353
0.088319458 -0.020875508 0.91151738
0.091456875 -0.020858586 0.91077852
0.09452083 -0.020826623 0.90938288
0.097505458 -0.020779852 0.90734065
0.1004035 -0.020718182 0.90464783
0.10325828 -0.020651657 0.90174305
0.10662302 -0.020688048 0.90333205
0.10999937 -0.02072452 0.90492457
0.11338782 -0.020761151 0.90652406
0.11678855 -0.02079796 0.90813136
-0.036379416 -0.017398851 0.89784044
-0.032729004 -0.017143764 0.88467705
-0.029184086 -0.01689605 0.87189412
-0.02574015 -0.016655391 0.85947531
-0.02242291 -0.016443469 0.84853935
-0.019394742 -0.016410936 0.84686059
-0.016438114 -0.016438114 0.84826308
-0.013471676 -0.016465381 0.84967017
-0.01049538 -0.016492741 0.85108203
-0.007509178 -0.016520193 0.85249859
-0.0045130188 -0.016547736 0.85391992
-0.0015068505 -0.016575355 0.85534519
0.0015093716 -0.016603086 0.85677624
0.004535709 -0.016630933 0.85821319
0.0075722029 -0.016658846 0.85965365
0.010618905 -0.016686849 0.86109871
0.013675871 -0.016714953 0.86254895
0.01674315 -0.01674315 0.86400396
0.019820796 -0.016771443 0.86546403
0.022908863 -0.016799832 0.86692899
0.026007397 -0.016828315 0.86839885
0.029116459 -0.016856898 0.86987376
0.032236099 -0.016885577 0.87135369
0.035366375 -0.016914353 0.87283862
0.038507339 -0.016943229 0.87432873
0.041659042 -0.016972203 0.87582386
0.044821545 -0.017001275 0.87732416
0.047994897 -0.017030446 0.87882948
0.051179163 -0.017059721 0.88034016
0.054374401 -0.017089097 0.88185602
0.057580642 -0.017118569 0.8833769
0.060797974 -0.017148146 0.88490319
0.064026445 -0.017177828 0.88643479
0.067265823 -0.017207537 0.88796794
0.070516758 -0.01723743 0.88951051
0.073778763 -0.017267371 0.89105552
0.07779678 -0.017464584 0.90123242
0.08141277 -0.017559616 0.90613645
0.084776893 -0.017595204 0.90797287
0.088028386 -0.017605677 0.90851337
0.091197342 -0.017599488 0.90819395
0.094289817 -0.017579457 0.90716028
0.097308092 -0.017547362 0.90550405
0.10029128 -0.017511176 0.90363675
0.10365742 -0.017542027 0.90522873
0.10703608 -0.017573087 0.90683156
0.11042658 -0.017604237 0.90843904
0.11382916 -0.017635504 0.91005248
0.11724371 -0.01766686 0.91167057
-0.036487345 -0.014277657 0.90050405
-0.032824669 -0.014067716 0.88726294
-0.029268155 -0.013863862 0.87440574
-0.025813237 -0.013665831 0.86191571
-0.022455629 -0.013473378 0.84977752
-0.019465229 -0.013475928 0.84993833
-0.016497955 -0.013498327 0.85135108
-0.013520802 -0.013520802 0.85276866
-0.010533719 -0.013543353 0.85419095
-0.0075366544 -0.013565978 0.85561788
-0.00452956 -0.01358868 0.8570497
-0.0015123842 -0.013611457 0.85848629
0.0015149232 -0.013634309 0.85992759
0.0045524137 -0.01365724 0.8613739
0.007600138 -0.013680249 0.86282504
0.010658148 -0.013703333 0.864281
0.013726497 -0.013726497 0.86574197
0.016805237 -0.013749739 0.86720788
0.019894419 -0.013773059 0.86867869
0.022994099 -0.01379646 0.87015456
0.026104329 -0.013819939 0.87163544
0.029225167 -0.0138435 0.87312144
0.032356657 -0.013867139 0.87461239
0.035498865 -0.013890861 0.87610853
0.038651843 -0.013914663 0.87760979
0.041815639 -0.013938546 0.87911612
0.044990323 -0.013962515 0.88062781
0.048175938 -0.013986563 0.88214457
0.051372543 -0.014010694 0.88366652
0.054580204 -0.01403491 0.88519382
0.057798751 -0.014059156 0.88672304
0.061028723 -0.014083551 0.88826168
0.064269528 -0.014107945 0.88980025
0.067522079 -0.014132529 0.89135075
0.070785813 -0.014157162 0.8929044
0.074061058 -0.014181904 0.89446491
0.077347197 -0.014206627 0.89602423
0.080959797 -0.014287023 0.90109479
0.084415011 -0.014334625 0.90409708
0.087714136 -0.014353223 0.9052701
0.09091673 -0.014355274 0.90539944
0.094040565 -0.014345171 0.90476227
0.09731219 -0.014357536 0.90554214
0.10068043 -0.014382917 0.907143
0.10406055 -0.014408384 0.90874916
0.10745259 -0.01443393 0.91036034
0.11085711 -0.014459622 0.91198081
0.11427366 -0.014485394 0.91360623
-0.032920897 -0.010973632 0.88986397
-0.029352706 -0.010814155 0.87693179
-0.025886741 -0.010659246 0.86437005
-0.02251867 -0.010508712 0.85216314
-0.019536229 -0.010519507 0.85303849
-0.016558234 -0.010537058 0.85446167
-0.013570285 -0.010554667 0.85588956
-0.010572335 -0.010572335 0.85732228
-0.0075643295 -0.010590062 0.85875976
-0.0045462199 -0.010607847 0.86020201
-0.0015179561 -0.010625693 0.86164922
0.0015205143 -0.0106436 0.8631013
0.0045692427 -0.010661567 0.86455822
0.0076282821 -0.010679595 0.86602014
0.010697683 -0.010697683 0.86748695
0.013777501 -0.010715834 0.86895883
0.016867785 -0.010734045 0.87043554
0.019968592 -0.010752319 0.87191743
0.023079975 -0.010770655 0.87340432
0.026201988 -0.010789054 0.87489629
0.029334685 -0.010807515 0.87639338
0.03247812 -0.01082604 0.87789559
0.035632353 -0.010844629 0.879403
0.038797438 -0.010863283 0.88091558
0.041973427 -0.010882 0.88243335
0.045160372 -0.01090078 0.88395625
0.048358183 -0.01091959 0.8854816
0.051567286 -0.010938515 0.8870163
0.054787297 -0.010957459 0.88855249
0.05801833 -0.010976441 0.89009172
0.061261307 -0.010995619 0.89164692
0.064515226 -0.011014794 0.89320183
0.067780502 -0.011034035 0.8947621
0.071056999 -0.011053312 0.89632523
0.07434532 -0.011072707 0.89789808
0.077644959 -0.011092138 0.89947367
0.080956459 -0.011111671 0.90105766
0.084279165 -0.011131211 0.90264219
0.087613843 -0.011150853 0.90423501
0.090961106 -0.011170662 0.90584135
0.09431953 -0.011190453 0.90744621
0.097689748 -0.011210299 0.90905553
0.10107195 -0.011230216 0.91067064
0.10446617 -0.011250203 0.91229141
0.10787252 -0.011270263 0.91391808
0.11129103 -0.011290394 0.91555053
-0.033017691 -0.0078613544 0.89248031
-0.029437751 -0.0077467766 0.87947255
-0.025960663 -0.0076354896 0.8668384
-0.022586569 -0.0075288569 0.85473263
-0.019607749 -0.0075414418 0.85616142
-0.016618954 -0.0075540696 0.85759503
-0.013620133 -0.0075667403 0.85903347
-0.010611233 -0.0075794519 0.86047661
-0.0075922082 -0.0075922082 0.86192477
-0.0045630038 -0.0076050065 0.86337775
-0.0015235697 -0.0076178485 0.86483568
0.0015261467 -0.0076307333 0.86629844
0.0045861974 -0.0076436624 0.86776626
0.0076566353 -0.0076566353 0.86923903
0.010737511 -0.0076696514 0.87071669
0.013828883 -0.0076827127 0.87219954
0.016930802 -0.0076958188 0.87368745
0.020043319 -0.0077089691 0.87518036
0.023166494 -0.0077221645 0.87667841
0.026300382 -0.007735406 0.8781817
0.02944503 -0.0077486918 0.87968999
0.032600503 -0.0077620242 0.88120359
0.035766847 -0.0077754022 0.88272232
0.03894401 -0.007788802 0.88424361
0.042132348 -0.0078022862 0.88577443
0.045331638 -0.0078157997 0.8873086
0.048541863 -0.0078293327 0.88884497
0.051763523 -0.007842958 0.89039183
0.054996304 -0.0078566149 0.8919422
0.058240365 -0.0078703193 0.89349806
0.061495762 -0.0078840721 0.89505935
0.064762652 -0.0078978846 0.89662749
0.068040721 -0.0079117119 0.89819723
0.071330369 -0.0079255961 0.89977354
0.0746319 -0.0079395641 0.9013592
0.077944905 -0.0079535618 0.90294838
0.081269614 -0.007967609 0.9045431
0.08460585 -0.0079816841 0.90614104
0.087953836 -0.0079958029 0.90774393
0.091314867 -0.0080100764 0.90936428
0.094686888 -0.0080243126 0.91098052
0.098070897 -0.0080385981 0.91260237
0.101467 -0.0080529358 0.91423011
0.10487523 -0.0080673257 0.91586369
0.10829566 -0.0080817649 0.917503
-0.029523289 -0.0046615717 0.88202804
-0.026035013 -0.004594414 0.86932093
-0.022669422 -0.0045338846 0.85786796
-0.019679796 -0.0045414912 0.85930729
-0.016680121 -0.0045491243 0.86075151
-0.013670346 -0.0045567816 0.86220044
-0.010650421 -0.004564466 0.86365438
-0.0076202936 -0.0045721764 0.86511326
-0.0045799119 -0.0045799119 0.86657691
-0.0015292248 -0.0045876745 0.86804569
0.001531821 -0.0045954632 0.86951941
0.0046032779 -0.0046032779 0.87099808
0.0076851994 -0.0046111196 0.87248182
0.010777639 -0.0046189884 0.87397069
0.013880651 -0.0046268837 0.87546456
0.01699429 -0.0046348064 0.87696368
0.020118609 -0.0046427562 0.87846786
0.023253664 -0.004650733 0.87997717
0.026399512 -0.0046587372 0.88149172
0.029556127 -0.0046667568 0.88300914
0.032723729 -0.0046748184 0.88453442
0.035902191 -0.0046828948 0.88606256
0.039091803 -0.0046910164 0.88759935
0.042292438 -0.0046991599 0.88914013
0.045504197 -0.0047073308 0.89068621
0.048727151 -0.0047155307 0.89223772
0.051961347 -0.0047237589 0.8937946
0.055206854 -0.004732016 0.89535695
0.05846373 -0.0047403025 0.89692485
0.061731935 -0.0047486103 0.89849681
0.065011583 -0.0047569452 0.90007389
0.068303116 -0.0047653336 0.90166104
0.071606062 -0.0047737379 0.90325123
0.074920692 -0.0047821715 0.90484703
0.078247041 -0.0047906353 0.90644842
0.081585191 -0.004799129 0.90805554
0.084935077 -0.0048076459 0.90966707
0.088296756 -0.0048161866 0.91128308
0.091671266 -0.0048248032 0.9129135
0.095057108 -0.0048334124 0.91454238
0.098455049 -0.0048420518 0.91617709
0.10186515 -0.0048507215 0.91781753
0.10528749 -0.0048594228 0.91946393
-0.029609324 -0.0015583856 0.88459843
-0.026109787 -0.0015358698 0.87181765
-0.022752885 -0.0015168589 0.86102641
-0.019752372 -0.0015194132 0.86247629
-0.01674174 -0.0015219763 0.86393118
-0.013720931 -0.0015245479 0.86539096
-0.010689897 -0.0015271283 0.86685562
-0.0076485868 -0.0015297174 0.86832529
-0.0045969458 -0.0015323153 0.86979997
-0.0015349219 -0.0015349219 0.8712796
0.0015375376 -0.0015375376 0.87276435
0.0046204864 -0.0015401621 0.87425417
0.0077139782 -0.0015427957 0.87574905
0.010818068 -0.0015454382 0.87724906
0.013932809 -0.0015480899 0.87875426
0.017058255 -0.0015507506 0.88026452
0.020194421 -0.0015534171 0.88177812
0.023341404 -0.0015560936 0.88329744
0.026499262 -0.0015587801 0.88482243
0.029668139 -0.001561481 0.88635558
0.032847945 -0.0015641878 0.88789201
0.036038786 -0.0015669038 0.88943374
0.039240737 -0.0015696294 0.8909809
0.04245384 -0.0015723645 0.89253342
0.045678165 -0.0015751091 0.89409137
0.048913762 -0.0015778632 0.89565474
0.052160695 -0.0015806271 0.89722359
0.05541883 -0.0015833952 0.89879483
0.058688752 -0.0015861825 0.90037704
0.061970081 -0.0015889765 0.901963
0.065262973 -0.0015917798 0.90355426
0.068567492 -0.0015945928 0.90515107
0.071883723 -0.001597416 0.9067536
0.075211711 -0.0016002491 0.90836179
0.078551531 -0.0016030924 0.90997577
0.081903242 -0.001605946 0.91159552
0.085266881 -0.001608809 0.9132207
0.088642545 -0.0016116827 0.9148519
0.092030458 -0.0016145695 0.91649055
0.095430233 -0.0016174616 0.91813225
0.098842211 -0.0016203641 0.91977984
0.10226645 -0.0016232769 0.92143321
-0.026184991 0.0015402937 0.87432879
-0.022836965 0.0015224642 0.86420816
-0.019825488 0.0015250376 0.86566889
-0.016803814 0.0015276194 0.86713445
-0.013771893 0.0015302104 0.86860514
-0.01072967 0.0015328099 0.87008077
-0.0076770908 0.0015354182 0.87156129
-0.0046141064 0.0015380355 0.87304699
-0.001540662 0.001540662 0.87453789
0.0015432971 0.0015432971 0.87603366
0.0046378239 0.0015459413 0.87753463
0.007742974 0.0015485948 0.87904084
0.010858779 0.0015512541 0.88055038
0.013985334 0.0015539259 0.88206702
0.017122669 0.0015566063 0.88358843
0.020270849 0.001559296 0.88511527
0.023429928 0.0015619951 0.8866474
0.026599962 0.0015647036 0.88818485
0.029781008 0.0015674215 0.88972759
0.032973126 0.0015701489 0.89127576
0.036176376 0.0015728858 0.89282936
0.039390802 0.001575632 0.8943882
0.042616479 0.001578388 0.89595264
0.045853462 0.0015811538 0.89752257
0.049101721 0.0015839265 0.89909643
0.052361652 0.0015867167 0.9006803
0.055632807 0.0015895088 0.90226519
0.058915615 0.0015923139 0.90385747
0.062210031 0.001595129 0.90545541
0.065516114 0.0015979541 0.90705901
0.068833932 0.0016007891 0.90866834
0.072163545 0.0016036342 0.91028333
0.075505018 0.0016064898 0.91190422
0.078858405 0.0016093552 0.91353077
0.082223773 0.0016122309 0.9151631
0.085601501 0.0016151228 0.91680461
0.088990904 0.0016180164 0.9184472
0.092392489 0.0016209208 0.92009586
0.095806301 0.0016238356 0.92175037
-0.026260631 0.004634229 0.87685442
-0.022921667 0.0045843334 0.86741352
-0.019899147 0.0045921109 0.8688851
-0.016866352 0.0045999144 0.87036169
-0.013823234 0.0046077445 0.87184322
-0.010769738 0.0046156021 0.87332994
-0.00770581 0.0046234862 0.87482172
-0.0046313964 0.0046313964 0.87631845
-0.0015464448 0.0046393345 0.87782043
0.0015490976 0.0046472931 0.87932628
0.004655276 0.004655276 0.88083678
0.0077721742 0.0046633044 0.88235587
0.010899819 0.0046713511 0.88387841
0.014038278 0.0046794261 0.88540626
0.017187605 0.0046875286 0.88693941
0.020347858 0.0046956595 0.88847786
0.023519091 0.0047038184 0.89002156
0.026701365 0.0047120056 0.89157075
0.029894739 0.0047202217 0.89312536
0.033099264 0.0047284663 0.89468533
0.036315005 0.0047367401 0.89625078
0.039542023 0.0047450429 0.89782178
0.042780396 0.0047533773 0.89939874
0.046030171 0.0047617415 0.90098143
0.049291283 0.0047701243 0.90256751
0.052563999 0.0047785453 0.90416092
0.055848289 0.0047869962 0.90575993
0.059144221 0.0047954773 0.90736467
0.062451847 0.0048039882 0.90897501
0.065771237 0.0048125293 0.91059113
0.069102459 0.0048211017 0.91221309
0.072445564 0.0048297043 0.91384077
0.075800613 0.0048383372 0.91547424
0.079167679 0.0048470008 0.91711354
0.08254683 0.0048556961 0.91875875
0.085938126 0.0048644221 0.92040986
0.089341715 0.0048731845 0.92206782
0.092757367 0.0048819669 0.92372954
-0.026336711 0.0077460916 0.87939477
-0.023007 0.007669 0.87064278
-0.019973354 0.007682059 0.87212533
-0.016929358 0.0076951631 0.873613
-0.013874961 0.007708312 0.87510574
-0.010810106 0.0077215042 0.87660342
-0.0077347364 0.0077347364 0.87810564
-0.0046488112 0.007748019 0.87961358
-0.0015522696 0.0077613476 0.88112676
0.0015549443 0.0077747214 0.88264507
0.0046728845 0.0077881408 0.88416851
0.0078016082 0.0078016082 0.88569742
0.010941169 0.0078151207 0.88723153
0.014091627 0.0078286817 0.888771
0.017253036 0.0078422893 0.89031583
0.020425454 0.0078559434 0.89186603
0.02360894 0.007869646 0.89342165
0.026803549 0.0078833969 0.8949827
0.03000934 0.0078971945 0.89654917
0.033226378 0.0079110423 0.89812124
0.036454715 0.0079249376 0.89969873
0.039694376 0.0079388758 0.90128106
0.042945512 0.0079528727 0.90287012
