# .PCD v0.7 - Point Cloud Data file format
VERSION 0.7
FIELDS x y z
SIZE 4 4 4
TYPE F F F
COUNT 1 1 1
WIDTH 546
HEIGHT 1
VIEWPOINT 0 0 0 1 0 0 0
POINTS 546
DATA ascii
0.27371791 -0.14270763 1.3279711
0.22122243 -0.12922895 1.2433089
0.22603413 -0.12947586 1.2456845
0.2633417 -0.13997442 1.3466909
0.26591468 -0.13884041 1.3357806
0.26844308 -0.13772297 1.3250297
0.27093413 -0.1366249 1.3144653
0.27338579 -0.13554421 1.304068
0.27579913 -0.13448057 1.2938347
0.21378197 -0.12562446 1.2510383
0.21633545 -0.12455677 1.2404057
0.22041787 -0.12439425 1.2387872
0.22564256 -0.12487016 1.2435266
0.25536507 -0.13603561 1.3547183
0.25801778 -0.13492672 1.3436755
0.26062587 -0.13383491 1.3328025
0.26319155 -0.13276033 1.3221014
0.26572049 -0.13170494 1.3115911
0.26820931 -0.13066608 1.3012456
0.27065557 -0.12964174 1.2910447
0.27452818 -0.12932318 1.2878723
0.28017575 -0.12983754 1.2929945
0.20624869 -0.12197503 1.258866
0.20888217 -0.12093178 1.248099
0.21147124 -0.11990637 1.237516
0.21486349 -0.11936861 1.2319659
0.22003816 -0.11982276 1.2366531
0.22525238 -0.12028039 1.2413762
0.23050654 -0.12074152 1.2461354
0.25282466 -0.1299566 1.3412412
0.25697544 -0.12966651 1.3382473
0.25796643 -0.12782121 1.3192025
0.26053405 -0.1268086 1.3087518
0.26305085 -0.12580693 1.2984139
0.26553416 -0.12482376 1.2882668
0.26844525 -0.12407133 1.2805012
0.27403629 -0.12456195 1.2855648
0.27967179 -0.12505649 1.2906687
0.28535214 -0.12555493 1.2958131
0.19585922 -0.11931654 1.2778976
0.1986208 -0.1182798 1.266794
0.20133585 -0.11726154 1.2558882
0.20400532 -0.11626109 1.2451733
0.20662962 -0.11527757 1.2346396
0.20947947 -0.11445785 1.2258604
0.21449536 -0.11483085 1.2298552
0.21965973 -0.11526699 1.2345263
0.22486348 -0.11570645 1.239233
0.23010708 -0.11614929 1.2439759
0.23539095 -0.11659551 1.248755
0.25767112 -0.12528962 1.3418702
0.25535884 -0.1219281 1.3058677
0.25791672 -0.12096979 1.2956041
0.26043472 -0.12002643 1.2855006
0.26291373 -0.11909767 1.2755535
0.26796705 -0.11934666 1.2782202
0.27354619 -0.11981775 1.2832656
0.27916956 -0.12029257 1.2883511
0.28483769 -0.12077118 1.2934771
0.1880489 -0.11554812 1.2860681
0.19089627 -0.11453777 1.2748227
0.19369476 -0.1135452 1.2637753
0.19644646 -0.11257044 1.2529261
0.19915129 -0.11161226 1.2422614
0.20181045 -0.11067025 1.2317766
0.2052394 -0.11018115 1.2263329
0.20963418 -0.11022004 1.2267658
0.21412815 -0.11030845 1.2277497
0.21928252 -0.11072682 1.2324063
0.22447596 -0.1111483 1.2370974
0.229709 -0.11157294 1.2418238
0.23498218 -0.11200085 1.2465864
0.25021204 -0.11707168 1.3030256
0.25280476 -0.11615354 1.2928065
0.25535715 -0.11524968 1.2827464
0.25787008 -0.11435977 1.2728416
0.26196671 -0.11419062 1.2709589
0.26749051 -0.11463879 1.2759471
0.27305782 -0.11509048 1.2809745
0.27866918 -0.11554576 1.2860419
0.28432512 -0.11600465 1.2911494
0.29002619 -0.11646721 1.2962977
0.18013804 -0.11173118 1.2943436
0.18307319 -0.11074798 1.2829537
0.18595713 -0.10978192 1.2717625
0.18879284 -0.10883352 1.2607758
0.19158004 -0.1079014 1.2499777
0.19431986 -0.10698508 1.2393627
0.19701347 -0.10608418 1.2289262
0.20099603 -0.10590113 1.2268057
0.20539102 -0.10593852 1.2272389
0.20978911 -0.10597594 1.2276723
0.21419032 -0.10601339 1.2281061
0.21890619 -0.10620201 1.2302912
0.2240894 -0.10660563 1.234967
0.22931215 -0.10701234 1.2396784
0.23457482 -0.10742211 1.2444254
0.23987776 -0.10783496 1.249208
0.25030124 -0.11049334 1.2800039
0.25284785 -0.10964198 1.2701414
0.25603414 -0.10909281 1.2637795
0.26150346 -0.10951855 1.2687114
0.26701564 -0.10994762 1.273682
0.27257118 -0.11038007 1.2786916
0.27817059 -0.11081593 1.2837409
0.28381443 -0.11125526 1.2888303
0.28950316 -0.11169807 1.29396
0.29523733 -0.11214442 1.2991307
0.17212473 -0.10786483 1.3027265
0.17514968 -0.10690954 1.2911892
0.17812154 -0.10597105 1.2798545
0.18104276 -0.1050495 1.2687247
0.18391415 -0.10414416 1.2577906
0.18673643 -0.10325427 1.2470429
0.18951085 -0.10237943 1.2364771
0.19235732 -0.10158195 1.2268457
0.1967494 -0.10161782 1.2272789
0.20114458 -0.10165371 1.2277124
0.20554289 -0.10168964 1.2281463
0.20994428 -0.10172558 1.2285804
0.21434879 -0.10176154 1.2290148
0.21875642 -0.10179754 1.2294495
0.22370407 -0.10207856 1.2328434
0.22891632 -0.1024673 1.2375385
0.23416846 -0.10285904 1.2422696
0.23946089 -0.10325378 1.2470371
0.24479401 -0.10365152 1.2518407
0.25038737 -0.10414342 1.2577816
0.25558397 -0.10445606 1.2615575
0.26104188 -0.10486298 1.266472
0.26654249 -0.10527308 1.271425
0.27208632 -0.10568642 1.276417
0.27767381 -0.106103 1.2814482
0.28330553 -0.10652288 1.2865193
0.288982 -0.1069461 1.2916306
0.29470375 -0.10737269 1.2967827
0.16400693 -0.10394806 1.3112186
0.16712379 -0.10302152 1.2995311
0.17018558 -0.10211135 1.2880501
0.17319433 -0.10121746 1.2767745
0.17615184 -0.10033965 1.2657017
0.17905845 -0.099476919 1.2548189
0.18191548 -0.098628871 1.2441216
0.1847242 -0.097795166 1.233605
0.18810721 -0.097296834 1.227319
0.19249949 -0.097331204 1.2277526
0.19689487 -0.097365595 1.2281864
0.20129336 -0.097400017 1.2286205
0.20569496 -0.097434454 1.2290549
0.21009967 -0.09746892 1.2294897
0.21450751 -0.097503409 1.2299248
0.21891846 -0.097537927 1.2303602
0.22333254 -0.097572468 1.2307959
0.22852184 -0.097937934 1.2354059
0.2337634 -0.098311707 1.2401208
0.23904505 -0.098688327 1.2448715
0.24436738 -0.099067852 1.2496589
0.24973074 -0.09945029 1.2544831
0.25513527 -0.099835537 1.2593427
0.26058182 -0.10022377 1.2642399
0.26607087 -0.10061504 1.2691754
0.27160299 -0.10100938 1.2741497
0.27717862 -0.10140681 1.279163
0.28279832 -0.1018074 1.284216
0.28846258 -0.10221115 1.289309
0.29417193 -0.10261811 1.2944425
0.29992694 -0.10302833 1.2996172
0.15899353 -0.099082917 1.3079815
0.16214731 -0.098201893 1.2963512
0.16524564 -0.097336471 1.2849269
0.16829127 -0.096486993 1.273713
0.17128409 -0.095652156 1.2626925
0.17422558 -0.094831645 1.251861
0.17711705 -0.094025098 1.2412138
0.17995973 -0.093232147 1.2307462
0.18385383 -0.093008406 1.2277926
0.18824629 -0.093041271 1.2282264
0.19264187 -0.093074158 1.2286606
0.19704056 -0.093107074 1.2290951
0.20144235 -0.093140006 1.2295299
0.20584726 -0.093172967 1.229965
0.2102553 -0.093205959 1.2304004
0.21466646 -0.093238965 1.2308362
0.21908073 -0.093272001 1.2312722
0.22349812 -0.093305036 1.2317084
0.22812872 -0.093424141 1.2332807
0.23335972 -0.093780078 1.2379793
0.2386307 -0.094138719 1.2427137
0.24394217 -0.094500124 1.2474846
0.24929458 -0.094864309 1.2522922
0.25468799 -0.095231161 1.2571349
0.26012322 -0.095600836 1.262015
0.2656008 -0.095973395 1.2669331
0.27112123 -0.096348874 1.2718897
0.27668506 -0.096727304 1.2768853
0.28229275 -0.097108707 1.2819202
0.28794485 -0.097493142 1.2869951
0.2936419 -0.097880632 1.2921102
0.1540048 -0.094241738 1.3047602
0.15719517 -0.09340582 1.293187
0.16033053 -0.092585243 1.2818263
0.16341159 -0.091779113 1.2706655
0.16643944 -0.090986893 1.2596974
0.16941546 -0.090208232 1.248917
0.17234099 -0.089442797 1.2383196
0.17534506 -0.088754907 1.228796
0.17959717 -0.088716671 1.2282666
0.18398982 -0.08874803 1.2287008
0.18838559 -0.088779412 1.2291353
0.19278447 -0.088810824 1.2295702
0.19718647 -0.08884225 1.2300053
0.20159157 -0.088873699 1.2304406
0.20599981 -0.088905178 1.2308764
0.21041116 -0.088936672 1.2313125
0.21482563 -0.088968188 1.2317488
0.21924323 -0.088999726 1.2321855
0.22366396 -0.089031287 1.2326224
0.22808786 -0.089062877 1.2330598
0.23295744 -0.089264065 1.2358452
0.23821777 -0.089604847 1.2405633
0.24351843 -0.089948252 1.2453176
0.24885988 -0.090294294 1.2501085
0.25424227 -0.090642899 1.2549349
0.2596662 -0.090994142 1.2597978
0.2651324 -0.091348134 1.2646987
0.27064124 -0.091704883 1.2696378
0.27619326 -0.092064425 1.2746156
0.28178903 -0.092426799 1.2796327
0.287429 -0.092792042 1.2846894
0.15226775 -0.088633463 1.2900436
0.155439 -0.087856829 1.2787398
0.15855543 -0.08709383 1.2676345
0.16161847 -0.086344115 1.2567226
0.16462924 -0.085607208 1.245997
0.16788736 -0.085033856 1.2376519
0.17185725 -0.084840924 1.2348439
0.17580917 -0.084648862 1.2320484
0.17974323 -0.084457666 1.2292656
0.18412603 -0.084481359 1.2296104
0.18852508 -0.084511243 1.2300454
0.19292727 -0.084541164 1.2304809
0.19733259 -0.084571108 1.2309167
0.20174101 -0.084601067 1.2313528
0.20615257 -0.084631056 1.2317892
0.21056724 -0.084661052 1.2322259
0.21498503 -0.08469107 1.2326628
0.21940598 -0.084721126 1.2331002
0.22383006 -0.084751189 1.2335378
0.22825727 -0.084781274 1.2339756
0.23268765 -0.084811389 1.234414
0.23780626 -0.085086644 1.2384202
0.24309616 -0.08541216 1.2431581
0.24842669 -0.085740186 1.2479324
0.25379813 -0.086070664 1.2527425
0.25921085 -0.086403616 1.2575885
0.2646656 -0.086739145 1.2624722
0.27016288 -0.087077297 1.2673938
0.27570319 -0.087418087 1.272354
0.28128707 -0.087761566 1.2773533
0.28691497 -0.08810775 1.2823919
0.14816904 -0.084342375 1.2939436
0.15057275 -0.083152115 1.2756832
0.15372421 -0.082431823 1.2646328
0.15682155 -0.081723906 1.2537723
0.1603214 -0.081258789 1.2466366
0.16433732 -0.081073076 1.2437875
0.16833495 -0.080888219 1.2409515
0.17231438 -0.080704205 1.2381284
0.17627575 -0.080521017 1.2353181
0.18021916 -0.080338664 1.2325205
0.18426245 -0.080208361 1.2305214
0.18866482 -0.080236763 1.2309572
0.19307031 -0.080265187 1.2313932
0.19747892 -0.080293626 1.2318295
0.20189068 -0.080322094 1.2322663
0.20630555 -0.080350585 1.2327033
0.21072355 -0.080379084 1.2331406
0.21514468 -0.080407612 1.2335782
0.21956897 -0.080436155 1.2340162
0.22399642 -0.080464728 1.2344545
0.22842698 -0.080493316 1.2348931
0.23286071 -0.080521926 1.235332
0.23739617 -0.080584019 1.2362846
0.24267536 -0.080891788 1.2410063
0.247995 -0.081201904 1.2457639
0.2533555 -0.081514381 1.2505578
0.25875705 -0.081829153 1.2553869
0.26420048 -0.082146361 1.2602534
0.26968625 -0.082466044 1.2651578
0.27521488 -0.082788222 1.2701005
0.2807869 -0.083112925 1.275082
0.15152806 -0.079156443 1.2837768
0.15264477 -0.077428512 1.2557527
0.15670767 -0.077250265 1.2528619
0.16075191 -0.077072836 1.2499843
0.16477764 -0.076896228 1.24712
0.16878493 -0.076720424 1.2442688
0.17277394 -0.076545417 1.2414305
0.17674479 -0.076371208 1.2386051
0.18069762 -0.076197796 1.2357926
0.18463254 -0.076025166 1.2329929
0.18880478 -0.075955942 1.2318703
0.19321358 -0.075982869 1.232307
0.1976255 -0.07600981 1.2327439
0.20204055 -0.076036766 1.2331811
0.20645873 -0.076063745 1.2336186
0.2108801 -0.076090753 1.2340567
0.21530457 -0.076117776 1.2344949
0.21973221 -0.076144822 1.2349336
0.224163 -0.07617189 1.2353725
0.22859691 -0.076198965 1.2358117
0.233034 -0.076226078 1.2362514
0.23747422 -0.076253191 1.2366911
0.242256 -0.076387025 1.2388617
0.24756482 -0.076679371 1.243603
0.2529144 -0.076973952 1.2483805
0.25830486 -0.077270687 1.253193
0.26373696 -0.077569693 1.2580425
0.26921129 -0.07787104 1.2629297
0.2747283 -0.078174725 1.2678549
0.15483472 -0.074051388 1.2737685
0.15713061 -0.073032543 1.2562432
0.16118474 -0.072864339 1.2533499
0.16522029 -0.072696924 1.2504703
0.1692373 -0.072530277 1.2476037
0.17323597 -0.07236439 1.2447503
0.17721635 -0.072199255 1.2419097
0.18117863 -0.072034873 1.2390822
0.18512289 -0.071871243 1.2362676
0.18904932 -0.071708359 1.2334658
0.19335705 -0.071694188 1.233222
0.19777231 -0.071719632 1.2336596
0.20219071 -0.07174509 1.2340976
0.20661223 -0.071770564 1.2345358
0.21103689 -0.071796052 1.2349743
0.2154647 -0.071821563 1.2354131
0.21989569 -0.071847104 1.2358524
0.2243298 -0.071872659 1.2362919
0.22876711 -0.071898237 1.2367319
0.23320755 -0.071923822 1.237172
0.23765117 -0.071949437 1.2376126
0.24209794 -0.071975067 1.2380534
0.24713613 -0.072172493 1.2414495
0.25247476 -0.072449282 1.2462105
0.25785422 -0.072728112 1.2510067
0.26327509 -0.073009059 1.2558393
0.268738 -0.073292181 1.2607093
0.27424344 -0.073577508 1.2656173
0.15809022 -0.069025308 1.2639152
0.16162002 -0.068633161 1.2567346
0.16566534 -0.068475008 1.2538387
0.16969213 -0.068317607 1.2509565
0.17370045 -0.068160936 1.2480878
0.17769043 -0.068004981 1.245232
0.1816622 -0.06784974 1.2423894
0.18561588 -0.067695208 1.2395598
0.18955159 -0.067541376 1.236743
0.19350076 -0.067399144 1.2341386
0.19791935 -0.067423075 1.2345768
0.20234108 -0.067447029 1.2350154
0.20676593 -0.06747099 1.2354542
0.21119395 -0.067494974 1.2358934
0.21562512 -0.067518979 1.2363329
0.22005942 -0.067542993 1.2367727
0.2244969 -0.067567028 1.2372128
0.22893755 -0.067591086 1.2376533
0.23338138 -0.067615166 1.2380942
0.23782837 -0.067639261 1.2385354
0.24227852 -0.067663372 1.2389768
0.24673186 -0.067687504 1.2394187
0.25203666 -0.067940317 1.244048
0.25740516 -0.068201371 1.2488281
0.26281485 -0.068464369 1.2536439
0.26826635 -0.068729401 1.2584968
0.16221772 -0.066257946 1.2969141
0.16205774 -0.064379103 1.2601383
0.16611293 -0.06423033 1.2572262
0.17014942 -0.06408225 1.2543277
0.17416745 -0.063934885 1.2514433
0.17816706 -0.063788205 1.2485722
0.18214837 -0.063642204 1.2457143
0.18611149 -0.063496865 1.2428695
0.19005655 -0.063352183 1.2400376
0.19398366 -0.063208155 1.2372185
0.19806659 -0.063120127 1.2354953
0.20249166 -0.06314256 1.2359345
0.20691988 -0.063165016 1.236374
0.21135126 -0.063187487 1.2368139
0.21578577 -0.063209973 1.237254
0.22022346 -0.063232474 1.2376945
0.22466429 -0.06325499 1.2381352
0.22910829 -0.063277528 1.2385763
0.23355547 -0.063300081 1.2390177
0.23800582 -0.063322648 1.2394595
0.24245936 -0.063345239 1.2399017
0.24691609 -0.063367844 1.2403442
0.25160006 -0.063446969 1.2418929
0.25695768 -0.063690364 1.246657
0.26235616 -0.063935533 1.2514559
0.1654759 -0.06120342 1.2867174
0.166563 -0.059962682 1.2606326
0.17060935 -0.059824061 1.2577183
0.17463705 -0.05968608 1.2548175
0.17864627 -0.059548754 1.2519304
0.18263714 -0.059412085 1.2490571
0.18660975 -0.059276037 1.2461969
0.1905642 -0.059140615 1.2433498
0.19450065 -0.059005816 1.2405158
0.19841917 -0.058871623 1.2376946
0.20264247 -0.058831688 1.236855
0.20707406 -0.058852628 1.2372953
0.21150877 -0.058873571 1.2377356
0.21594666 -0.058894541 1.2381765
0.22038771 -0.058915526 1.2386177
0.22483192 -0.058936525 1.2390591
0.22927931 -0.058957539 1.2395009
0.23372984 -0.058978558 1.2399428
0.23818359 -0.058999605 1.2403853
0.24264051 -0.059020665 1.240828
0.24710059 -0.059041735 1.241271
0.25156391 -0.059062831 1.2417145
0.25651172 -0.059195008 1.2444934
0.26189908 -0.059422482 1.2492757
0.1686811 -0.056227032 1.2766634
0.17107181 -0.055542797 1.2611275
0.17510933 -0.055414341 1.2582109
0.17912821 -0.055286486 1.2553078
0.18312857 -0.055159207 1.2524179
0.18711068 -0.055032551 1.2495421
0.19107459 -0.054906491 1.2466799
0.19502039 -0.054781009 1.2438307
0.19894817 -0.054656092 1.2409945
0.20285808 -0.054531742 1.238171
0.20722845 -0.054533806 1.2382178
0.21166654 -0.054553229 1.2386589
0.2161078 -0.054572679 1.2391005
0.22055222 -0.054592136 1.2395422
0.2249998 -0.054611605 1.2399843
0.22945057 -0.054631088 1.2404267
0.23390451 -0.054650586 1.2408694
0.23836161 -0.054670095 1.2413124
0.24282195 -0.054689627 1.2417558
0.24728541 -0.054709163 1.2421994
0.25175211 -0.05472872 1.2426435
0.25622198 -0.054748289 1.2430878
0.17183657 -0.051327806 1.2667652
0.17558414 -0.051119432 1.2616225
0.1796128 -0.051001165 1.2587037
0.18362285 -0.050883442 1.2557983
0.18761444 -0.050766259 1.2529063
0.19158772 -0.050649624 1.2500278
0.1955429 -0.050533559 1.2471633
0.19948 -0.050418023 1.2443118
0.20339912 -0.050303008 1.2414733
0.2073831 -0.050208539 1.2391418
0.21182454 -0.050226435 1.2395835
0.21626917 -0.05024435 1.2400256
0.22071695 -0.050262276 1.240468
0.22516795 -0.050280221 1.2409109
0.2296221 -0.050298173 1.241354
0.23407942 -0.050316136 1.2417973
0.23853993 -0.050334115 1.242241
0.24300364 -0.050352104 1.242685
0.24747054 -0.050370112 1.2431294
0.25194064 -0.050388128 1.243574
0.1763297 -0.048089921 1.2998883
0.17606156 -0.046801172 1.2650529
0.18010002 -0.046692599 1.2621181
0.18411979 -0.046584524 1.2591969
0.18812101 -0.046476956 1.2562892
0.19210379 -0.04636988 1.253395
0.19606826 -0.046263296 1.2505139
0.20001467 -0.04615723 1.2476469
0.20394306 -0.046051659 1.2447933
0.20785353 -0.045946568 1.2419527
0.21198277 -0.045893177 1.2405095
0.2164308 -0.045909561 1.2409524
0.22088195 -0.045925949 1.2413954
0.22533631 -0.045942355 1.2418388
0.22979388 -0.045958776 1.2422826
0.23425458 -0.045975197 1.2427266
0.23871851 -0.045991641 1.243171
0.24318562 -0.046008091 1.2436156
0.24765593 -0.046024553 1.2440606
0.17948525 -0.043167338 1.2896532
0.18058991 -0.042360596 1.2655512
0.18461944 -0.042262282 1.262614
0.18863033 -0.042164426 1.2596905
0.19262271 -0.042067025 1.2567806
0.19659665 -0.041970074 1.2538841
0.20055233 -0.041873563 1.2510008
0.2044899 -0.041777506 1.248131
0.20840959 -0.041681919 1.2452753
0.21231137 -0.041586764 1.2424325
0.21659265 -0.041568287 1.2418804
0.22104721 -0.041583136 1.2423241
0.22550495 -0.041598 1.2427682
0.22996588 -0.041612871 1.2432125
0.23443002 -0.041627761 1.2436572
0.23889735 -0.041642658 1.2441024
0.18259054 -0.038321473 1.2795714
0.18512183 -0.037916519 1.2660499
0.18914244 -0.037828486 1.2631104
0.19314443 -0.037740864 1.2601846
0.19712791 -0.037653644 1.2572724
0.20109303 -0.037566829 1.2543736
0.20503989 -0.03748041 1.251488
0.20896865 -0.03739439 1.2486157
0.21287957 -0.03730879 1.2457575
0.21677263 -0.037223585 1.2429124
0.2212127 -0.037233818 1.2432542
0.22567385 -0.03724714 1.243699
0.23013818 -0.037260469 1.244144
0.23460571 -0.037273806 1.2445893
0.18564509 -0.033550318 1.2696284
0.18965733 -0.033468939 1.2665489
0.19366898 -0.033391204 1.2636071
0.19766204 -0.033313826 1.260679
0.20163664 -0.033236809 1.2577645
0.20559295 -0.033160154 1.2548636
0.20953099 -0.033083841 1.2519758
0.21345097 -0.033007883 1.2491013
0.21735302 -0.032932274 1.2462401
0.22137842 -0.032877982 1.2441856
0.22584298 -0.032889754 1.2446311
0.23031072 -0.032901533 1.2450768
0.19050659 -0.029838381 1.3028762
0.19017501 -0.02908559 1.2700061
0.1941964 -0.029017853 1.2670484
0.19819909 -0.02895043 1.2641044
0.20218323 -0.028883317 1.261174
0.20614894 -0.028816517 1.2582572
0.21009634 -0.028750025 1.2553538
0.21402557 -0.028683839 1.2524638
0.21793674 -0.028617956 1.2495871
0.22183 -0.028552376 1.2467235
0.19355743 -0.025048608 1.2925941
0.19472669 -0.024620617 1.2705083
0.19873905 -0.024563255 1.2675482
0.20273276 -0.024506157 1.2646018
0.20670795 -0.024449328 1.2616692
0.21066472 -0.024392758 1.25875
0.21460325 -0.024336452 1.2558444
0.19656049 -0.020333843 1.282473
0.19928198 -0.020152109 1.2710109
0.20328529 -0.020105138 1.2680484
