# .PCD v0.7 - Point Cloud Data file format
VERSION 0.7
FIELDS x y z
SIZE 4 4 4
TYPE F F F
COUNT 1 1 1
WIDTH 1101
HEIGHT 1
VIEWPOINT 0 0 0 1 0 0 0
POINTS 1101
DATA ascii
-0.42883715 -0.076636292 0.92556709
-0.42770016 -0.073180631 0.92311311
-0.42402786 -0.073108256 0.92220008
-0.42036289 -0.073036022 0.92128897
-0.41670516 -0.072963938 0.92037964
-0.41305462 -0.072891988 0.9194721
-0.43023774 -0.069812164 0.9215818
-0.42656916 -0.069743246 0.92067206
-0.42290774 -0.069674455 0.91976398
-0.41925353 -0.069605798 0.91885763
-0.41560653 -0.069537282 0.91795313
-0.41196665 -0.069468886 0.91705024
-0.40833396 -0.069400631 0.91614926
-0.40470839 -0.06933251 0.91525
-0.40108994 -0.069264524 0.91435254
-0.39747852 -0.069196664 0.91345674
-0.43276682 -0.066454835 0.92005539
-0.429102 -0.066389367 0.91914904
-0.42544419 -0.066323996 0.918244
-0.42179352 -0.066258751 0.9173407
-0.41815001 -0.066193633 0.91643912
-0.41451362 -0.066128634 0.91553921
-0.41088444 -0.066063769 0.9146412
-0.40726233 -0.065999031 0.91374493
-0.4036473 -0.06593442 0.91285038
-0.40003932 -0.065869927 0.9119575
-0.39643845 -0.065805577 0.91106653
-0.39284459 -0.065741338 0.91017717
-0.39005703 -0.065812096 0.91115677
-0.43528759 -0.063108616 0.9185341
-0.43162632 -0.063046545 0.91763067
-0.42797223 -0.062984593 0.91672903
-0.42432511 -0.062922738 0.9158287
-0.42068514 -0.062860996 0.91493011
-0.4170523 -0.062799379 0.91403329
-0.41342652 -0.062737875 0.91313809
-0.40980789 -0.062676504 0.9122448
-0.4061963 -0.062615238 0.91135317
-0.40259179 -0.062554106 0.91046333
-0.39899427 -0.062493078 0.9095751
-0.39540383 -0.062432181 0.90868878
-0.39229187 -0.06244646 0.90889663
-0.38976204 -0.062554404 0.91046768
-0.3872236 -0.062662743 0.91204453
-0.38467637 -0.062771462 0.91362691
-0.43414229 -0.059714738 0.91611725
-0.43049181 -0.059656169 0.91521871
-0.42684838 -0.059597701 0.91432172
-0.4232119 -0.059539318 0.91342604
-0.41958258 -0.059481055 0.91253221
-0.41596025 -0.059422895 0.91163993
-0.41234508 -0.059364859 0.91074955
-0.40873697 -0.059306934 0.90986091
-0.40513584 -0.059249114 0.90897387
-0.40154174 -0.059191413 0.90808862
-0.39795467 -0.059133824 0.90720516
-0.39451578 -0.059097506 0.90664798
-0.39199591 -0.059199382 0.90821087
-0.38946751 -0.059301637 0.90977967
-0.38693047 -0.059404261 0.91135406
-0.38438463 -0.059507247 0.91293401
-0.38182998 -0.059610587 0.91451943
-0.37926641 -0.059714288 0.91611034
-0.43664998 -0.05639391 0.9146089
-0.43300301 -0.056338683 0.91371322
-0.42936319 -0.056283563 0.91281927
-0.42573038 -0.056228541 0.91192693
-0.42210454 -0.056173608 0.91103601
-0.4184857 -0.056118771 0.91014665
-0.41487399 -0.056064054 0.9092592
-0.41126931 -0.056009438 0.90837348
-0.4076716 -0.055954926 0.90748936
-0.4040809 -0.055900518 0.90660697
-0.4004972 -0.055846222 0.90572637
-0.39692044 -0.05579203 0.9048475
-0.39421883 -0.05586097 0.90596557
-0.39170039 -0.055957198 0.9075262
-0.38917336 -0.056053776 0.90909255
-0.38663778 -0.056150712 0.91066468
-0.38409334 -0.056247979 0.91224217
-0.38154015 -0.056345593 0.91382527
-0.37897801 -0.056443535 0.91541374
-0.37640697 -0.056541819 0.91700774
-0.43914941 -0.053083997 0.91310543
-0.43550602 -0.053032096 0.91221273
-0.43186972 -0.0529803 0.91132176
-0.42824051 -0.0529286 0.91043246
-0.42461824 -0.05287699 0.90954471
-0.42100289 -0.052825458 0.90865827
-0.41739464 -0.052774034 0.90777373
-0.41379339 -0.052722707 0.90689087
-0.41019914 -0.052671481 0.90600973
-0.40661177 -0.052620348 0.90513015
-0.40303144 -0.052569319 0.90425241
-0.39945805 -0.05251839 0.90337634
-0.39643079 -0.052539021 0.90373123
-0.39392236 -0.052629303 0.90528423
-0.39140531 -0.052719902 0.90684259
-0.38887969 -0.052810822 0.90840656
-0.38634548 -0.052902076 0.90997624
-0.38380253 -0.052993655 0.91155148
-0.38125071 -0.053085539 0.91313201
-0.37869006 -0.053177755 0.91471821
-0.37612051 -0.053270284 0.91630983
-0.37354195 -0.053363133 0.91790694
-0.37095442 -0.053456318 0.91950977
-0.4380008 -0.049736355 0.91071713
-0.43436798 -0.049687851 0.90982902
-0.43074232 -0.049639452 0.90894276
-0.42712367 -0.049591139 0.90805811
-0.42351186 -0.049542896 0.90717477
-0.41990703 -0.049494747 0.90629309
-0.41630921 -0.049446687 0.90541309
-0.41271836 -0.049398724 0.90453482
-0.40913442 -0.049350843 0.90365809
-0.40555745 -0.049303062 0.90278322
-0.40198743 -0.049255375 0.90191001
-0.3986319 -0.049233422 0.90150803
-0.39613342 -0.049317814 0.90305334
-0.39362633 -0.049402494 0.9046039
-0.39111066 -0.049487472 0.90615988
-0.38858652 -0.049572766 0.9077217
-0.38605371 -0.049658358 0.909289
-0.38351217 -0.049744256 0.91086185
-0.38096178 -0.049830444 0.91244
-0.37840253 -0.04991693 0.91402364
-0.37583444 -0.050003726 0.91561294
-0.37325734 -0.050090812 0.9172076
-0.3706713 -0.050178215 0.91880798
-0.36807618 -0.050265912 0.92041379
-0.36547196 -0.050353914 0.92202526
-0.44048741 -0.046451401 0.90922648
-0.43685815 -0.046406176 0.90834129
-0.43323594 -0.04636104 0.90745783
-0.4296208 -0.046315998 0.90657616
-0.42601264 -0.046271037 0.90569609
-0.42241126 -0.04622614 0.90481728
-0.41881686 -0.046181329 0.90394014
-0.41522944 -0.046136603 0.90306473
-0.41164893 -0.046091966 0.90219098
-0.40807527 -0.046047404 0.90131879
-0.40450862 -0.046002939 0.90044844
-0.40094882 -0.04595856 0.89957976
-0.39833358 -0.046022605 0.90083337
-0.39583647 -0.04610144 0.90237641
-0.39333078 -0.046180539 0.9039247
-0.39081645 -0.046259906 0.90547824
-0.38829368 -0.046339575 0.90703768
-0.38576233 -0.046419531 0.90860271
-0.38322216 -0.046499759 0.91017306
-0.38067326 -0.046580274 0.91174901
-0.37811548 -0.046661057 0.91333026
-0.37554881 -0.046742126 0.91491705
-0.37297317 -0.046823472 0.91650933
-0.3703886 -0.046905104 0.91810715
-0.36779502 -0.046987027 0.9197107
-0.36519229 -0.047069229 0.92131966
-0.36258051 -0.047151726 0.92293441
-0.35995951 -0.047234505 0.92455477
-0.44296587 -0.04317718 0.90774059
-0.4393402 -0.043135218 0.90685844
-0.43572149 -0.043093331 0.90597785
-0.43210974 -0.043051526 0.90509892
-0.42850509 -0.043009803 0.90422177
-0.42490736 -0.042968158 0.90334624
-0.42131636 -0.042926572 0.90247196
-0.41773236 -0.042885069 0.90159941
-0.41415524 -0.042843647 0.90072852
-0.41058496 -0.042802293 0.89985913
-0.40702164 -0.042761028 0.89899158
-0.40346518 -0.042719841 0.89812571
-0.40052298 -0.04274356 0.89862436
-0.39803573 -0.042816594 0.90015978
-0.39553997 -0.042889874 0.90170044
-0.39303565 -0.042963412 0.9032464
-0.39052275 -0.043037198 0.90479773
-0.38800138 -0.043111265 0.90635484
-0.3854714 -0.043185592 0.9079175
-0.38293266 -0.043260176 0.90948546
-0.38038513 -0.043335017 0.9110589
-0.37782881 -0.043410119 0.91263783
-0.37526357 -0.043485478 0.91422218
-0.37268946 -0.043561105 0.91581213
-0.37010634 -0.043636993 0.91740751
-0.36751419 -0.043713141 0.91900849
-0.36491302 -0.043789562 0.92061514
-0.36230272 -0.043866247 0.92222732
-0.36020648 -0.04400713 0.92518914
-0.3585622 -0.044206299 0.92937642
-0.4454363 -0.039913647 0.90625972
-0.44181409 -0.039874919 0.90538031
-0.43819886 -0.039836258 0.90450257
-0.43459067 -0.039797682 0.90362662
-0.43098944 -0.039759174 0.90275228
-0.42739516 -0.03972074 0.90187967
-0.4238078 -0.039682377 0.90100861
-0.42022717 -0.039644074 0.90013885
-0.41665342 -0.039605841 0.89927077
-0.41308653 -0.039567675 0.89840424
-0.40952653 -0.039529588 0.89753944
-0.4059734 -0.039491575 0.89667636
-0.40270165 -0.039480552 0.89642608
-0.40022424 -0.039547849 0.89795405
-0.39773834 -0.03961537 0.8994872
-0.39524388 -0.039683122 0.90102547
-0.39274094 -0.039751105 0.90256912
-0.3902294 -0.039819326 0.90411812
-0.38770947 -0.039887805 0.90567297
-0.38518089 -0.039956525 0.90723324
-0.38264358 -0.04002548 0.90879893
-0.38009748 -0.04009467 0.91036993
-0.37754261 -0.040164109 0.91194654
-0.37497881 -0.04023378 0.91352844
-0.37240613 -0.040303692 0.91511589
-0.3698245 -0.040373854 0.91670895
-0.36723387 -0.040444259 0.91830748
-0.36463419 -0.040514909 0.91991168
-0.36220938 -0.040606432 0.92198974
-0.36058021 -0.040789615 0.92614901
-0.35893589 -0.040974416 0.930345
-0.44427997 -0.036625229 0.90390706
-0.44066823 -0.036589779 0.90303218
-0.43706346 -0.0365544 0.90215898
-0.43346569 -0.036519088 0.9012875
-0.42987493 -0.03648385 0.9004178
-0.42629099 -0.036448672 0.89954966
-0.42271391 -0.036413558 0.89868301
-0.41914356 -0.036378495 0.89781773
-0.41558 -0.0363435 0.896954
-0.41202337 -0.036308572 0.896092
-0.40847358 -0.036273714 0.89523172
-0.40493056 -0.036238924 0.89437306
-0.40240195 -0.036295079 0.89575899
-0.39992586 -0.036356896 0.89728463
-0.39744133 -0.036418926 0.89881551
-0.3949483 -0.036481168 0.90035164
-0.39244667 -0.036543615 0.90189284
-0.38993651 -0.036606286 0.90343952
-0.38741803 -0.036669195 0.90499216
-0.38489082 -0.03673232 0.90655005
-0.38235492 -0.036795661 0.9081133
-0.37981027 -0.036859225 0.90968204
-0.37725678 -0.036923006 0.91125613
-0.3746945 -0.03698701 0.91283578
-0.37212327 -0.037051234 0.91442084
-0.36954314 -0.037115686 0.91601145
-0.36695397 -0.037180357 0.91760755
-0.36435574 -0.037245251 0.91920918
-0.36258402 -0.037396558 0.92294335
-0.36095467 -0.037565418 0.92711085
-0.35931036 -0.03773579 0.9313156
-0.35765105 -0.037907716 0.93555868
-0.4467378 -0.033386096 0.90243852
-0.44312957 -0.033353839 0.90156657
-0.43952832 -0.033321641 0.90069622
-0.43593398 -0.033289503 0.89982754
-0.43234655 -0.033257429 0.89896053
-0.42876613 -0.033225417 0.89809531
-0.42519251 -0.033193465 0.89723164
-0.42162561 -0.033161566 0.89636934
-0.41806552 -0.033129718 0.89550853
-0.41451219 -0.03309793 0.89464927
-0.41096568 -0.033066206 0.89379168
-0.40742597 -0.033034537 0.89293575
-0.40456915 -0.033058178 0.89357477
-0.40210274 -0.033114344 0.8950929
-0.39962798 -0.0331707 0.89661628
-0.39714476 -0.03322725 0.89814484
-0.39465311 -0.033283997 0.89967871
-0.39215288 -0.033340931 0.9012177
-0.38964412 -0.033398066 0.90276206
-0.38712698 -0.033455417 0.90431225
-0.38460121 -0.033512969 0.90586787
-0.3820667 -0.033570714 0.9074288
-0.37952349 -0.033628661 0.90899515
-0.37697142 -0.033686809 0.91056687
-0.37441057 -0.033745158 0.91214406
-0.3718408 -0.033803709 0.91372675
-0.36926213 -0.033862464 0.91531491
-0.36667445 -0.033921424 0.91690862
-0.36457378 -0.034026887 0.91975927
-0.36295944 -0.034180038 0.92389899
-0.36133 -0.034334525 0.92807484
-0.3596856 -0.034490399 0.93228823
-0.35802627 -0.034647703 0.93654019
-0.35635173 -0.034806449 0.94083112
-0.44918767 -0.030157477 0.90097481
-0.4455829 -0.030128382 0.9001056
-0.44198513 -0.030099345 0.89923811
-0.43839425 -0.030070364 0.89837229
-0.43481028 -0.030041438 0.89750808
-0.4312332 -0.030012567 0.89664555
-0.42766297 -0.029983751 0.89578468
-0.42409965 -0.029954994 0.89492553
-0.42054296 -0.029926278 0.89406759
-0.41699293 -0.029897608 0.89321107
-0.41344979 -0.029868996 0.89235628
-0.40991339 -0.029840438 0.8915031
-0.40672573 -0.029837022 0.89140105
-0.40426904 -0.029887594 0.89291191
-0.401804 -0.029938336 0.8944279
-0.3993305 -0.029989248 0.89594889
-0.39684865 -0.030040337 0.89747518
-0.39435834 -0.0300916 0.89900672
-0.3918595 -0.030143039 0.90054351
-0.38935214 -0.030194657 0.9020856
-0.38683638 -0.030246466 0.90363348
-0.38431203 -0.030298458 0.90518677
-0.38177893 -0.030350627 0.90674531
-0.37923712 -0.030402975 0.90830928
-0.37668651 -0.030455505 0.90987867
-0.37412709 -0.030508218 0.91145349
-0.37155882 -0.030561114 0.91303378
-0.36898157 -0.030614192 0.91461951
-0.36654988 -0.030680386 0.91659713
-0.36494994 -0.030817997 0.9207083
-0.36333555 -0.03095684 0.92485636
-0.36170602 -0.031096898 0.92904067
-0.36006168 -0.031238228 0.933263
-0.35840228 -0.031380843 0.93752378
-0.35672769 -0.031524774 0.94182372
-0.35503769 -0.03167003 0.94616336
-0.44802839 -0.026913365 0.89864951
-0.44443402 -0.026887467 0.89778477
-0.44084656 -0.026861619 0.89692169
-0.43726602 -0.026835822 0.89606029
-0.4336924 -0.026810074 0.89520061
-0.43012556 -0.026784375 0.89434248
-0.42656556 -0.026758725 0.89348602
-0.42301241 -0.026733126 0.89263123
-0.41946575 -0.026707558 0.89177752
-0.41592592 -0.02668204 0.89092547
-0.41239282 -0.02665657 0.89007503
-0.40887192 -0.026631504 0.88923806
-0.40642476 -0.026676528 0.89074141
-0.40396938 -0.02672171 0.89225006
-0.40150565 -0.026767043 0.89376378
-0.39903355 -0.026812531 0.89528263
-0.39655298 -0.02685817 0.89680654
-0.39406404 -0.02690397 0.89833581
-0.39156657 -0.026949925 0.89987028
-0.38906056 -0.026996039 0.90141004
-0.38654625 -0.027042329 0.90295571
-0.38402325 -0.027088776 0.90450656
-0.3814916 -0.027135387 0.9060629
-0.37895119 -0.027182154 0.90762448
-0.37640205 -0.027229086 0.90919155
-0.37384406 -0.027276175 0.91076392
-0.37127721 -0.02732343 0.91234177
-0.36870146 -0.027370851 0.91392517
-0.36692679 -0.027479097 0.9175396
-0.36532685 -0.027602473 0.92165917
-0.36371237 -0.027726954 0.92581558
-0.36208284 -0.027852526 0.93000853
-0.3604385 -0.027979244 0.93423969
-0.3587791 -0.02810712 0.93850952
-0.35710445 -0.028236168 0.94281846
-0.35541439 -0.028366406 0.94716722
-0.35370862 -0.028497852 0.95155627
-0.45046586 -0.023708729 0.89719796
-0.44687498 -0.023685953 0.89633602
-0.44329101 -0.023663221 0.8954758
-0.4397139 -0.023640532 0.8946172
-0.43614361 -0.023617886 0.8937602
-0.4325802 -0.023595283 0.89290488
-0.42902359 -0.023572724 0.89205122
-0.42547375 -0.023550209 0.89119911
-0.42193064 -0.023527732 0.89034855
-0.41839412 -0.023505289 0.88949925
-0.41486436 -0.023482887 0.88865155
-0.41134128 -0.02346053 0.88780546
-0.40857008 -0.023481039 0.88858157
-0.40612429 -0.023520712 0.8900829
-0.40367016 -0.023560515 0.89158916
-0.40120775 -0.023600455 0.89310062
-0.39873698 -0.023640532 0.8946172
-0.39625779 -0.023680745 0.89613897
-0.39377016 -0.023721093 0.89766586
-0.39127403 -0.02376158 0.899198
-0.38876948 -0.023802213 0.90073562
-0.38625655 -0.023842996 0.90227896
-0.38373491 -0.023883916 0.90382749
-0.38120466 -0.023924978 0.90538138
-0.37866572 -0.023966184 0.9069407
-0.37611797 -0.024007529 0.90850532
-0.37356147 -0.024049021 0.91007549
-0.37099606 -0.024090653 0.91165096
-0.36889005 -0.024163105 0.91439265
-0.36730441 -0.024271216 0.91848391
-0.3657046 -0.024380306 0.92261213
-0.36409003 -0.02449036 0.92677683
-0.36246046 -0.024601389 0.93097848
-0.36081612 -0.024713432 0.93521845
-0.3591567 -0.024826501 0.93949723
-0.35748205 -0.024940608 0.94381535
-0.3557919 -0.025055768 0.94817328
-0.3540861 -0.025171997 0.95257169
-0.35236436 -0.025289308 0.95701104
-0.45289552 -0.02051443 0.89575118
-0.4493081 -0.020494755 0.89489204
-0.44572756 -0.020475117 0.89403456
-0.44215387 -0.020455519 0.89317876
-0.43858701 -0.020435954 0.89232451
-0.43502697 -0.020416427 0.89147192
-0.43147367 -0.020396937 0.89062089
-0.42792726 -0.020377489 0.88977164
-0.42438754 -0.020358074 0.88892394
-0.42085448 -0.020338692 0.88807762
-0.417328 -0.020319341 0.88723266
-0.41380817 -0.020300023 0.8863892
-0.41070497 -0.020301007 0.88643211
-0.40826869 -0.020335222 0.8879261
-0.40582418 -0.020369554 0.88942516
-0.40337142 -0.020404002 0.89092934
-0.40091029 -0.020438563 0.89243847
-0.39844087 -0.020473246 0.89395285
-0.39596304 -0.020508045 0.89547235
-0.39347675 -0.020542964 0.89699703
-0.390982 -0.020577999 0.89852685
-0.38847882 -0.020613162 0.9000622
-0.38596725 -0.020648453 0.90160322
-0.38344708 -0.020683866 0.90314949
-0.3809182 -0.0207194 0.90470105
-0.37838069 -0.020755058 0.90625805
-0.37583438 -0.020790838 0.90782028
-0.37327924 -0.02082674 0.90938795
-0.37083989 -0.020869777 0.91126716
-0.36926848 -0.020962838 0.91533065
-0.36768287 -0.021056728 0.91943032
-0.36608312 -0.021151468 0.92356706
-0.36446843 -0.021247039 0.92774004
-0.36283892 -0.021343466 0.93195051
-0.36119452 -0.02144077 0.93619925
-0.3595351 -0.021538969 0.94048703
-0.35786042 -0.021638071 0.94481432
-0.35617024 -0.02173809 0.94918156
-0.35446432 -0.021839034 0.9535892
-0.35274252 -0.021940922 0.95803815
-0.45531735 -0.017330419 0.89430904
-0.45173341 -0.017313823 0.8934527
-0.4481563 -0.01729726 0.89259797
-0.44458601 -0.017280728 0.89174485
-0.44102252 -0.017264226 0.89089334
-0.43746591 -0.017247759 0.89004356
-0.433916 -0.017231321 0.88919532
-0.43037286 -0.017214915 0.88834864
-0.42683646 -0.017198538 0.88750362
-0.42330685 -0.017182197 0.88666034
-0.41978374 -0.017165877 0.88581818
-0.41626722 -0.017149586 0.88497746
-0.41282958 -0.017136322 0.88429302
-0.41040277 -0.017165136 0.88577986
-0.40796778 -0.017194044 0.88727164
-0.40552455 -0.017223051 0.88876849
-0.40307307 -0.017252155 0.89027035
-0.40061331 -0.017281359 0.8917774
-0.39814514 -0.017310658 0.89328939
-0.39566869 -0.017340062 0.89480668
-0.39318377 -0.017369565 0.8963291
-0.39069039 -0.017399168 0.89785671
-0.38818863 -0.017428877 0.89938986
-0.38567841 -0.017458694 0.9009285
-0.38315958 -0.017488612 0.90247238
-0.38063216 -0.017518636 0.90402168
-0.37809601 -0.01754876 0.90557623
-0.37555116 -0.017578991 0.90713626
-0.37299746 -0.017609322 0.90870148
-0.37121901 -0.017677095 0.91219878
-0.36964759 -0.017755998 0.91627043
-0.36806214 -0.01783561 0.92037868
-0.36646238 -0.017915938 0.92452389
-0.36484757 -0.017996965 0.92870516
-0.3632181 -0.01807873 0.93292445
-0.36157373 -0.018161237 0.93718219
-0.35991427 -0.018244503 0.94147891
-0.35823956 -0.018328536 0.94581532
-0.35654935 -0.018413346 0.95019186
-0.35484344 -0.018498946 0.9546091
-0.45415089 -0.014143107 0.8920179
-0.4505772 -0.014129599 0.89116591
-0.44701034 -0.014116116 0.89031559
-0.44345027 -0.014102659 0.88946682
-0.43989697 -0.014089227 0.88861966
-0.43635046 -0.014075821 0.88777417
-0.43281069 -0.014062442 0.88693029
-0.42927763 -0.014049087 0.88608795
-0.42575127 -0.014035757 0.88524723
-0.42223158 -0.014022451 0.88440806
-0.41871843 -0.014009167 0.88357019
-0.41521186 -0.013995905 0.88273376
-0.41252652 -0.014010334 0.88364387
-0.410101 -0.014033874 0.8851285
-0.40766731 -0.014057494 0.8866182
-0.40522534 -0.014081189 0.88811272
-0.4027752 -0.014104968 0.88961244
-0.40031672 -0.014128826 0.89111716
-0.39784998 -0.014152766 0.89262712
-0.39537477 -0.014176785 0.89414203
-0.39289123 -0.014200888 0.89566219
-0.39039919 -0.014225071 0.89718747
-0.38789877 -0.014249342 0.8987183
-0.38539001 -0.014273704 0.90025479
-0.38287258 -0.014298146 0.90179634
-0.38034654 -0.014322673 0.90334332
-0.37781182 -0.014347284 0.90489554
-0.37526837 -0.01437198 0.90645313
-0.37315625 -0.01441376 0.90908825
-0.37159884 -0.014477877 0.91313213
-0.37002754 -0.014542568 0.91721225
-0.36844215 -0.014607838 0.9213289
-0.36684236 -0.014673694 0.92548251
-0.36522755 -0.014740125 0.92967236
-0.36359808 -0.014807162 0.93390042
-0.36195374 -0.014874811 0.93816715
-0.36029428 -0.014943082 0.94247299
-0.35861954 -0.015011981 0.94681853
-0.35692924 -0.015081518 0.9512043
-0.45656061 -0.010982558 0.89058775
-0.45299038 -0.010972085 0.88973856
-0.44942692 -0.010961632 0.88889086
-0.44587025 -0.010951199 0.88804483
-0.44232038 -0.010940786 0.88720047
-0.43877718 -0.010930392 0.88635761
-0.43524072 -0.010920018 0.88551635
-0.43171099 -0.010909664 0.88467669
-0.42818797 -0.01089933 0.88383871
-0.42467156 -0.010889014 0.88300222
-0.42116186 -0.010878719 0.8821674
-0.41765854 -0.010868438 0.88133365
-0.4146401 -0.010870715 0.88151824
-0.41222391 -0.010888933 0.88299567
-0.40979967 -0.010907215 0.88447815
-0.40736723 -0.010925558 0.88596559
-0.40492663 -0.010943962 0.88745803
-0.40247771 -0.010962429 0.88895541
-0.40002063 -0.010980958 0.89045805
-0.39755517 -0.01099955 0.89196569
-0.39508137 -0.011018205 0.89347845
-0.39259911 -0.011036922 0.89499623
-0.39010841 -0.011055704 0.89651924
-0.38760942 -0.011074555 0.89804792
-0.38510203 -0.011093474 0.89958209
-0.382586 -0.011112456 0.90112138
-0.38006133 -0.011131504 0.90266591
-0.37752807 -0.011150618 0.90421593
-0.37508032 -0.011172605 0.90599889
-0.3735368 -0.011222135 0.91001534
-0.37197948 -0.011272105 0.91406751
-0.37040827 -0.011322523 0.91815591
-0.36882293 -0.011373395 0.92228115
-0.36722305 -0.011424717 0.92644298
-0.36560833 -0.011476494 0.93064165
-0.36397886 -0.011528742 0.93487847
-0.36233455 -0.011581469 0.93915415
-0.3606751 -0.01163468 0.94346911
-0.35900033 -0.011688382 0.94782388
-0.35731 -0.011742582 0.95221895
-0.4605 -0.0079123713 0.8982721
-0.4551501 -0.0078745689 0.8939805
-0.44985035 -0.0078371139 0.88972837
-0.44473591 -0.0078023844 0.88578558
-0.44119608 -0.0077949837 0.88494539
-0.43766305 -0.0077875988 0.88410699
-0.43413663 -0.0077802264 0.88327003
-0.43061686 -0.0077728676 0.88243461
-0.42710382 -0.0077655241 0.88160092
-0.42359737 -0.0077581932 0.88076866
-0.4200975 -0.0077508767 0.87993801
-0.41674355 -0.0077461624 0.87940282
-0.41433668 -0.0077591143 0.8808732
-0.41192174 -0.0077721085 0.88234842
-0.40949875 -0.0077851475 0.8838287
-0.4070676 -0.0077982298 0.88531393
-0.40462831 -0.0078113573 0.88680422
-0.40218079 -0.007824529 0.88829958
-0.3997249 -0.0078377435 0.88979977
-0.39726079 -0.0078510037 0.89130521
-0.3947883 -0.0078643085 0.89281571
-0.39230743 -0.0078776591 0.89433134
-0.38981807 -0.0078910543 0.89585203
-0.38732049 -0.0079044998 0.8973785
-0.38481444 -0.0079179928 0.89891028
-0.38229984 -0.0079315323 0.90044737
-0.3797766 -0.0079451166 0.90198964
-0.37724465 -0.0079587484 0.90353715
-0.37546152 -0.0079885432 0.90691972
-0.37391809 -0.0080239931 0.91094428
-0.37236094 -0.0080597606 0.91500485
-0.3707898 -0.0080958474 0.91910166
-0.36920452 -0.0081322575 0.9232353
-0.36760455 -0.0081689898 0.92740542
-0.36598986 -0.0082060508 0.93161285
-0.36436048 -0.00824345 0.93585867
-0.36271614 -0.0082811899 0.94014323
-0.36105669 -0.0083192782 0.94446731
-0.35938191 -0.0083577186 0.94883132
-0.47115275 -0.0048240898 0.91277844
-0.46566659 -0.0048006866 0.90835029
-0.460233 -0.0047775055 0.9039641
-0.45485073 -0.0047545373 0.89961827
-0.44951913 -0.0047317804 0.89531237
-0.44423833 -0.00470924 0.89104748
-0.43900764 -0.0046869144 0.88682312
-0.4338263 -0.0046647987 0.88263863
-0.4295283 -0.0046519311 0.88020384
-0.42602509 -0.0046475464 0.87937427
-0.42252854 -0.0046431706 0.8785463
-0.41903841 -0.0046388018 0.87771964
-0.41643929 -0.0046443045 0.87876081
-0.41403371 -0.0046520643 0.88022906
-0.41162008 -0.0046598502 0.88170224
-0.40919828 -0.0046676612 0.8831802
-0.40676844 -0.0046754992 0.88466328
-0.40433046 -0.0046833642 0.88615143
-0.4018842 -0.0046912553 0.88764453
-0.39942971 -0.0046991729 0.88914263
-0.39696684 -0.0047071166 0.89064568
-0.3944957 -0.0047150883 0.89215398
-0.3920162 -0.0047230865 0.8936674
-0.38952821 -0.0047311117 0.89518589
-0.38703197 -0.0047391672 0.89671004
-0.3845273 -0.0047472506 0.89823955
-0.38201407 -0.0047553615 0.89977425
-0.37949225 -0.0047635012 0.90131432
-0.37737319 -0.004776876 0.90384501
-0.37584347 -0.0047980016 0.90784228
-0.37430021 -0.0048193159 0.91187519
-0.37274313 -0.0048408196 0.91594398
-0.3711721 -0.0048625167 0.92004931
-0.36958691 -0.0048844083 0.92419153
-0.36798686 -0.0049064914 0.92836988
-0.36637223 -0.0049287747 0.93258613
-0.36474285 -0.0049512605 0.93684077
-0.36309856 -0.0049739527 0.94113445
-0.36143908 -0.0049968539 0.94546759
-0.47652513 -0.0016263656 0.92318648
-0.47095034 -0.001618386 0.918657
-0.46543002 -0.0016104844 0.91417176
-0.45996082 -0.0016026509 0.90972513
-0.45454752 -0.0015949036 0.9053275
-0.4491837 -0.0015872216 0.90096688
-0.44387135 -0.0015796134 0.89664817
-0.43860969 -0.0015720777 0.89237064
-0.43339792 -0.0015646134 0.88813365
-0.42823547 -0.0015572199 0.88393676
-0.4231216 -0.001549896 0.87977946
-0.41853184 -0.0015443979 0.87665856
-0.41613549 -0.0015469721 0.87811971
-0.41373116 -0.001549555 0.87958586
-0.41131878 -0.0015521464 0.88105685
-0.40889835 -0.0015547465 0.88253284
-0.40646973 -0.0015573553 0.88401365
-0.40403301 -0.001559973 0.88549954
-0.40158805 -0.0015625994 0.88699043
-0.39913487 -0.0015652347 0.88848633
-0.39667338 -0.001567879 0.88998729
-0.39420351 -0.001570532 0.8914932
-0.39172533 -0.0015731942 0.89300436
-0.38923874 -0.0015758653 0.89452064
-0.38674387 -0.0015785465 0.89604253
-0.3842406 -0.0015812371 0.89756984
-0.38172877 -0.0015839367 0.89910227
-0.37927195 -0.001586912 0.90079111
-0.37775582 -0.0015939064 0.90476143
-0.37622625 -0.0016009627 0.90876687
-0.37468308 -0.0016080819 0.91280794
-0.37312609 -0.0016152645 0.91688508
-0.37155515 -0.0016225115 0.92099881
-0.36997002 -0.0016298239 0.92514956
-0.36837 -0.0016372 0.92933649
-0.36675537 -0.0016446429 0.93356138
-0.36512607 -0.0016521541 0.93782502
-0.36348176 -0.0016597341 0.9421277
-0.36182234 -0.0016673841 0.94647014
-0.48202145 0.0016451244 0.93383467
-0.4763554 0.0016369602 0.92920035
-0.47074533 0.0016288765 0.92461181
-0.46519041 0.0016208724 0.92006838
-0.45968971 0.0016129463 0.91556919
-0.45424044 0.00160509 0.91110963
-0.44884408 0.0015973098 0.90669334
-0.44349974 0.0015896048 0.90231967
-0.43820667 0.0015819736 0.8979879
-0.43296424 0.0015744155 0.89369762
-0.42777169 0.0015669293 0.88944817
-0.42262924 0.0015595175 0.88524097
-0.41753584 0.0015521778 0.88107473
-0.41342905 0.0015484234 0.87894356
-0.41101798 0.0015510112 0.88041252
-0.40859881 0.0015536076 0.8818863
-0.40617147 0.0015562125 0.88336498
-0.403736 0.0015588262 0.88484859
-0.40129235 0.0015614488 0.88633728
-0.39884046 0.0015640802 0.88783097
-0.39638031 0.0015667205 0.88932973
-0.39391184 0.0015693698 0.89083356
-0.39143494 0.0015720278 0.89234233
-0.38894972 0.0015746952 0.89385641
-0.38645625 0.0015773724 0.89537615
-0.38395432 0.0015800589 0.89690107
-0.38144389 0.0015827547 0.8984313
-0.37965521 0.0015885156 0.90170139
-0.37813923 0.0015955241 0.9056797
-0.3766098 0.001602595 0.90969336
-0.37506676 0.0016097286 0.91374266
-0.37350985 0.0016169258 0.91782808
-0.37193906 0.001624188 0.9219504
-0.37035385 0.0016315148 0.92610931
-0.36875388 0.0016389061 0.93030494
-0.36713937 0.0016463649 0.93453884
-0.36551005 0.0016538916 0.9388113
-0.36386579 0.0016614876 0.9431231
-0.49346453 0.0050182831 0.94952232
-0.48764607 0.0049929633 0.94473147
-0.481886 0.0049678972 0.93998861
-0.47618347 0.0049430812 0.93529314
-0.47053769 0.0049185124 0.93064445
-0.46494773 0.0048941867 0.92604166
-0.45941231 0.0048700953 0.92148328
-0.45392945 0.0048462218 0.91696614
-0.44850007 0.0048225815 0.91249305
-0.44312334 0.00479917 0.90806329
-0.43779862 0.0047759851 0.90367645
-0.43252513 0.0047530234 0.89933181
-0.42730111 0.0047302707 0.89502668
-0.42213172 0.0047077886 0.89077282
-0.417009 0.0046854946 0.88655448
-0.41193461 0.0046634106 0.88237596
-0.40829965 0.0046574106 0.88124067
-0.40587363 0.0046652141 0.88271719
-0.40343943 0.0046730437 0.88419867
-0.40099707 0.0046808994 0.88568509
-0.39854652 0.0046887826 0.88717663
-0.39608765 0.0046966914 0.88867313
-0.39362052 0.0047046277 0.89017475
-0.39114502 0.0047125905 0.89168143
-0.38866109 0.0047205798 0.89319313
-0.38616905 0.0047286004 0.89471072
-0.38366845 0.0047366475 0.89623332
-0.38154179 0.004749483 0.89866191
-0.38003919 0.0047703665 0.90261334
-0.37852341 0.0047914353 0.90659988
-0.3769941 0.0048126909 0.91062164
-0.37545121 0.0048341355 0.91467929
-0.37389445 0.004855772 0.91877317
-0.37232369 0.0048776031 0.92290384
-0.37073845 0.0048996271 0.92707109
-0.36913857 0.0049218475 0.93127549
-0.36752412 0.0049442705 0.93551821
-0.36589488 0.0049668988 0.93979973
-0.49932054 0.0084630605 0.96079046
-0.49340346 0.0084198546 0.95588541
-0.48754653 0.0083770882 0.95103025
-0.48174873 0.0083347531 0.94622409
-0.47600925 0.0082928445 0.94146627
-0.47032726 0.008251355 0.93675613
-0.4647018 0.008210279 0.93209285
-0.45913139 0.0081695979 0.92747438
-0.45361438 0.0081292903 0.92289835
-0.44815162 0.0080893794 0.91836739
-0.4427422 0.0080498578 0.91388065
-0.43738538 0.0080107208 0.90943754
-0.43208125 0.0079719787 0.90503919
-0.42682987 0.0079336409 0.9006868
-0.42162794 0.0078956541 0.89637429
-0.41647553 0.0078580296 0.89210278
-0.4113721 0.0078207627 0.88787198
-0.40631679 0.0077838465 0.883681
-0.40314335 0.0077826898 0.88354969
-0.40070227 0.0077957641 0.88503397
-0.39825299 0.0078088823 0.88652325
-0.39579546 0.0078220442 0.88801754
-0.39332962 0.0078352513 0.88951689
-0.39085549 0.007848504 0.89102137
-0.38837293 0.0078618005 0.89253092
-0.38588226 0.0078751482 0.89404625
-0.3834157 0.0078892121 0.89564288
-0.38192639 0.0079237837 0.89956778
-0.38042402 0.0079586618 0.90352732
-0.37890834 0.0079938471 0.90752184
-0.37737924 0.0080293454 0.91155189
-0.37583643 0.0080651594 0.91561776
-0.37427983 0.0081012947 0.91972017
-0.37270918 0.0081377551 0.92385942
-0.37112388 0.0081745349 0.9280349
-0.36952409 0.0082116462 0.93224806
-0.36790967 0.0082490956 0.9364996
-0.3662805 0.0082868887 0.94079018
-0.49929747 0.011928609 0.96730405
-0.49334157 0.011867323 0.96233433
-0.48744559 0.011806641 0.95741355
-0.48160964 0.011746577 0.9525429
-0.47583273 0.01168712 0.94772148
-0.47011405 0.011628263 0.9429487
-0.4644554 0.011570063 0.9382292
-0.45884672 0.011512283 0.9335438
-0.45329526 0.011455115 0.92890793
-0.44779864 0.011398511 0.92431784
-0.44235608 0.011342464 0.91977292
-0.43696845 0.011287007 0.91527593
-0.4316338 0.011232107 0.91082394
-0.42635033 0.011177723 0.90641397
-0.42111778 0.011123866 0.90204656
-0.4159354 0.011070523 0.89772099
-0.41080251 0.011017692 0.89343685
-0.40571839 0.010965361 0.8891933
-0.40068227 0.010913525 0.8849898
-0.39795992 0.010924391 0.88587087
-0.39550373 0.010942791 0.88736302
-0.39303917 0.010961252 0.88886005
-0.39056635 0.010979777 0.89036226
-0.38808522 0.010998366 0.89186972
-0.38559586 0.011017025 0.89338273
-0.38380092 0.011055994 0.89654273
-0.38231182 0.011104492 0.90047556
-0.38080961 0.01115342 0.90444314
-0.3792941 0.01120278 0.90844578
-0.37776509 0.011252577 0.91248393
-0.37622249 0.011302821 0.91655827
-0.37466595 0.011353513 0.92066896
-0.37309548 0.011404665 0.92481691
-0.37151012 0.01145626 0.92900074
-0.36991042 0.011508324 0.93322271
-0.36829606 0.011560863 0.93748313
-0.49927786 0.015441583 0.97391391
-0.49327633 0.015361547 0.96886593
-0.48734334 0.015282543 0.96388316
-0.48146868 0.015204274 0.95894665
-0.47565389 0.015126802 0.95406044
-0.46989807 0.015050116 0.94922376
-0.46419948 0.014974177 0.94443423
-0.45855838 0.014899008 0.93969327
-0.45297197 0.014824538 0.93499631
-0.44744104 0.014750804 0.93034589
-0.44196564 0.014677826 0.9257431
-0.43654707 0.014605665 0.92119181
-0.4311797 0.014534147 0.91668117
-0.42586464 0.014463327 0.91221446
-0.42060113 0.014393195 0.90779114
-0.41538841 0.014323738 0.90341049
-0.41022578 0.01425495 0.89907193
-0.40511248 0.014186819 0.89477485
-0.40004781 0.014119335 0.89051855
-0.39521238 0.014058938 0.88670933
-0.39274922 0.014082641 0.88820428
-0.39027768 0.014106422 0.88970417
-0.38779792 0.014130289 0.89120948
-0.38566285 0.014167207 0.89353794
-0.38418689 0.014229144 0.89744437
-0.382698 0.014291626 0.90138519
-0.38119596 0.01435466 0.90536076
-0.37968063 0.014418252 0.90937155
-0.3781518 0.014482409 0.91341799
-0.37660927 0.014547138 0.91750056
-0.37505293 0.014612452 0.92161989
-0.37348238 0.014678347 0.92577595
-0.37189716 0.014744821 0.92996854
-0.37029752 0.014811901 0.93419933
-0.36868328 0.014879595 0.93846881
-0.49925464 0.019002771 0.98060822
-0.49321997 0.018903902 0.97550619
-0.48723626 0.01880561 0.97043401
-0.48132583 0.018708779 0.96543711
-0.47547263 0.018612808 0.96048474
-0.46967915 0.018517815 0.9555828
-0.46393949 0.018423589 0.95072043
-0.45826617 0.018330647 0.94592428
-0.45264432 0.018238416 0.94116485
-0.44707829 0.018147089 0.93645203
-0.44157344 0.018056907 0.93179834
-0.43611974 0.017967481 0.92718363
-0.4307197 0.017878931 0.92261416
-0.42537269 0.017791253 0.91808969
-0.42007783 0.017704429 0.91360933
-0.41483441 0.017618449 0.90917248
-0.40964168 0.017533302 0.90477854
-0.4044989 0.017448973 0.90042686
-0.39940533 0.017365448 0.89611673
-0.3943603 0.017282723 0.89184779
-0.38998947 0.017228451 0.88904715
-0.38751233 0.017257635 0.89055312
-0.38604939 0.01733283 0.8944335
-0.38457367 0.017408684 0.89834785
-0.38308495 0.017485205 0.9022966
-0.38158312 0.017562404 0.90628028
-0.38006794 0.017640283 0.91029918
-0.37853929 0.017718861 0.91435397
-0.3769969 0.017798137 0.91844493
-0.37544066 0.017878126 0.92257267
-0.3738701 0.017958825 0.92673701
-0.37228498 0.018040242 0.93093836
-0.37068543 0.018122399 0.93517798
-0.49315506 0.022494793 0.98222256
-0.48714224 0.022377558 0.97710359
-0.48117661 0.022260841 0.97200716
-0.47528887 0.022146076 0.96699607
-0.46945724 0.022032289 0.96202761
-0.46367684 0.021919269 0.95709264
-0.45797005 0.021808097 0.95223838
-0.45231056 0.021697555 0.9474116
-0.44670868 0.021588152 0.94263458
-0.44117424 0.021480395 0.93792939
-0.43568683 0.021373315 0.93325388
-0.43025374 0.021267295 0.92862457
-0.42487437 0.021162326 0.92404109
-0.41954783 0.021058384 0.91950262
-0.41427332 0.02095546 0.91500843
-0.40905014 0.020853536 0.91055804
-0.40387756 0.020752601 0.90615076
-0.39875472 0.020652635 0.90178579
-0.39367917 0.020553531 0.89745843
-0.38865447 0.020455498 0.89317793
-0.38643673 0.020504806 0.89533091
-0.38496122 0.020594632 0.89925313
-0.38347271 0.02068525 0.90320987
-0.38197103 0.020776669 0.90720159
-0.38045606 0.020868897 0.91122878
-0.37892753 0.02096195 0.91529179
-0.37738532 0.021055834 0.91939121
-0.37582925 0.021150563 0.92352754
-0.37425867 0.021246126 0.92770022
-0.37267363 0.021342542 0.93191022
-0.4930892 0.026135469 0.98903191
-0.48703524 0.025998322 0.98384196
-0.48104459 0.025862612 0.9787063
-0.47509727 0.025727289 0.97358537
-0.46922579 0.025594134 0.96854645
-0.46341863 0.025462562 0.96356744
-0.45766714 0.025332129 0.95863152
-0.45197055 0.02520282 0.95373809
-0.44634736 0.025075695 0.94892734
-0.44076976 0.024949232 0.94414169
-0.43524817 0.02482404 0.93940413
-0.42978168 0.024700096 0.93471378
-0.42436951 0.024577385 0.9300701
-0.41901094 0.02445589 0.92547244
-0.41370088 0.024335345 0.92091072
-0.40844458 0.024216082 0.91639745
-0.40324244 0.024098154 0.91193479
-0.39809072 0.02398137 0.90751535
-0.39298874 0.023865713 0.90313864
-0.3879357 0.023751164 0.89880383
-0.38534957 0.02378701 0.90016031
-0.38386127 0.023891781 0.90412509
-0.38235977 0.023997476 0.90812486
-0.38084492 0.024104109 0.91216016
-0.37931663 0.024211699 0.91623163
-0.37777454 0.024320249 0.92033941
-0.37621862 0.024429781 0.92448437
-0.374648 0.024540262 0.92866528
-0.37306315 0.024651749 0.93288422
-0.49302238 0.029826976 0.99593633
-0.48692191 0.029669078 0.99066401
-0.4808898 0.029513093 0.98545557
-0.4785217 0.029581342 0.9877345
-0.47695026 0.029700199 0.99170315
-0.47495583 0.029794278 0.9948445
-0.45736396 0.028904041 0.96511912
-0.45164317 0.028756307 0.96018618
-0.44597274 0.028609572 0.95528662
-0.44035986 0.028464325 0.95043677
-0.43479678 0.028320096 0.94562089
-0.42929643 0.028177759 0.9408682
-0.4238466 0.028036544 0.93615299
-0.41845626 0.027897084 0.93149632
-0.41311929 0.027759004 0.92688578
-0.40783486 0.027622281 0.92232054
-0.40260231 0.027486904 0.91780025
-0.39742073 0.027352845 0.91332394
-0.39228946 0.027220085 0.90889102
-0.38720775 0.027088609 0.90450096
-0.38425055 0.027104812 0.90504199
-0.38274929 0.027224846 0.90904999
-0.38123465 0.027345946 0.91309357
-0.37970644 0.027468124 0.91717321
-0.37816456 0.027591407 0.92128962
-0.37660864 0.027715787 0.92544276
-0.37503815 0.027841261 0.92963237
-0.48681229 0.033391457 0.99759215
-0.48074567 0.033215158 0.99232507
-0.47712556 0.033206541 0.99206764
-0.47493625 0.033298112 0.99480349
-0.47248656 0.033372656 0.9970305
-0.4698087 0.033432081 0.99880582
-0.45128936 0.032356594 0.96667498
-0.4455848 0.032190535 0.96171385
-0.43993193 0.032025695 0.95678914
-0.43433705 0.031862564 0.95191544
-0.42880335 0.031701416 0.94710106
-0.42332536 0.031541888 0.94233507
-0.4179022 0.031383958 0.93761683
-0.41253313 0.031227607 0.93294573
-0.40721723 0.031072801 0.92832077
-0.40195385 0.030919526 0.92374158
-0.39674208 0.030767752 0.91920722
-0.39158127 0.030617466 0.91471732
-0.38647059 0.030468635 0.91027093
-0.38313958 0.030458797 0.90997696
-0.38162518 0.030594422 0.91402888
-0.38009712 0.030731257 0.91811693
-0.37855536 0.030869322 0.92224169
-0.37699953 0.03100862 0.92640328
-0.48669958 0.037166148 1.0046147
-0.48058265 0.036967896 0.99925584
-0.47480431 0.036792953 0.9945271
-0.47220564 0.03686364 0.99643773
-0.46939224 0.036918491 0.99792039
-0.46633899 0.036955167 0.99891174
-0.4509477 0.036007229 0.97328871
-0.44518685 0.035819631 0.96821785
-0.43950304 0.035635382 0.96323752
-0.43387744 0.035453022 0.95830822
-0.42830911 0.035272516 0.9534291
-0.42279723 0.03509384 0.94859946
-0.41734087 0.034916967 0.94381845
-0.41193923 0.034741864 0.93908536
-0.4065915 0.034568511 0.93439955
-0.40129694 0.034396879 0.92976034
-0.39605463 0.034226943 0.9251669
-0.39086387 0.034058679 0.92061859
-0.38572386 0.033892054 0.91611475
-0.38201645 0.03384956 0.91496605
-0.38048863 0.034001112 0.91906255
-0.37894705 0.034154024 0.9231959
-0.37739116 0.034308288 0.92736566
-0.48042539 0.040774111 1.006301
-0.47433177 0.040556248 1.0009242
-0.46886915 0.040389478 0.99680835
-0.46565688 0.040415503 0.99745065
-0.4621366 0.040414985 0.99743789
-0.45814207 0.040372673 0.99639362
-0.4448117 0.039500654 0.97487223
-0.43908045 0.039295137 0.96980011
-0.4334178 0.039092585 0.96480119
-0.4278183 0.038892571 0.95986485
-0.42227268 0.038694307 0.95497173
-0.4167822 0.038497955 0.95012575
-0.41133755 0.038302686 0.94530654
-0.40595758 0.038110305 0.94055855
-0.4006314 0.037919842 0.93585801
-0.39535818 0.037731279 0.93120426
-0.39013723 0.037544586 0.9265967
-0.3849676 0.037359726 0.92203432
-0.38088086 0.037277702 0.92001003
-0.37933952 0.03744553 0.92415202
-0.47413012 0.044394206 1.0079931
-0.46805972 0.044156577 1.0025976
-0.46205366 0.043921448 0.9972589
-0.45639548 0.043716043 0.99259502
-0.45022333 0.043457847 0.9867326
-0.44441783 0.043231305 0.98158884
-0.43865803 0.043005686 0.97646606
-0.43295807 0.042782415 0.97139657
-0.42731696 0.042561449 0.9663794
-0.42173386 0.042342756 0.96141386
-0.41620779 0.042126294 0.95649898
-0.41073793 0.041912034 0.95163411
-0.40532351 0.04169995 0.94681859
-0.39996353 0.041489992 0.94205141
-0.39465728 0.041282143 0.93733209
-0.38940394 0.041076366 0.9326598
-0.38420224 0.040872578 0.9280327
-0.46781367 0.048026498 1.0096909
-0.4617646 0.047768753 1.0042721
-0.45577911 0.047513653 0.99890894
-0.44985929 0.047261484 0.99360746
-0.44400966 0.047012787 0.988379
-0.43821707 0.046766248 0.98319584
-0.43248031 0.046521783 0.97805631
-0.42680317 0.046279863 0.97297025
-0.42118487 0.046040449 0.96793693
-0.41562432 0.045803495 0.9629553
-0.41012073 0.045568969 0.95802468
-0.40467325 0.045336839 0.95314443
-0.39928094 0.045107052 0.94831353
-0.39394307 0.044879589 0.94353145
-0.38865873 0.044654407 0.9387973
-0.4614749 0.051670931 1.0113921
-0.45545086 0.051393289 1.0059576
-0.44949129 0.05111862 1.0005813
-0.44359508 0.050846867 0.99526209
-0.43776688 0.050578646 0.99001199
-0.43199593 0.050312776 0.98480797
-0.42628235 0.050049346 0.97965163
-0.42062837 0.049788665 0.97454911
-0.41503292 0.049530677 0.96949935
-0.4094952 0.049275357 0.9645018
-0.40401429 0.049022652 0.95955545
-0.39858922 0.048772521 0.95465946
-0.44911811 0.055030283 1.0076537
-0.44318238 0.054735672 1.0022591
-0.43730998 0.054444212 0.99692225
-0.43150482 0.054156475 0.9916535
-0.42575437 0.053870961 0.98642552
-0.42006424 0.053588443 0.98125231
-0.41443345 0.053308867 0.97613305
-0.40886113 0.053032197 0.97106701
-0.43685237 0.058364891 1.0039428
-0.43100384 0.058053579 0.99858797
-0.42521897 0.057745788 0.99329358
-0.41949224 0.057440847 0.98804826
