# .PCD v0.7 - Point Cloud Data file format
VERSION 0.7
FIELDS x y z
SIZE 4 4 4
TYPE F F F
COUNT 1 1 1
WIDTH 672
HEIGHT 1
VIEWPOINT 0 0 0 1 0 0 0
POINTS 672
DATA ascii
0.10427109 -0.14597952 1.0761492
0.10051757 -0.14224185 1.0765579
0.10373933 -0.14146273 1.0706611
0.10692596 -0.14069206 1.0648283
0.11007806 -0.13992974 1.0590587
0.096761227 -0.13850136 1.0769671
0.10000475 -0.1377424 1.0710655
0.10321294 -0.13699172 1.0652283
0.10638634 -0.13624917 1.0594544
0.10952554 -0.13551465 1.0537429
0.11263106 -0.13478799 1.0480925
0.093002029 -0.13475804 1.0773767
0.096267372 -0.13401929 1.0714705
0.099497139 -0.13328862 1.0656289
0.10269187 -0.13256587 1.0598506
0.10585216 -0.13185093 1.0541347
0.10897853 -0.13114366 1.0484802
0.11207154 -0.13044393 1.0428859
0.11549254 -0.13015826 1.040602
0.11904082 -0.1300292 1.0395702
0.089239962 -0.13101186 1.0777866
0.092527159 -0.13029335 1.0718757
0.09577854 -0.12958273 1.0660297
0.09899465 -0.12887983 1.0602472
0.10217605 -0.1281845 1.0545269
0.10532331 -0.12749664 1.0488682
0.10843697 -0.12681611 1.0432698
0.11185893 -0.12652895 1.0409074
0.11541185 -0.12640345 1.0398749
0.11895774 -0.12627821 1.0388446
0.12249661 -0.12615323 1.0378164
0.085475035 -0.12726283 1.0781968
0.088784128 -0.12656461 1.0722814
0.092057146 -0.12587406 1.0664308
0.095294647 -0.125191 1.0606439
0.098497204 -0.12451534 1.0549195
0.10166538 -0.12384691 1.0492564
0.10479972 -0.12318563 1.043654
0.10822319 -0.12289753 1.041213
0.11178075 -0.12277558 1.0401798
0.11533128 -0.12265391 1.039149
0.11887478 -0.12253246 1.0381202
0.12241126 -0.12241126 1.0370933
0.12594076 -0.12229029 1.0360684
0.081707232 -0.12351093 1.0786072
0.08503826 -0.12283304 1.0726873
0.088332944 -0.12216258 1.0668322
0.091591872 -0.12149942 1.0610409
0.094815612 -0.12084343 1.0553122
0.098004729 -0.12019448 1.0496449
0.10115977 -0.11955246 1.0440383
0.10458531 -0.11926395 1.0415188
0.10814754 -0.11914559 1.0404851
0.1117027 -0.11902746 1.0394535
0.11525082 -0.11890958 1.038424
0.11879192 -0.11879192 1.0373966
0.12232602 -0.11867449 1.0363711
0.12585315 -0.11855732 1.0353478
0.12937331 -0.11844036 1.0343264
0.077936567 -0.11975619 1.079018
0.08128956 -0.11909866 1.0730935
0.08460594 -0.11844832 1.0672339
0.087886333 -0.11780509 1.0614383
0.091131292 -0.11716881 1.0557053
0.094341382 -0.11653936 1.0500339
0.09751717 -0.11591663 1.0444231
0.10094531 -0.11562826 1.0418248
0.10451218 -0.11551346 1.0407904
0.10807198 -0.11539889 1.0397582
0.11162474 -0.11528457 1.0387281
0.11517046 -0.11517046 1.0377001
0.11870918 -0.11505659 1.036674
0.12224092 -0.11494295 1.0356501
0.12576567 -0.11482953 1.0346282
0.12928347 -0.11471633 1.0336082
0.13279438 -0.11460336 1.0325904
0.074163035 -0.11599859 1.0794291
0.077538021 -0.11536144 1.0735002
0.080876149 -0.11473128 1.0676361
0.084178008 -0.11410797 1.0618359
0.087444216 -0.11349143 1.0560987
0.090675309 -0.11288151 1.050423
0.093871862 -0.1122781 1.044808
0.097303152 -0.11199041 1.0421309
0.10087468 -0.1118792 1.041096
0.10443915 -0.11176821 1.0400631
0.10799653 -0.11165743 1.0390323
0.11154689 -0.11154689 1.0380037
0.11509022 -0.11143657 1.0369771
0.11862656 -0.11132646 1.0359524
0.12215592 -0.11121658 1.03493
0.12567832 -0.11110691 1.0339094
0.12919377 -0.11099746 1.0328909
0.13270229 -0.11088822 1.0318744
0.13620394 -0.1107792 1.0308599
0.070386618 -0.11223812 1.0798405
0.073783636 -0.1116214 1.0739071
0.077143535 -0.11101143 1.0680386
0.080466911 -0.11040808 1.0622338
0.08375439 -0.10981131 1.0564923
0.087006524 -0.10922096 1.0508125
0.090223879 -0.10863692 1.0451934
0.093658857 -0.10835045 1.0424373
0.097235069 -0.10824281 1.0414017
0.10080418 -0.10813539 1.0403683
0.10436622 -0.10802819 1.0393369
0.1079212 -0.1079212 1.0383075
0.11146916 -0.10781443 1.0372803
0.1150101 -0.10770787 1.0362551
0.11854406 -0.10760154 1.0352321
0.12207104 -0.1074954 1.0342109
0.12559107 -0.10738947 1.0331918
0.12910418 -0.10728376 1.0321747
0.13261038 -0.10717825 1.0311596
0.13610967 -0.10707294 1.0301465
0.13960209 -0.10696784 1.0291353
0.066607319 -0.10847477 1.0802522
0.070026405 -0.10787852 1.0743144
0.073408112 -0.10728878 1.0684414
0.076753035 -0.10670544 1.0626322
0.080061823 -0.10612846 1.0568863
0.08333502 -0.1055577 1.0512023
0.086573191 -0.10499302 1.045579
0.090012416 -0.10470832 1.0427438
0.093593299 -0.10460427 1.0417076
0.097167082 -0.10450044 1.0406736
0.10073377 -0.10439681 1.0396416
0.10429339 -0.10429339 1.0386117
0.10784596 -0.10419017 1.0375837
0.11139152 -0.10408716 1.0365579
0.11493008 -0.10398436 1.0355341
0.11846167 -0.10388177 1.0345125
0.12198628 -0.10377938 1.0334928
0.12550396 -0.10367718 1.0324751
0.12901472 -0.10357519 1.0314595
0.13251857 -0.10347341 1.0304458
0.13601555 -0.10337181 1.0294341
0.13950813 -0.10327225 1.0284426
0.14328913 -0.10338583 1.0295737
0.062825143 -0.10470857 1.0806643
0.066266321 -0.10413279 1.0747218
0.069669865 -0.10356331 1.0688444
0.07303638 -0.10300003 1.063031
0.076366492 -0.10244285 1.0572805
0.079660781 -0.1018917 1.0515922
0.082919821 -0.10134644 1.0459648
0.086363837 -0.10106407 1.0430505
0.089949399 -0.10096361 1.0420138
0.093527839 -0.10086335 1.040979
0.097099185 -0.10076331 1.0399464
0.10066345 -0.10066345 1.0389159
0.10422066 -0.10056379 1.0378873
0.10777084 -0.10046434 1.0368609
0.11131401 -0.10036509 1.0358366
0.11485018 -0.10026603 1.0348142
0.1183794 -0.10016719 1.033794
0.12190165 -0.10006852 1.0327758
0.12541696 -0.09997005 1.0317595
0.12892537 -0.099871762 1.0307451
0.13242689 -0.099773675 1.0297328
0.13592152 -0.099675789 1.0287225
0.13969831 -0.099784516 1.0298446
0.14348473 -0.099894427 1.030979
0.14727953 -0.10000462 1.0321163
0.05904007 -0.10093947 1.0810765
0.06250339 -0.10038423 1.0751297
0.065928802 -0.099835038 1.0692478
0.069316939 -0.099291824 1.06343
0.072668396 -0.098754488 1.057675
0.075983822 -0.098222986 1.0519825
0.079263739 -0.097697169 1.046351
0.082713105 -0.09741766 1.0433574
0.086303353 -0.097320803 1.04232
0.089886464 -0.097224131 1.0412847
0.093462475 -0.097127669 1.0402515
0.097031385 -0.097031385 1.0392203
0.10059323 -0.096935302 1.0381912
0.10414803 -0.096839398 1.0371641
0.10769582 -0.096743695 1.0361391
0.11123659 -0.096648186 1.0351162
0.11477039 -0.096552864 1.0340953
0.11829723 -0.096457742 1.0330765
0.12181713 -0.096362799 1.0320597
0.12533009 -0.096268035 1.0310447
0.12883615 -0.096173473 1.0300319
0.13233535 -0.096079081 1.029021
0.13610564 -0.096181318 1.030116
0.13988903 -0.096287258 1.0312506
0.14368086 -0.096393488 1.0323883
0.14748105 -0.09649995 1.0335286
0.15128966 -0.096606649 1.0346713
0.055252116 -0.097167514 1.0814892
0.058737587 -0.096632808 1.0755378
0.062184904 -0.096103944 1.0696515
0.065594696 -0.095580846 1.0638293
0.068967566 -0.095063403 1.0580701
0.07230413 -0.094551556 1.0523732
0.075604968 -0.094045207 1.0467374
0.079060234 -0.093769111 1.0436645
0.082655169 -0.093675859 1.0426265
0.086242959 -0.093582779 1.0415906
0.089823633 -0.0934899 1.0405568
0.0933972 -0.0933972 1.039525
0.096963681 -0.093304671 1.0384952
0.10052311 -0.093212336 1.0374675
0.10407551 -0.093120195 1.0364419
0.1076209 -0.09302824 1.0354184
0.11115929 -0.092936456 1.0343969
0.11469071 -0.092844866 1.0333774
0.1182152 -0.092753462 1.0323601
0.12173272 -0.092662215 1.0313445
0.12524335 -0.092571169 1.0303311
0.12874705 -0.09248028 1.0293195
0.13251109 -0.092576243 1.0303876
0.13629149 -0.092678204 1.0315225
0.14008029 -0.092780448 1.0326605
0.14387751 -0.092882946 1.0338013
0.14768313 -0.092985675 1.0349447
0.1514972 -0.093088642 1.0360907
0.15531972 -0.093191832 1.0372392
0.051461268 -0.09339267 1.0819021
0.054968931 -0.092878543 1.0759462
0.058438186 -0.092370033 1.0700555
0.061869659 -0.091867067 1.0642289
0.065263964 -0.091369547 1.0584654
0.06862171 -0.090877391 1.0527641
0.071943492 -0.090390541 1.0471241
0.075405203 -0.090118408 1.0439717
0.079004832 -0.090028763 1.0429331
0.0825973 -0.089939289 1.0418966
0.086182646 -0.089849994 1.0408622
0.089760877 -0.089760877 1.0398299
0.093332008 -0.089671932 1.0387994
0.096896075 -0.089583166 1.0377711
0.10045309 -0.089494571 1.0367448
0.10400309 -0.08940617 1.0357207
0.10754608 -0.08931794 1.0346986
0.1110821 -0.089229882 1.0336785
0.11461114 -0.089142002 1.0326605
0.11813325 -0.089054294 1.0316445
0.12164842 -0.088966757 1.0306304
0.1251567 -0.088879399 1.0296184
0.12891464 -0.088969253 1.0306593
0.13269207 -0.08906728 1.0317949
0.13647783 -0.089165516 1.0329329
0.14027205 -0.089264035 1.0340742
0.14407471 -0.089362793 1.0352182
0.14788578 -0.089461766 1.0363648
0.15170529 -0.089560956 1.0375139
0.1555333 -0.089660369 1.0386655
0.15936981 -0.089760005 1.0398197
0.051197413 -0.089121424 1.076355
0.05468864 -0.088633314 1.0704598
0.058141824 -0.088150509 1.0646288
0.061557587 -0.087672926 1.0588609
0.064936548 -0.087200508 1.0531553
0.068279304 -0.08673317 1.0475111
0.071748018 -0.086465567 1.0442791
0.075352341 -0.086379513 1.0432398
0.078949511 -0.086293653 1.0422028
0.082539521 -0.086207949 1.0411677
0.086122416 -0.086122416 1.0401348
0.08969821 -0.086037062 1.0391039
0.093266912 -0.085951857 1.0380749
0.096828558 -0.085866831 1.037048
0.10038316 -0.085781977 1.0360231
0.10393078 -0.085697308 1.0350006
0.10747138 -0.085612796 1.0339799
0.11100502 -0.085528456 1.0329612
0.1145317 -0.085444279 1.0319446
0.11805142 -0.085360259 1.0309299
0.12156426 -0.085276425 1.0299174
0.12531629 -0.085360371 1.0309312
0.12909074 -0.085454434 1.0320673
0.13287354 -0.085548721 1.033206
0.1366647 -0.085643217 1.0343473
0.14046438 -0.085737996 1.0354919
0.14427245 -0.085832976 1.0366391
0.14808899 -0.085928179 1.0377889
0.15191397 -0.086023577 1.038941
0.15574749 -0.086119197 1.0400959
0.15958951 -0.086215027 1.0412532
0.16344012 -0.086311072 1.0424132
0.054411184 -0.084431149 1.065029
0.057848446 -0.083973549 1.0592568
0.061248656 -0.083520889 1.0535469
0.064612411 -0.083073102 1.0478984
0.068088688 -0.082810573 1.0445868
0.071697719 -0.082728133 1.0435469
0.075299568 -0.082645871 1.0425092
0.078894265 -0.082563765 1.0414735
0.082481831 -0.082481831 1.04044
0.086062267 -0.082400046 1.0394083
0.089635625 -0.082318433 1.0383788
0.093201905 -0.082236975 1.0373514
0.096761137 -0.082155682 1.0363259
0.10031334 -0.082074553 1.0353025
0.10385855 -0.081993587 1.0342813
0.10739678 -0.081912801 1.0332621
0.11092802 -0.081832148 1.0322448
0.11445234 -0.081751667 1.0312296
0.11796971 -0.081671342 1.0302163
0.12171604 -0.081749581 1.0312033
0.12548752 -0.081839688 1.0323399
0.12926735 -0.081930012 1.0334792
0.13305551 -0.082020514 1.0346209
0.13685213 -0.082111277 1.0357658
0.14065722 -0.082202263 1.0369135
0.14447075 -0.082293466 1.0380639
0.14829275 -0.082384855 1.0392168
0.15212323 -0.082476452 1.0403721
0.15596226 -0.082568251 1.0415301
0.15980983 -0.08266025 1.0426906
0.163666 -0.082752466 1.0438539
0.16753076 -0.082844883 1.0450196
0.057558022 -0.079838544 1.0539389
0.060942806 -0.079410322 1.048286
0.06442719 -0.079153411 1.0448945
0.068040937 -0.079074599 1.0438541
0.07164748 -0.078995936 1.0428157
0.075246863 -0.078917444 1.0417795
0.078839093 -0.078839093 1.0407453
0.082424209 -0.078760907 1.0397131
0.086002216 -0.078682877 1.0386831
0.08957313 -0.078604989 1.0376549
0.093136989 -0.078527264 1.0366288
0.096693814 -0.078449696 1.0356048
0.10024362 -0.078372285 1.034583
0.10378644 -0.07829503 1.0335631
0.10732228 -0.078217931 1.0325453
0.11085116 -0.078140981 1.0315295
0.1143731 -0.078064181 1.0305157
0.11811389 -0.078136884 1.0314754
0.1218824 -0.078223035 1.0326127
0.12565923 -0.078309372 1.0337524
0.12944441 -0.078395911 1.0348948
0.13323797 -0.078482635 1.0360397
0.13704006 -0.078569636 1.0371882
0.14085059 -0.078656822 1.0383391
0.14466958 -0.078744203 1.0394926
0.14849706 -0.07883177 1.0406486
0.15233307 -0.078919537 1.0418072
0.15617763 -0.079007506 1.0429684
0.16003075 -0.079095662 1.0441321
0.16389249 -0.079184011 1.0452985
0.16776289 -0.079272576 1.0464675
0.061536234 -0.081386633 1.1267835
0.060985595 -0.075769983 1.049022
0.064381994 -0.075418912 1.0441614
0.067993246 -0.07534387 1.0431225
0.071597315 -0.075268976 1.0420856
0.075194232 -0.075194232 1.0410508
0.078784011 -0.075119637 1.0400181
0.082366668 -0.075045183 1.0389873
0.085942231 -0.074970886 1.0379586
0.089510731 -0.07489673 1.036932
0.093072169 -0.074822724 1.0359074
0.09662658 -0.074748866 1.0348848
0.10017399 -0.074675158 1.0338644
0.10371442 -0.074601606 1.032846
0.10724788 -0.074528188 1.0318296
0.11077439 -0.074454919 1.0308151
0.11450984 -0.074522272 1.0317477
0.11827538 -0.074604467 1.0328857
0.12204922 -0.07468684 1.034026
0.12583141 -0.074769393 1.035169
0.12962197 -0.074852124 1.0363144
0.13342099 -0.074935071 1.0374628
0.1372285 -0.075018249 1.0386144
0.14104448 -0.075101607 1.0397685
0.14486896 -0.075185157 1.0409251
0.14870194 -0.07526888 1.0420843
0.15254347 -0.075352795 1.0432462
0.15639359 -0.075436905 1.0444106
0.16025229 -0.075521193 1.0455775
0.16411965 -0.075605676 1.0467472
0.16875404 -0.076032035 1.0526501
0.17399025 -0.076705381 1.0619724
0.065586969 -0.077511869 1.1281708
0.064754523 -0.072155043 1.0502032
0.067945622 -0.071618363 1.0423919
0.071547225 -0.071547225 1.0413566
0.075141668 -0.071476221 1.0403231
0.078728996 -0.071405366 1.0392919
0.082309216 -0.071334653 1.0382626
0.085882343 -0.071264066 1.0372353
0.089448407 -0.071193635 1.0362101
0.093007438 -0.071123332 1.0351869
0.096559443 -0.071053177 1.0341657
0.10010446 -0.070983164 1.0331467
0.1036425 -0.070913292 1.0321298
0.10717359 -0.070843562 1.0311148
0.11090387 -0.07090576 1.0320201
0.11466643 -0.070983984 1.0331587
0.11843729 -0.071062371 1.0342996
0.12221649 -0.071140945 1.0354432
0.12600406 -0.071219683 1.0365893
0.12980004 -0.071298607 1.037738
0.13360451 -0.071377754 1.0388899
0.13741748 -0.071457088 1.0400447
0.14123891 -0.071536593 1.0412018
0.14506887 -0.071616277 1.0423616
0.14890739 -0.071696155 1.0435241
0.15275446 -0.071776189 1.0446891
0.15661013 -0.071856417 1.0458567
0.16047443 -0.071936816 1.047027
0.16507789 -0.072337508 1.0528589
0.17028277 -0.072978333 1.062186
0.17558053 -0.073630542 1.0716789
0.069647685 -0.073627554 1.1295615
0.068531469 -0.068531469 1.0513797
0.071497202 -0.067830674 1.0406284
0.075089194 -0.067763418 1.0395966
0.078674056 -0.067696281 1.0385666
0.082251832 -0.067629285 1.0375388
0.085822523 -0.067562416 1.0365129
0.089386173 -0.067495681 1.0354891
0.092942789 -0.067429081 1.0344673
0.096492402 -0.067362621 1.0334477
0.10003503 -0.067296296 1.0324302
0.10357068 -0.06723009 1.0314145
0.10729602 -0.067287333 1.0322927
0.11105558 -0.067361578 1.0334318
0.11482345 -0.067435995 1.0345734
0.11859966 -0.067510575 1.0357176
0.12238423 -0.067585319 1.0368643
0.12617719 -0.067660235 1.0380136
0.12997858 -0.067735322 1.0391655
0.13378854 -0.067810632 1.0403209
0.13760696 -0.067886099 1.0414788
0.14143389 -0.067961738 1.0426391
0.14526936 -0.068037547 1.0438021
0.14911339 -0.068113528 1.0449678
0.15296604 -0.068189681 1.0461361
0.15682729 -0.068265997 1.0473069
0.16140012 -0.068641432 1.0530667
0.16657381 -0.069249786 1.0623997
0.17183948 -0.069868803 1.0718964
0.073718436 -0.069733657 1.1309558
0.072316878 -0.064899758 1.0525587
0.075036779 -0.064055786 1.0388709
0.078619197 -0.063992366 1.0378424
0.082194537 -0.063929081 1.036816
0.085762806 -0.063865922 1.0357916
0.089324027 -0.063802876 1.0347692
0.092878237 -0.063739963 1.0337489
0.096425451 -0.063677184 1.0327307
0.099965692 -0.063614532 1.0317146
0.10368626 -0.063666999 1.0325655
0.10744283 -0.063737266 1.0337051
0.1112077 -0.063807696 1.0348474
0.11498091 -0.063878283 1.0359921
0.11876249 -0.063949034 1.0371395
0.12255243 -0.064019926 1.0382893
0.12635081 -0.06409099 1.0394418
0.13015766 -0.064162225 1.0405972
0.13397306 -0.064233661 1.0417557
0.13779697 -0.064305253 1.0429168
0.14162941 -0.064377002 1.0440805
0.14547041 -0.064448915 1.0452467
0.14931999 -0.064520985 1.0464156
0.1531782 -0.064593218 1.047587
0.15772088 -0.064943895 1.0532744
0.16286333 -0.065519728 1.0626135
0.1680969 -0.066105522 1.072114
0.077799238 -0.065830126 1.1323534
0.07611078 -0.061259896 1.0537403
0.078564405 -0.060293615 1.0371192
0.082137316 -0.060234029 1.0360942
0.085703164 -0.060174562 1.0350713
0.089261964 -0.060115203 1.0340502
0.092813782 -0.060055975 1.0330315
0.096358605 -0.059996866 1.0320147
0.10007458 -0.060044747 1.0328383
0.10382817 -0.060111046 1.0339787
0.10759003 -0.060177479 1.0351214
0.11136025 -0.060244072 1.0362669
0.11513881 -0.060310803 1.0374148
0.11892575 -0.060377687 1.0385653
0.12272109 -0.060444716 1.0397183
0.12652488 -0.060511902 1.0408739
0.13033724 -0.060579278 1.0420328
0.1341581 -0.060646813 1.0431945
0.13798751 -0.060714502 1.0443588
0.14182545 -0.060782336 1.0455257
0.14567199 -0.06085033 1.0466952
0.14952715 -0.060918465 1.0478673
0.1540402 -0.061244898 1.0534823
0.1591513 -0.061788153 1.0628269
0.16435282 -0.062340725 1.0723318
0.081890143 -0.061916936 1.1337545
0.079913229 -0.05761186 1.0549247
0.082080178 -0.056544121 1.0353734
0.085643597 -0.056488328 1.0343518
0.089199997 -0.056432653 1.0333323
0.092749409 -0.056377094 1.032315
0.096460991 -0.056420583 1.0331113
0.10021158 -0.056482892 1.0342523
0.10397046 -0.05654534 1.0353957
0.10773766 -0.056607921 1.0365417
0.11151321 -0.056670647 1.0376903
0.11529714 -0.056733511 1.0388414
0.11908946 -0.056796513 1.039995
0.12289022 -0.056859653 1.0411512
0.12669946 -0.05692295 1.0423101
0.13051729 -0.056986425 1.0434724
0.13434365 -0.057050042 1.0446373
0.13817856 -0.057113804 1.0458049
0.14202206 -0.057177708 1.046975
0.14587414 -0.057241749 1.0481477
0.15035805 -0.05754444 1.0536902
0.1554375 -0.058054972 1.0630385
0.16060722 -0.058574393 1.0725496
0.086005375 -0.058003623 1.1353464
0.083724216 -0.053955607 1.0561117
0.085584126 -0.052807227 1.0336336
0.08913812 -0.052755214 1.0326155
0.092845507 -0.052794501 1.0333846
0.096593082 -0.052852817 1.034526
0.10034895 -0.052911267 1.03567
0.10411315 -0.052969847 1.0368167
0.10788569 -0.053028557 1.0379659
0.11166659 -0.053087395 1.0391176
0.11545589 -0.053146362 1.0402718
0.11925362 -0.053205464 1.0414286
0.12305982 -0.053264696 1.042588
0.12687455 -0.053324088 1.0437505
0.13069786 -0.053383633 1.044916
0.13452971 -0.053443313 1.0460842
0.13837016 -0.053503126 1.0472549
0.14221919 -0.05356307 1.0484283
0.14667444 -0.053842518 1.0538981
0.15172224 -0.054320306 1.0632502
0.15686008 -0.054806534 1.0727675
0.090098605 -0.054059163 1.1365193
0.087543793 -0.050291114 1.0573013
0.089228094 -0.049166501 1.0336578
0.092972673 -0.049220826 1.0347999
0.096725531 -0.049275272 1.0359446
0.10048672 -0.049329843 1.0370919
0.10425624 -0.049384531 1.0382416
0.10803411 -0.049439341 1.0393939
0.1118204 -0.049494274 1.0405488
0.11561508 -0.049549319 1.0417061
0.11941825 -0.049604505 1.0428662
0.12322988 -0.0496598 1.0440288
0.12705013 -0.049715266 1.0451949
0.13087894 -0.049770862 1.0463637
0.1347163 -0.049826577 1.0475351
0.13856228 -0.049882419 1.048709
0.1429894 -0.05013914 1.0541062
0.14800547 -0.050584149 1.0634619
0.1531114 -0.051037133 1.0729853
0.094217844 -0.050115872 1.1379064
0.091374561 -0.046619672 1.0585234
0.093100198 -0.045637354 1.0362194
0.096858352 -0.045687903 1.0373671
0.10062484 -0.045738567 1.0385175
0.1043997 -0.045789342 1.0396703
0.10818295 -0.045840234 1.0408258
0.11197461 -0.045891233 1.0419838
0.11577474 -0.045942355 1.0431446
0.11958332 -0.045993581 1.0443077
0.12340045 -0.046044946 1.0454739
0.12722619 -0.046096444 1.0466433
0.1310605 -0.046148058 1.0478152
0.1349034 -0.046199795 1.0489899
0.13930289 -0.046434298 1.0543144
0.14428724 -0.046846509 1.0636739
0.14936088 -0.047266103 1.0732009
0.098347902 -0.046163302 1.1393057
0.095213965 -0.042939633 1.0597459
0.096991532 -0.042090666 1.0387934
0.10076336 -0.042137407 1.039947
0.10454357 -0.042184249 1.0411031
0.10833221 -0.042231198 1.0422618
0.11212926 -0.042278245 1.0434229
0.11593481 -0.042325407 1.0445869
0.11974884 -0.042372666 1.0457532
0.12357149 -0.042420067 1.046923
0.12740274 -0.042467579 1.0480957
0.13124256 -0.042515196 1.0492709
0.13561493 -0.042727992 1.0545226
0.14056753 -0.043107376 1.0638858
0.14560886 -0.043493558 1.0734167
0.15074085 -0.043886576 1.0831164
0.10492033 -0.04320249 1.1677792
0.099062271 -0.039251089 1.0609714
0.10090226 -0.038526315 1.0413805
0.10468784 -0.038569205 1.0425398
0.10848186 -0.038612187 1.0437016
0.11228435 -0.038655266 1.0448661
0.11609533 -0.038698442 1.0460331
0.11991484 -0.038741719 1.0472029
0.12374301 -0.038785126 1.0483762
0.12757978 -0.038828626 1.0495521
0.13192552 -0.039020222 1.054731
0.13684633 -0.039366756 1.0640979
0.14185515 -0.039719444 1.0736312
0.14695424 -0.040078428 1.0833347
0.15214619 -0.040443923 1.0932142
0.15743369 -0.040816139 1.1032753
0.10901537 -0.039080981 1.1675705
0.10291946 -0.035553996 1.0621995
0.10483251 -0.034944169 1.0439805
0.10863195 -0.034983169 1.0451456
0.11243986 -0.035022251 1.0463133
0.1162563 -0.035061423 1.0474836
0.12008134 -0.035100698 1.0486569
0.12391502 -0.035140079 1.0498334
0.12823464 -0.035310987 1.0549394
0.13312365 -0.035624638 1.06431
0.13809988 -0.035943806 1.0738453
0.14316605 -0.036268733 1.0835527
0.14832461 -0.03659958 1.093437
0.153578 -0.036936481 1.1035022
0.15892899 -0.037279639 1.1137543
0.1128791 -0.034889907 1.1649898
0.10678561 -0.031848338 1.0634305
0.10878243 -0.03134409 1.0465934
0.1125958 -0.031379156 1.0477643
0.11641771 -0.031414304 1.0489379
0.12024829 -0.031449553 1.0501149
0.1245423 -0.031600285 1.0551479
0.12939931 -0.031880993 1.0645208
0.13434312 -0.032166664 1.0740595
0.13937634 -0.032457504 1.0837709
0.1445014 -0.03275365 1.0936593
0.14972073 -0.033055224 1.103729
0.15503702 -0.033362396 1.1139855
0.16045301 -0.033675324 1.1244344
0.1149921 -0.030261081 1.1451554
0.11066072 -0.028134083 1.0646645
0.11275218 -0.027725944 1.0492195
0.11657959 -0.027757045 1.0503964
0.12084849 -0.027888114 1.0553564
0.12567346 -0.028135851 1.0647314
0.13058487 -0.028388016 1.0742739
0.1355851 -0.028644741 1.083989
0.1406766 -0.028906152 1.0938815
0.14586186 -0.029172372 1.103956
0.15114339 -0.029443517 1.1142168
0.15652399 -0.029719744 1.1246699
0.11916297 -0.026256246 1.1464643
0.11453799 -0.024409736 1.0658375
0.1171531 -0.024174448 1.0555638
0.12194614 -0.024389228 1.064942
0.12682511 -0.024607856 1.0744883
0.13179235 -0.024830442 1.0842074
0.13685027 -0.025057092 1.0941039
0.14200136 -0.025287913 1.1041826
0.14724815 -0.025523013 1.1144481
0.15259334 -0.025762511 1.1249057
0.12334275 -0.022242136 1.1477705
0.11843131 -0.020678483 1.0670806
0.12306385 -0.020826191 1.0747029
0.12799805 -0.021014607 1.0844258
0.13302235 -0.021206463 1.0943263
0.13813925 -0.021401856 1.1044092
0.1433513 -0.021600882 1.1146796
0.14866103 -0.021803617 1.1251415
0.12754421 -0.018220602 1.149189
0.12420224 -0.017197235 1.0846443
0.1291929 -0.017354272 1.0945488
0.13427556 -0.017514203 1.1046358
0.13945276 -0.01767711 1.1149105
0.14472708 -0.017843064 1.1253774
0.13175607 -0.014189115 1.150611
0.13041027 -0.013624954 1.1048626
0.13555259 -0.013751712 1.1151415
0.14079148 -0.01388085 1.1256135
0.13685414 -0.0099169668 1.1258489
