# .PCD v0.7 - Point Cloud Data file format
VERSION 0.7
FIELDS x y z
SIZE 4 4 4
TYPE F F F
COUNT 1 1 1
WIDTH 742
HEIGHT 1
VIEWPOINT 0 0 0 1 0 0 0
POINTS 742
DATA ascii
-0.046260498 -0.39431569 1.2504383
-0.041816682 -0.39395717 1.2493014
-0.037380941 -0.39359933 1.2481667
-0.032953244 -0.39324206 1.2470337
-0.028533587 -0.39288554 1.2459031
-0.024121931 -0.39252958 1.2447743
-0.019718261 -0.3921743 1.2436477
-0.015385505 -0.39342934 1.2476276
-0.05073756 -0.39045861 1.252198
-0.046283431 -0.39010322 1.2510582
-0.041837391 -0.38974833 1.2499201
-0.037399437 -0.38939413 1.2487842
-0.032969534 -0.3890405 1.2476501
-0.028547676 -0.38868761 1.2465184
-0.024133831 -0.38833529 1.2453885
-0.019727983 -0.38798365 1.2442608
-0.01541491 -0.38977703 1.2500122
-0.011138191 -0.39429197 1.2644916
-0.059699893 -0.38694376 1.2551079
-0.055227246 -0.38659072 1.2539628
-0.050762754 -0.38623834 1.2528198
-0.046306387 -0.38588655 1.2516787
-0.041858122 -0.38553533 1.2505394
-0.037417948 -0.38518474 1.2494023
-0.032985844 -0.38483483 1.2482673
-0.028561784 -0.38448554 1.2471343
-0.024145745 -0.38413686 1.2460033
-0.019737713 -0.38378885 1.2448745
-0.015444431 -0.38611078 1.252406
-0.011159769 -0.39059192 1.2669412
-0.006773199 -0.39510328 1.2815745
-0.0022556959 -0.39474675 1.280418
0.0022536614 -0.39439073 1.2792633
0.0067548924 -0.3940354 1.2781106
0.011248019 -0.39368066 1.27696
0.015733063 -0.39332655 1.2758114
0.020210046 -0.39297312 1.274665
0.02467899 -0.3926203 1.2735206
0.029139919 -0.39226815 1.2723783
0.03359285 -0.39191657 1.271238
-0.06421268 -0.38306183 1.2568806
-0.059729598 -0.38271189 1.2557324
-0.055254709 -0.3823626 1.2545863
-0.050787967 -0.38201386 1.253442
-0.046329364 -0.38166571 1.2522998
-0.041878868 -0.38131812 1.2511593
-0.037436482 -0.38097128 1.2500212
-0.033002164 -0.38062495 1.2488849
-0.028575905 -0.38027933 1.2477509
-0.024157671 -0.37993428 1.2466187
-0.019747453 -0.37958995 1.2454889
-0.015474063 -0.38243043 1.2548089
-0.01118143 -0.38687748 1.2694004
-0.0067765322 -0.39078 1.2822051
-0.0022568037 -0.39042705 1.281047
0.002254769 -0.39007503 1.279892
0.0067582089 -0.38972339 1.2787381
0.011253536 -0.38937235 1.2775863
0.015740773 -0.38902196 1.2764367
0.020219941 -0.3886722 1.2752891
0.024691064 -0.3883231 1.2741436
0.029154161 -0.38797459 1.2730001
0.033609252 -0.38762671 1.2718587
0.038056362 -0.38727945 1.2707193
0.042495511 -0.38693282 1.2695819
0.046926726 -0.38658684 1.2684467
0.05135002 -0.38624147 1.2673135
-0.06873823 -0.37916896 1.2586585
-0.06424468 -0.37882209 1.2575071
-0.059759345 -0.37847587 1.2563578
-0.055282194 -0.3781302 1.2552104
-0.050813206 -0.37778515 1.2540649
-0.046352364 -0.37744066 1.2529215
-0.041899644 -0.37709677 1.2517799
-0.037455034 -0.37675357 1.2506406
-0.0330185 -0.3764109 1.2495031
-0.02859004 -0.37606898 1.2483681
-0.024169611 -0.37572759 1.2472348
-0.019757202 -0.37538686 1.2461038
-0.01550381 -0.37873593 1.2572211
-0.011203175 -0.38314861 1.2718691
-0.0067798686 -0.38645253 1.2828364
-0.0022579138 -0.38610327 1.2816771
0.0022558765 -0.38575488 1.2805207
0.0067615281 -0.38540709 1.2793661
0.011259059 -0.38505983 1.2782134
0.015748492 -0.38471314 1.2770625
0.020229846 -0.38436708 1.2759138
0.024703147 -0.38402167 1.2747672
0.029168414 -0.38367683 1.2736225
0.033625674 -0.3833327 1.2724801
0.03807494 -0.38298908 1.2713395
0.042516235 -0.38264614 1.2702011
0.046949591 -0.38230383 1.2690648
0.051375017 -0.38196209 1.2679304
0.055792548 -0.38162103 1.2667983
0.061896805 -0.3920131 1.3012949
-0.073276617 -0.37526509 1.2604415
-0.068772539 -0.37492126 1.2592868
-0.064276718 -0.37457809 1.2581341
-0.059789121 -0.3742356 1.2569838
-0.055309702 -0.37389359 1.2558349
-0.050838474 -0.37355226 1.2546885
-0.04637539 -0.37321147 1.2535439
-0.041920431 -0.37287122 1.252401
-0.0374736 -0.37253165 1.2512605
-0.033034857 -0.37219271 1.2501221
-0.028604185 -0.37185439 1.2489858
-0.024181562 -0.3715167 1.2478515
-0.01976696 -0.37117961 1.2467192
-0.01553367 -0.37502718 1.2596425
-0.011225005 -0.37940517 1.2743473
-0.0067832083 -0.38212073 1.2834684
-0.0022590254 -0.38177526 1.282308
0.0022569846 -0.38143039 1.2811496
0.0067648487 -0.38108647 1.2799945
0.011264587 -0.38074303 1.2788409
0.015756218 -0.38040012 1.2776891
0.020239763 -0.38005775 1.2765392
0.024715243 -0.37971601 1.2753913
0.029182687 -0.37937492 1.2742457
0.033642109 -0.37903443 1.273102
0.038093533 -0.37869453 1.2719604
0.042536981 -0.37835526 1.2708209
0.04697248 -0.37801662 1.2696835
0.051400032 -0.37767851 1.2685478
0.055819705 -0.37734118 1.2674148
0.060322288 -0.37757283 1.2681929
-0.077827871 -0.37135011 1.2622296
-0.073313236 -0.37100944 1.2610716
-0.068806879 -0.37066934 1.2599156
-0.064308785 -0.37032989 1.2587618
-0.059818912 -0.36999106 1.2576101
-0.055337239 -0.36965275 1.2564602
-0.050863758 -0.36931512 1.2553126
-0.046398431 -0.36897802 1.2541667
-0.041941244 -0.36864147 1.2530228
-0.03749219 -0.36830562 1.2518812
-0.033051226 -0.36797032 1.2507416
-0.028618347 -0.36763567 1.2496041
-0.02419352 -0.36730161 1.2484686
-0.019781703 -0.36706051 1.2476491
-0.015563647 -0.37130415 1.2620734
-0.011246921 -0.37564716 1.2768353
-0.0067865513 -0.3777847 1.2841009
-0.0022601373 -0.37744296 1.2829393
0.002258095 -0.37710184 1.2817799
0.0067681684 -0.37676138 1.2806226
0.011270113 -0.37642178 1.2794683
0.01576395 -0.37608281 1.2783161
0.020249685 -0.37574416 1.2771651
0.024727352 -0.37540618 1.2760162
0.029196972 -0.37506878 1.2748694
0.03365856 -0.37473196 1.2737246
0.038112149 -0.37439579 1.2725819
0.042557746 -0.37406018 1.2714412
0.046995375 -0.37372512 1.2703023
0.051425073 -0.37339076 1.2691658
0.055846885 -0.37305719 1.268032
0.060260769 -0.372724 1.2668995
0.065323845 -0.37617525 1.2786304
-0.077866822 -0.36708647 1.2628614
-0.073349901 -0.3667495 1.2617022
-0.068841264 -0.36641318 1.2605451
-0.064340882 -0.36607742 1.2593901
-0.059848737 -0.3657423 1.2582371
-0.055364806 -0.36540774 1.2570862
-0.050889067 -0.36507377 1.2559372
-0.046421502 -0.36474037 1.2547903
-0.04196208 -0.36440754 1.2536453
-0.037510797 -0.36407536 1.2525026
-0.033067614 -0.36374375 1.2513617
-0.028632523 -0.3634128 1.2502232
-0.024205497 -0.36308244 1.2490866
-0.019819513 -0.36335775 1.2500337
-0.01559374 -0.36756673 1.2645136
-0.011268913 -0.37187412 1.279332
-0.0067898976 -0.37344435 1.284734
-0.002261251 -0.37310639 1.2835714
0.0022592063 -0.37276903 1.2824107
0.006771496 -0.37243229 1.2812523
0.01127565 -0.37209645 1.2800969
0.015771661 -0.37176058 1.2789414
0.020259621 -0.3714264 1.2777917
0.024739472 -0.37109208 1.2766416
0.029211266 -0.37075838 1.2754936
0.033675026 -0.37042531 1.2743478
0.038130775 -0.37009284 1.273204
0.042578533 -0.36976093 1.2720622
0.047018327 -0.36942971 1.2709227
0.051450141 -0.36909884 1.2697845
0.055874091 -0.36876899 1.2686497
0.060290106 -0.36843953 1.2675163
0.064698227 -0.36811063 1.2663847
0.07040868 -0.37475589 1.289246
-0.077905819 -0.36281851 1.2634938
-0.073386595 -0.36248532 1.2623334
-0.06887567 -0.36215273 1.2611752
-0.064373009 -0.3618207 1.2600189
-0.059878591 -0.36148927 1.2588648
-0.055392403 -0.36115846 1.2577127
-0.050914407 -0.36082819 1.2565626
-0.046444595 -0.36049852 1.2554145
-0.041982934 -0.36016938 1.2542683
-0.037529416 -0.3598409 1.2531244
-0.033084016 -0.35951298 1.2519825
-0.028646715 -0.35918573 1.2508428
-0.024217481 -0.35885903 1.2497051
-0.019857468 -0.35964081 1.2524276
-0.015623949 -0.36381483 1.2669634
-0.011290991 -0.36808631 1.2818385
-0.0067932475 -0.36909977 1.2853678
-0.0022623655 -0.36876556 1.284204
0.0022603187 -0.36843196 1.2830422
0.0067748278 -0.36809897 1.2818826
0.011281184 -0.36776659 1.2807251
0.015779415 -0.36743495 1.2795702
0.020269535 -0.36710379 1.278417
0.024751604 -0.36677378 1.2772677
0.02922558 -0.36644381 1.2761186
0.033691514 -0.36611444 1.2749716
0.038149424 -0.36578566 1.2738266
0.042599332 -0.36545745 1.2726836
0.047041297 -0.36513007 1.2715436
0.051475227 -0.36480269 1.2704035
0.055901323 -0.36447662 1.269268
0.060319461 -0.36415082 1.2681334
0.064729705 -0.36382559 1.2670008
0.069132075 -0.36350092 1.2658702
0.075579196 -0.37331542 1.3000486
-0.077944852 -0.35854635 1.2641269
-0.073423333 -0.35821688 1.2629653
-0.068910114 -0.35788801 1.2618059
-0.064405166 -0.35755971 1.2606484
-0.059908476 -0.357232 1.259493
-0.055420019 -0.35690492 1.2583398
-0.050939772 -0.35657841 1.2571886
-0.046467707 -0.35625243 1.2560393
-0.04200381 -0.35592702 1.254892
-0.037548061 -0.35560223 1.2537469
-0.033100437 -0.35527802 1.2526038
-0.02866092 -0.35495448 1.2514631
-0.024229476 -0.35463142 1.2503241
-0.019895568 -0.35590962 1.2548306
-0.015654275 -0.36004835 1.2694225
-0.011313156 -0.36428365 1.2843549
-0.0067966003 -0.36475089 1.2860023
-0.002263481 -0.36442044 1.2848372
0.0022614324 -0.36409062 1.2836744
0.0067781624 -0.3637614 1.2825136
0.011286731 -0.36343274 1.2813549
0.015787162 -0.3631047 1.2801983
0.020279506 -0.36277786 1.2790459
0.024763733 -0.36245099 1.2778935
0.029239906 -0.36212498 1.2767441
0.033708014 -0.36179933 1.275596
0.038168091 -0.36147428 1.2744499
0.0426201 -0.36114928 1.2733041
0.047064144 -0.36082509 1.2721611
0.051500339 -0.36050236 1.2710233
0.055928577 -0.36018005 1.2698869
0.060348842 -0.35985792 1.2687511
0.064761214 -0.35953641 1.2676176
0.069165707 -0.35921544 1.2664859
0.073657364 -0.35935867 1.2669909
-0.077983923 -0.35426983 1.2647605
-0.07346011 -0.35394415 1.2635978
-0.068944588 -0.35361901 1.2624371
-0.064437352 -0.35329446 1.2612784
-0.05993839 -0.35297051 1.2601219
-0.055447668 -0.35264716 1.2589675
-0.050965164 -0.3523244 1.2578152
-0.046490844 -0.35200211 1.2566646
-0.042024706 -0.35168043 1.2555163
-0.037566718 -0.35135931 1.2543699
-0.033116873 -0.35103884 1.2532258
-0.028675135 -0.35071898 1.2520838
-0.024241485 -0.35039964 1.2509438
-0.019933816 -0.35216409 1.2572429
-0.01568472 -0.35626724 1.2718914
-0.011335409 -0.360466 1.2868812
-0.0067999559 -0.36039767 1.2866372
-0.0022645977 -0.36007103 1.2854711
0.0022625471 -0.359745 1.2843071
0.0067815003 -0.35941952 1.2831452
0.011292284 -0.35909465 1.2819854
0.015794922 -0.35877037 1.2808276
0.020289455 -0.35844702 1.2796733
0.024775853 -0.35812369 1.278519
0.029254254 -0.35780203 1.2773707
0.033724528 -0.35748002 1.276221
0.038186781 -0.35715872 1.275074
0.042640988 -0.35683772 1.273928
0.047087137 -0.3565169 1.2727827
0.051525485 -0.35619792 1.2716439
0.055955868 -0.35587934 1.2705065
0.060378265 -0.3555609 1.2693697
0.064792752 -0.35524303 1.2682348
0.069199353 -0.35492572 1.2671021
0.073598072 -0.35460886 1.2659709
0.078764461 -0.35781568 1.2774194
-0.078023039 -0.34998906 1.2653949
-0.073496915 -0.34966713 1.264231
-0.068979099 -0.34934577 1.263069
-0.064469576 -0.34902495 1.2619091
-0.059968334 -0.34870476 1.2607515
-0.055475339 -0.34838513 1.2595959
-0.050990578 -0.34806609 1.2584424
-0.046514004 -0.34774756 1.2572907
-0.042045619 -0.3474296 1.2561411
-0.0375854 -0.34711224 1.2549937
-0.033133324 -0.34679544 1.2538483
-0.028689368 -0.3464793 1.2527052
-0.024253506 -0.34616369 1.2515641
-0.019972209 -0.34840411 1.2596644
-0.015715275 -0.35247117 1.274369
-0.011349159 -0.35636362 1.2884423
-0.0068033156 -0.35604018 1.2872729
-0.0022657155 -0.35571733 1.2861056
0.0022636629 -0.35539508 1.2849405
0.0067848414 -0.35507336 1.2837774
0.011297843 -0.3547523 1.2826165
0.015802689 -0.35443175 1.2814575
0.020299401 -0.35411179 1.2803007
0.024788044 -0.353793 1.2791481
0.029268555 -0.35347408 1.2779951
0.033741079 -0.35315663 1.2768474
0.038347986 -0.35415491 1.2804567
0.043163892 -0.35667005 1.2895502
0.047959909 -0.3585574 1.296374
0.052625749 -0.35922796 1.2987983
0.055983089 -0.3515738 1.2711246
0.060407616 -0.35125908 1.2699867
0.064824246 -0.35094506 1.2688513
0.069232978 -0.35063156 1.2677178
0.073633857 -0.35031864 1.2665865
0.078700237 -0.35302678 1.2763778
0.084504597 -0.35857356 1.2964324
-0.078062192 -0.34570399 1.2660298
-0.073533759 -0.34538582 1.2648647
-0.06901364 -0.34506822 1.2637016
-0.064501829 -0.34475115 1.2625405
-0.059998307 -0.34443474 1.2613816
-0.055503044 -0.34411889 1.2602249
-0.051016018 -0.34380358 1.2590703
-0.046537187 -0.34348875 1.2579173
-0.042066555 -0.34317455 1.2567666
-0.037604097 -0.34286091 1.255618
-0.033149794 -0.34254786 1.2544715
-0.028703617 -0.34223542 1.2533274
-0.024265541 -0.34192351 1.2521851
-0.020010754 -0.34462965 1.2620955
-0.015745945 -0.34866023 1.2768562
-0.011354775 -0.35199803 1.2890798
-0.0068066781 -0.35167837 1.2879092
-0.0022668345 -0.35135934 1.2867408
0.0022647798 -0.35104087 1.2855744
0.0067881863 -0.35072297 1.2844102
0.011303408 -0.35040563 1.2832482
0.015810465 -0.35008889 1.2820882
0.020309381 -0.34977269 1.2809302
0.02480018 -0.34945706 1.2797743
0.029282881 -0.34914204 1.2786206
0.033869896 -0.34998894 1.2817221
0.038775686 -0.35354301 1.2947378
0.043744311 -0.35686147 1.3068906
0.060437072 -0.34695357 1.270606
0.064855874 -0.34664348 1.2694705
0.069266714 -0.34633356 1.2683355
0.073669642 -0.3460241 1.2672021
0.078904092 -0.34943241 1.2796841
0.08472693 -0.35493714 1.2998433
-0.078101382 -0.3414146 1.2666655
-0.073570624 -0.34110016 1.2654989
-0.069048218 -0.34078637 1.2643347
-0.06453412 -0.34047312 1.2631725
-0.060028311 -0.34016043 1.2620124
-0.055530768 -0.33984828 1.2608544
-0.051041476 -0.33953679 1.2596986
-0.046560396 -0.33922574 1.2585447
-0.042087518 -0.33891526 1.2573928
-0.037622817 -0.33860534 1.256243
-0.033166282 -0.33829606 1.2550955
-0.028717875 -0.3379873 1.25395
-0.024277585 -0.33767915 1.2528067
-0.020049445 -0.34084058 1.2645358
-0.015776737 -0.34483439 1.279353
-0.011360395 -0.34762809 1.2897178
-0.0068100444 -0.34731227 1.2885461
-0.0022679544 -0.34699702 1.2873765
0.0022658978 -0.34668237 1.2862091
0.0067915344 -0.34636825 1.2850437
0.011308977 -0.3460547 1.2838805
0.015818248 -0.34574172 1.2827193
0.020319371 -0.3454293 1.2815602
0.024812367 -0.34511748 1.2804033
0.029297296 -0.34480664 1.27925
0.034087304 -0.34769049 1.2899493
0.039088167 -0.35179353 1.3051717
0.06046661 -0.34264413 1.271227
0.064887494 -0.34233749 1.2700894
0.069300428 -0.34203115 1.2689528
0.073705472 -0.34172538 1.2678185
0.079109021 -0.34581944 1.2830076
0.084950045 -0.35127991 1.3032663
-0.078140594 -0.33712086 1.2673014
-0.073607542 -0.33681026 1.2661339
-0.069082826 -0.33650023 1.2649684
-0.064566433 -0.33619076 1.263805
-0.060058344 -0.33588186 1.2626438
-0.055558525 -0.33557349 1.2614846
-0.051066965 -0.33526573 1.2603277
-0.046583626 -0.33495843 1.2591726
-0.042108495 -0.33465174 1.2580196
-0.037641555 -0.33434555 1.2568686
-0.033182781 -0.33403999 1.2557199
-0.028732151 -0.33373499 1.2545733
-0.024289642 -0.33343053 1.2534288
-0.020088287 -0.33703682 1.2669855
-0.015807647 -0.34099355 1.2818596
-0.011366021 -0.34325385 1.2903565
-0.0068134139 -0.34294182 1.2891836
-0.0022690755 -0.34263039 1.2880129
0.0022670168 -0.34231952 1.2868443
0.0067948853 -0.34200922 1.2856778
0.011314552 -0.34169948 1.2845134
0.015826039 -0.34139028 1.2833511
0.020329369 -0.34108165 1.2821908
0.024824563 -0.34077355 1.2810327
0.029311743 -0.34046715 1.2798809
0.034203794 -0.34431821 1.2943577
0.039287169 -0.34896249 1.3118165
0.060496155 -0.33833036 1.2718482
0.064919122 -0.33802715 1.2707084
0.069334179 -0.33772454 1.2695708
0.073741339 -0.33742249 1.2684354
0.079315022 -0.34218767 1.2863486
-0.078179859 -0.33282283 1.2679383
-0.073644497 -0.33251604 1.2667695
-0.069117479 -0.3322098 1.2656028
-0.064598791 -0.33190411 1.2644383
-0.060088407 -0.331599 1.2632759
-0.055586316 -0.33129445 1.2621156
-0.051092483 -0.33099043 1.2609575
-0.04660688 -0.33068693 1.2598011
-0.042129498 -0.33038396 1.258647
-0.037660308 -0.33008152 1.2574948
-0.033199295 -0.32977968 1.2563449
-0.028746441 -0.32947844 1.2551973
-0.024317229 -0.3293879 1.2548524
-0.020127272 -0.33321816 1.2694443
-0.015838681 -0.33713764 1.2843761
-0.011371654 -0.33887529 1.290996
-0.0068167872 -0.33856708 1.2898219
-0.0022701977 -0.33825946 1.2886499
0.0022681369 -0.33795241 1.2874801
0.0067982404 -0.33764595 1.2863126
0.011320133 -0.33733997 1.285147
0.01583384 -0.33703458 1.2839836
0.020339379 -0.33672974 1.2828221
0.024836829 -0.33642614 1.2816656
0.029326104 -0.33612227 1.2805079
0.034192365 -0.33964416 1.2939252
0.039355282 -0.34493744 1.3140907
0.060525581 -0.33401152 1.2724668
0.064950787 -0.33371267 1.2713282
0.06936796 -0.33341375 1.2701894
0.073824048 -0.33332676 1.269858
0.079521976 -0.33853641 1.289705
-0.07821916 -0.32852048 1.2685757
-0.073681474 -0.32821748 1.2674056
-0.069152154 -0.32791507 1.2662379
-0.064631172 -0.32761317 1.2650721
-0.0601185 -0.32731184 1.2639085
-0.055614125 -0.32701105 1.262747
-0.051118027 -0.32671085 1.2615879
-0.046630159 -0.3264111 1.2604303
-0.042150516 -0.32611188 1.259275
-0.037679084 -0.32581323 1.2581217
-0.033215828 -0.32551512 1.2569705
-0.028760744 -0.32521763 1.2558218
-0.024363976 -0.32559133 1.2572647
-0.020166403 -0.32938457 1.2719123
-0.015869835 -0.33326653 1.2869024
-0.01137729 -0.33449233 1.2916359
-0.0068201632 -0.33418801 1.2904607
-0.0022713211 -0.33388421 1.2892876
0.0022692585 -0.33358097 1.2881167
0.0068015978 -0.3332783 1.2869478
0.01132572 -0.33297616 1.2857811
0.015841644 -0.33267453 1.2846165
0.020349417 -0.33237383 1.2834553
0.024849005 -0.33207306 1.2822939
0.029340547 -0.33177388 1.2811385
0.033949111 -0.3327013 1.2847198
0.039230209 -0.33922595 1.3099146
0.06055532 -0.32969007 1.273092
0.064982474 -0.32939392 1.2719485
0.069401771 -0.32909873 1.2708086
0.074014314 -0.32970011 1.2731308
0.079729766 -0.334865 1.293075
-0.073718496 -0.32391462 1.2680424
-0.069186866 -0.323616 1.2668735
-0.064663582 -0.32331792 1.2657065
-0.060148627 -0.3230204 1.2645419
-0.055641968 -0.32272342 1.2633792
-0.051143587 -0.32242697 1.2622187
-0.046653457 -0.32213101 1.2610601
-0.04217156 -0.32183561 1.2599037
-0.037697874 -0.32154068 1.2587491
-0.033232383 -0.32124636 1.257597
-0.028775061 -0.32095259 1.256447
-0.024410905 -0.32178012 1.2596865
-0.020205686 -0.32553604 1.27439
-0.015901113 -0.32938021 1.2894388
-0.011382934 -0.33010507 1.2922765
-0.006823543 -0.32980457 1.2911001
-0.0022724457 -0.32950464 1.2899259
0.0022703807 -0.32920519 1.2887537
0.0068049589 -0.32890636 1.2875838
0.01133131 -0.32860801 1.2864159
0.015849467 -0.32831037 1.2852508
0.020359434 -0.32801312 1.2840871
0.024861259 -0.32771662 1.2829263
0.029355021 -0.3274214 1.2817706
0.0338406 -0.32712579 1.2806134
0.038359497 -0.32718396 1.2808411
0.051702138 -0.32594827 1.2760037
0.056147523 -0.32565564 1.2748581
0.060584839 -0.32536304 1.2737126
0.065014184 -0.32507095 1.2725692
0.069435619 -0.32477951 1.2714283
0.074205548 -0.32605466 1.2764202
0.079938635 -0.33117434 1.2964624
-0.069221623 -0.31931263 1.2675098
-0.064696029 -0.31901836 1.2663417
-0.060178779 -0.31872466 1.2651758
-0.05566984 -0.3184315 1.2640121
-0.051169183 -0.31813884 1.2628504
-0.046676781 -0.31784666 1.2616906
-0.042192623 -0.31755498 1.2605329
-0.037716687 -0.3172639 1.2593774
-0.03324895 -0.31697333 1.2582239
-0.028789392 -0.31668329 1.2570727
-0.024458013 -0.31795418 1.2621174
-0.020245118 -0.32167244 1.276877
-0.015932513 -0.32547849 1.2919852
-0.011388581 -0.32571343 1.2929177
-0.0068269256 -0.32541677 1.2917402
-0.0022735712 -0.32512066 1.2905648
0.0022715041 -0.32482511 1.2893915
0.0068083233 -0.32453007 1.2882204
0.011336912 -0.32423571 1.2870519
0.015857315 -0.32394227 1.2858871
0.020369509 -0.32364887 1.2847224
0.024873568 -0.32335639 1.2835615
0.02936946 -0.32306406 1.2824011
0.033857234 -0.32277229 1.2812428
0.038336862 -0.32248068 1.2800853
0.042808414 -0.32218963 1.2789301
0.047271986 -0.32189971 1.2777792
0.051727358 -0.32160923 1.2766261
0.056174845 -0.32132012 1.2754785
0.060614415 -0.3210319 1.2743344
0.065045953 -0.32074383 1.273191
0.069469497 -0.32045609 1.2720487
0.074397601 -0.3223896 1.2797238
0.080148607 -0.32746431 1.2998679
-0.064728513 -0.31471449 1.2669774
-0.060208965 -0.31442457 1.2658104
-0.055697747 -0.31413528 1.2646457
-0.051194798 -0.31384638 1.2634826
-0.046700124 -0.31355798 1.2623216
-0.042213704 -0.31327012 1.2611628
-0.037735518 -0.3129828 1.2600061
-0.033265531 -0.31269601 1.2588514
-0.028803738 -0.31240979 1.2576991
-0.024505302 -0.31411344 1.2645577
-0.020284709 -0.31779376 1.279374
-0.015964039 -0.32156137 1.2945416
-0.011394235 -0.32131743 1.2935596
-0.0068303118 -0.32102466 1.2923809
-0.0022746979 -0.32073238 1.2912043
0.0022726287 -0.32044065 1.2900299
0.0068117017 -0.32014996 1.2888596
0.011342521 -0.31985909 1.2876886
0.015865155 -0.31956956 1.286523
0.020379575 -0.31928003 1.2853574
0.024885818 -0.31899095 1.2841936
0.029383915 -0.31870246 1.2830322
0.033873878 -0.31841445 1.2818727
0.038355697 -0.31812665 1.2807142
0.042829409 -0.31783929 1.2795573
0.047295064 -0.31755257 1.278403
0.051752731 -0.31726673 1.2772523
0.056202371 -0.31698138 1.2761035
0.060644019 -0.31669655 1.2749568
0.065077685 -0.31641218 1.2738121
0.069503397 -0.31612837 1.2726694
0.074590489 -0.31870481 1.2830417
0.08035969 -0.32373476 1.3032912
-0.064761028 -0.3104063 1.2676139
-0.060239181 -0.31012022 1.2664456
-0.055725671 -0.30983475 1.2652798
-0.051220439 -0.30954963 1.2641155
-0.046723496 -0.30926505 1.2629533
-0.042234812 -0.308981 1.2617934
-0.037754364 -0.30869743 1.2606354
-0.033282135 -0.30841446 1.2594798
-0.028818099 -0.30813196 1.2583262
-0.024552759 -0.31025761 1.2670066
-0.020324454 -0.31389987 1.2818807
-0.015974429 -0.3172065 1.295384
-0.011399895 -0.31691706 1.2942021
-0.0068337014 -0.31662816 1.2930223
-0.0022758255 -0.31633976 1.2918445
0.0022737556 -0.31605202 1.2906694
0.0068150708 -0.31576496 1.2894971
0.011348145 -0.31547844 1.2883271
0.015872987 -0.31519219 1.2871581
0.020389628 -0.31490645 1.2859913
0.024898084 -0.31462124 1.2848265
0.02939838 -0.31433654 1.2836639
0.033890542 -0.31405234 1.2825034
0.038374547 -0.31376836 1.2813436
0.042850468 -0.313485 1.2801864
0.047318298 -0.31320208 1.279031
0.051778123 -0.31291997 1.277879
0.056229927 -0.31263837 1.2767291
0.060673721 -0.31235731 1.2755812
0.065109536 -0.31207675 1.2744355
0.070088618 -0.31426832 1.2833853
0.075375266 -0.31748974 1.2965407
0.080771424 -0.32077795 1.3099688
-0.060269427 -0.30581152 1.2670815
-0.055753615 -0.3055298 1.2659142
-0.051246103 -0.30524853 1.2647488
-0.046746891 -0.30496782 1.2635857
-0.042255938 -0.30468756 1.2624245
-0.037773237 -0.30440784 1.2612655
-0.033298753 -0.30412862 1.2601086
-0.028832473 -0.30384991 1.2589538
-0.024600403 -0.30638683 1.2694652
-0.020364353 -0.3099907 1.2843972
-0.015982375 -0.3127979 1.2960284
-0.011405559 -0.31251234 1.2948452
-0.0068370942 -0.31222731 1.2936642
-0.0022769563 -0.31194299 1.2924863
0.0022748851 -0.31165928 1.2913107
0.0068184491 -0.31137583 1.2901363
0.011353755 -0.31109291 1.288964
0.015880829 -0.31081051 1.287794
0.020399688 -0.31052858 1.2866259
0.024910359 -0.31024721 1.28546
0.029412864 -0.30996633 1.2842963
0.03390722 -0.30968592 1.2831345
0.038393419 -0.30940577 1.2819737
0.042871583 -0.30912668 1.2808173
0.047341548 -0.30884725 1.2796595
0.051803544 -0.30856895 1.2785064
0.056257509 -0.30829117 1.2773554
0.060703456 -0.30801383 1.2762064
0.065804258 -0.31086841 1.2880338
0.071066178 -0.31406665 1.3012853
-0.055781595 -0.30122063 1.2665496
-0.0512718 -0.30094317 1.265383
-0.046770301 -0.30066621 1.2642184
-0.042277083 -0.3003898 1.2630562
-0.037792116 -0.30011389 1.261896
-0.033315383 -0.29983845 1.2607379
-0.02884686 -0.29956356 1.259582
-0.024648227 -0.30250096 1.2719331
-0.020404411 -0.30606616 1.2869238
-0.015990326 -0.30838487 1.2966733
-0.01141123 -0.3081032 1.295489
-0.0068404935 -0.30782223 1.2943075
-0.0022780872 -0.30754176 1.2931283
0.0022760124 -0.30726168 1.2919506
0.0068218247 -0.3069821 1.2907751
0.011359372 -0.30670306 1.2896017
0.015888676 -0.30642447 1.2884303
0.020409761 -0.30614641 1.2872611
0.024922648 -0.30586886 1.2860942
0.029427359 -0.30559179 1.2849292
0.033923913 -0.30531523 1.2837663
0.038412306 -0.3050389 1.2826043
0.042892639 -0.3047635 1.2814463
0.047364827 -0.30448815 1.2802887
0.051828992 -0.30421364 1.2791344
0.056358032 -0.30433336 1.2796378
0.061488759 -0.3074438 1.2927163
0.066725366 -0.31061807 1.3060633
-0.043339971 -0.30337977 1.2948107
-0.038452599 -0.30083501 1.2839497
-0.033647191 -0.29833841 1.2732943
-0.02892095 -0.29588357 1.2628171
-0.02469624 -0.29859999 1.2744107
-0.020444626 -0.30212614 1.2894602
-0.015998289 -0.30396748 1.2973189
-0.011416914 -0.3036899 1.2961342
-0.0068438947 -0.30341268 1.294951
-0.0022792176 -0.30313596 1.29377
0.002277141 -0.30285972 1.2925911
0.0068252035 -0.30258402 1.2914144
0.011364995 -0.30230886 1.2902399
0.015896533 -0.30203411 1.2890674
0.020419843 -0.30175993 1.2878971
0.024934947 -0.30148619 1.2867289
0.029441869 -0.30121297 1.2855628
0.033940628 -0.30094025 1.2843988
0.038431242 -0.30066794 1.2832366
0.042913705 -0.30039594 1.2820758
0.047388121 -0.30012476 1.2809184
0.052036643 -0.30090752 1.2842592
0.057141729 -0.303994 1.2974321
0.062352519 -0.3071439 1.3108757
-0.021083191 -0.30687758 1.329735
-0.016256815 -0.30423468 1.3182831
-0.01151286 -0.30163693 1.3070267
-0.0068490854 -0.29907674 1.2959331
-0.0022803491 -0.29872575 1.2944123
0.0022782704 -0.29845345 1.2932323
0.0068285861 -0.29818159 1.2920544
0.011370621 -0.29791024 1.2908787
0.015904395 -0.2976394 1.289705
0.020429935 -0.29736906 1.2885336
0.024947261 -0.2970992 1.2873642
0.029456394 -0.29682982 1.2861969
0.033957355 -0.29656091 1.2850318
0.038450178 -0.29629254 1.2838689
0.042934842 -0.29602444 1.2827072
0.047683921 -0.29745683 1.288914
0.05276281 -0.30051863 1.302181
0.057947326 -0.30364397 1.3157235
0.020920889 -0.29986608 1.3194985
0.025350958 -0.2972976 1.3081964
0.02970512 -0.29476619 1.2970575
0.03398576 -0.29227754 1.2861067
0.038469121 -0.29191273 1.2845014
0.043299474 -0.29398063 1.2936008
0.048351716 -0.29701769 1.3069648
0.053509433 -0.30011812 1.3206075
