# .PCD v0.7 - Point Cloud Data file format
VERSION 0.7
FIELDS x y z
SIZE 4 4 4
TYPE F F F
COUNT 1 1 1
WIDTH 1340
HEIGHT 1
VIEWPOINT 0 0 0 1 0 0 0
POINTS 1340
DATA ascii
-0.29971176 -0.08056768 0.60977674
-0.29639921 -0.080252491 0.60739124
-0.29310927 -0.079938896 0.60501778
-0.29064667 -0.079847991 0.60432976
-0.28904343 -0.079993568 0.60543156
-0.28743428 -0.080139667 0.60653734
-0.28581929 -0.080286317 0.60764724
-0.28419837 -0.080433495 0.60876119
-0.28257149 -0.080581225 0.60987926
-0.28093863 -0.080729492 0.61100143
-0.27929974 -0.080878302 0.61212766
-0.27765483 -0.081027672 0.61325818
-0.27600378 -0.081177577 0.61439276
-0.27434665 -0.081328057 0.61553168
-0.27268335 -0.081479087 0.61667472
-0.27101383 -0.08163067 0.61782199
-0.26933813 -0.081782833 0.61897361
-0.26765615 -0.081935555 0.62012953
-0.26652634 -0.08226122 0.6225943
-0.26579651 -0.082716763 0.62604207
-0.26505858 -0.083177373 0.62952822
-0.26431236 -0.083643146 0.63305342
-0.26355773 -0.084114172 0.63661838
-0.26279458 -0.084590532 0.64022368
-0.26202273 -0.085072316 0.64387012
-0.26124203 -0.085559621 0.64755827
-0.26045236 -0.086052537 0.65128893
-0.25965354 -0.086551175 0.65506285
-0.25884539 -0.087055624 0.65888077
-0.25802776 -0.087565988 0.66274345
-0.39014018 -0.087095514 0.67724246
-0.37460083 -0.084141113 0.65426946
-0.37073243 -0.083787821 0.65152234
-0.36689633 -0.083437487 0.64879817
-0.36309221 -0.083090067 0.64609671
-0.3593196 -0.082745522 0.64341754
-0.35557818 -0.082403831 0.6407606
-0.35186753 -0.082064956 0.63812554
-0.34818727 -0.081728846 0.63551199
-0.34453702 -0.081395477 0.63291979
-0.34091642 -0.08106482 0.63034862
-0.33732516 -0.080736838 0.62779832
-0.33376279 -0.080411501 0.62526852
-0.33022907 -0.080088779 0.6227591
-0.32672641 -0.079769321 0.62027502
-0.32325178 -0.079452455 0.61781114
-0.31980035 -0.079137035 0.61535847
-0.31637603 -0.078824058 0.61292481
-0.31297868 -0.078513555 0.61051035
-0.30960801 -0.078205481 0.60811484
-0.30626372 -0.077899829 0.6057381
-0.30294573 -0.077596627 0.60338044
-0.29965356 -0.077295795 0.60104126
-0.29719174 -0.077206396 0.60034609
-0.29561093 -0.077346228 0.6014334
-0.29402438 -0.077486575 0.6025247
-0.29243207 -0.07762742 0.60361993
-0.29083395 -0.077768788 0.60471916
-0.28923002 -0.077910669 0.60582238
-0.28762016 -0.078053057 0.6069296
-0.28600445 -0.078195974 0.60804093
-0.28438285 -0.078339428 0.60915637
-0.28275523 -0.078483388 0.6102758
-0.28112164 -0.078627892 0.61139941
-0.27948204 -0.078772932 0.61252725
-0.27783635 -0.078918494 0.61365914
-0.27618459 -0.079064608 0.61479527
-0.27452669 -0.079211257 0.61593562
-0.27286261 -0.079358451 0.61708015
-0.27119237 -0.079506196 0.61822903
-0.2695159 -0.079654492 0.61938214
-0.26783314 -0.079803348 0.62053961
-0.2663922 -0.08002729 0.62228096
-0.26566198 -0.080470234 0.62572521
-0.26492366 -0.080918103 0.62920779
-0.26417705 -0.081370994 0.63272941
-0.26342207 -0.081828982 0.63629067
-0.26265851 -0.082292154 0.63989222
-0.26188633 -0.082760617 0.6435349
-0.26110524 -0.083234422 0.64721918
-0.26031521 -0.083713703 0.65094596
-0.259516 -0.084198527 0.6547159
-0.25870749 -0.084688999 0.65852976
-0.25788948 -0.085185215 0.66238827
-0.37834281 -0.082653351 0.66080511
-0.36207557 -0.079589367 0.63630885
-0.35836408 -0.079264328 0.63371021
-0.35468271 -0.078941926 0.6311326
-0.35103124 -0.07862214 0.62857598
-0.34740922 -0.078304932 0.62603992
-0.34381628 -0.077990271 0.62352425
-0.34025213 -0.077678137 0.62102878
-0.33671635 -0.077368483 0.6185531
-0.33320868 -0.077061296 0.61609715
-0.32973289 -0.076757498 0.61366832
-0.32627827 -0.076454647 0.61124706
-0.3228513 -0.076154292 0.60884577
-0.31945112 -0.075856283 0.60646325
-0.31607747 -0.075560607 0.60409933
-0.31273004 -0.075267233 0.60175383
-0.30993336 -0.075103305 0.60044324
-0.30760628 -0.07505171 0.60003072
-0.30528247 -0.075000189 0.59961885
-0.3029618 -0.074948736 0.59920746
-0.30064434 -0.074897356 0.59879673
-0.29895777 -0.075003535 0.59964561
-0.29738197 -0.075139217 0.60073036
-0.29580051 -0.075275399 0.6018191
-0.29421327 -0.075412065 0.60291177
-0.29262027 -0.07554923 0.60400838
-0.29102147 -0.075686902 0.60510904
-0.28941682 -0.075825073 0.60621369
-0.2878063 -0.07596375 0.60732239
-0.28618988 -0.076102935 0.60843515
-0.28456753 -0.076242626 0.60955197
-0.2829392 -0.076382831 0.61067289
-0.28130493 -0.076523565 0.61179805
-0.27966458 -0.076664805 0.61292726
-0.27801815 -0.076806575 0.6140607
-0.27636561 -0.076948859 0.61519825
-0.27470696 -0.077091679 0.6163401
-0.27304214 -0.077235028 0.61748618
-0.27137113 -0.077378921 0.61863655
-0.26969388 -0.077523343 0.61979121
-0.26801035 -0.077668309 0.62095016
-0.2663205 -0.077813812 0.62211347
-0.26552761 -0.07822597 0.62540865
-0.2647889 -0.078661136 0.62888771
-0.26404193 -0.079101168 0.63240576
-0.26328656 -0.079546146 0.63596332
-0.26252264 -0.079996169 0.63956118
-0.26175004 -0.08045131 0.64319998
-0.2609686 -0.080911659 0.64688045
-0.26017818 -0.081377313 0.65060329
-0.25937858 -0.081848353 0.65436924
-0.25856972 -0.082324885 0.65817904
-0.25775135 -0.08280699 0.66203344
-0.38467923 -0.081670359 0.67187214
-0.36710462 -0.078421727 0.64514685
-0.35087466 -0.075421654 0.62046635
-0.34665397 -0.074981585 0.61684602
-0.34311658 -0.07468468 0.61440355
-0.33960709 -0.074390121 0.61198032
-0.33612645 -0.074098162 0.60957843
-0.33267018 -0.07380785 0.60719019
-0.32924095 -0.073519826 0.60482067
-0.32680762 -0.073451877 0.6042617
-0.32445413 -0.073401101 0.60384399
-0.32210389 -0.073350392 0.60342681
-0.3197569 -0.073299751 0.60301024
-0.31741315 -0.073249191 0.60259426
-0.31507263 -0.073198691 0.60217881
-0.31273532 -0.073148258 0.60176396
-0.31040123 -0.0730979 0.60134965
-0.30807036 -0.073047608 0.60093594
-0.30574271 -0.072997391 0.60052282
-0.30341819 -0.072947234 0.60011017
-0.30109695 -0.072897151 0.59969819
-0.29914898 -0.072937384 0.60002917
-0.29757249 -0.073069401 0.60111523
-0.29599032 -0.073201902 0.60220528
-0.29440239 -0.073334895 0.60329932
-0.29280871 -0.073468365 0.60439736
-0.29120922 -0.073602334 0.60549945
-0.28960389 -0.073736787 0.60660553
-0.28799269 -0.073871732 0.60771567
-0.28637555 -0.074007168 0.60882986
-0.28475246 -0.074143097 0.6099481
-0.28312346 -0.074279539 0.61107057
-0.28148842 -0.074416474 0.6121971
-0.27984735 -0.074553929 0.61332786
-0.27820018 -0.074691877 0.61446273
-0.27654693 -0.074830346 0.61560184
-0.27488753 -0.074969321 0.61674517
-0.27322194 -0.075108819 0.61789274
-0.27155015 -0.07524883 0.6190446
-0.26987213 -0.075389378 0.62020081
-0.26818782 -0.075530447 0.62136132
-0.26649716 -0.07567203 0.62252611
-0.26539335 -0.075983986 0.62509245
-0.26465428 -0.076406464 0.62856799
-0.26390693 -0.076833658 0.6320824
-0.26315117 -0.077265665 0.63563633
-0.26238689 -0.07770256 0.63923049
-0.26161391 -0.078144416 0.64286548
-0.26083207 -0.078591324 0.64654207
-0.2600413 -0.079043388 0.65026104
-0.25924134 -0.079500683 0.65402299
-0.25843209 -0.079963297 0.65782875
-0.25761336 -0.08043132 0.66167903
-0.25678501 -0.080904864 0.66557467
-0.37310475 -0.077393249 0.65569144
-0.35638666 -0.074386001 0.63021344
-0.34151748 -0.071729377 0.60770601
-0.33914039 -0.07167951 0.60728353
-0.33676654 -0.07162971 0.60686159
-0.334396 -0.071579978 0.60644025
-0.33202881 -0.07153032 0.60601956
-0.32966483 -0.071480721 0.60559934
-0.32730412 -0.071431197 0.60517973
-0.3249467 -0.071381733 0.60476071
-0.32259259 -0.071332358 0.60434234
-0.32024169 -0.071283028 0.60392445
-0.31789404 -0.071233787 0.60350722
-0.31554964 -0.071184598 0.60309052
-0.31320849 -0.071135484 0.60267442
-0.31087053 -0.071086437 0.60225886
-0.30853581 -0.071037456 0.60184389
-0.30620432 -0.070988543 0.60142952
-0.30387601 -0.07093969 0.60101563
-0.30155092 -0.070890918 0.60060239
-0.29934046 -0.070868589 0.6004132
-0.29776329 -0.07099694 0.60150063
-0.29618046 -0.071125768 0.60259211
-0.29459181 -0.071255058 0.60368747
-0.29299742 -0.071384825 0.60478687
-0.29139721 -0.071515068 0.60589033
-0.2897912 -0.071645796 0.60699785
-0.28817928 -0.071776994 0.60810941
-0.28656143 -0.071908675 0.60922503
-0.28493768 -0.072040848 0.61034483
-0.28330791 -0.072173499 0.61146867
-0.28167218 -0.072306648 0.61259675
-0.28003031 -0.072440274 0.61372888
-0.27838245 -0.072574414 0.6148653
-0.27672845 -0.072709039 0.6160059
-0.27506828 -0.07284417 0.61715072
-0.27340195 -0.0729798 0.61829984
-0.27172938 -0.073115937 0.61945319
-0.27005059 -0.073252589 0.62061095
-0.26836547 -0.073389739 0.62177294
-0.26667404 -0.073527411 0.62293929
-0.26525924 -0.073744275 0.6247766
-0.26451981 -0.074154086 0.62824863
-0.26377207 -0.074568473 0.63175941
-0.26301596 -0.074987523 0.6353097
-0.26225132 -0.07541132 0.63890016
-0.26147792 -0.075839914 0.64253134
-0.26069576 -0.076273426 0.64620411
-0.25990456 -0.076711915 0.64991909
-0.25910425 -0.077155486 0.65367711
-0.25829461 -0.077604212 0.65747881
-0.25747553 -0.078058191 0.66132498
-0.25664678 -0.078517511 0.66521645
-0.37930423 -0.076330572 0.66658634
-0.36207461 -0.073317289 0.64027172
-0.34615371 -0.070532888 0.61595583
-0.33965814 -0.069645993 0.60821068
-0.33728039 -0.069597542 0.60778755
-0.33490586 -0.069549143 0.60736489
-0.33253467 -0.069500811 0.60694283
-0.33016679 -0.069452554 0.60652143
-0.32780215 -0.069404364 0.60610056
-0.32544082 -0.06935624 0.60568029
-0.32308275 -0.069308184 0.60526061
-0.32072794 -0.069260187 0.60484147
-0.31837639 -0.069212258 0.60442293
-0.31602812 -0.069164403 0.60400498
-0.31368306 -0.069116607 0.60358763
-0.31134126 -0.069068879 0.60317081
-0.3090027 -0.069021218 0.60275459
-0.30666736 -0.068973623 0.60233897
-0.30433518 -0.068926089 0.60192382
-0.30200627 -0.068878621 0.60150933
-0.29968056 -0.06883122 0.60109538
-0.29795435 -0.068921819 0.60188657
-0.2963708 -0.069046967 0.60297942
-0.29478151 -0.069172554 0.60407621
-0.29318643 -0.06929861 0.60517704
-0.29158553 -0.069425128 0.60628188
-0.28997874 -0.069552101 0.6073907
-0.28836614 -0.069679551 0.60850376
-0.2867476 -0.06980747 0.60962081
-0.28512311 -0.069935858 0.61074203
-0.28349262 -0.070064716 0.61186737
-0.28185612 -0.070194051 0.61299682
-0.28021359 -0.070323877 0.61413056
-0.27856496 -0.070454173 0.61526841
-0.27691019 -0.070584953 0.61641049
-0.2752493 -0.070716225 0.61755687
-0.27358216 -0.070847973 0.61870742
-0.27190885 -0.070980228 0.61986238
-0.27022925 -0.071112961 0.62102157
-0.26854336 -0.071246199 0.62218511
-0.26685119 -0.071379952 0.62335312
-0.2651526 -0.071514189 0.62452543
-0.26438543 -0.071903989 0.62792951
-0.26363736 -0.072305605 0.63143677
-0.26288086 -0.072711729 0.63498342
-0.26211584 -0.073122442 0.63857013
-0.26134211 -0.073537827 0.64219761
-0.26055956 -0.07395795 0.64586651
-0.25976798 -0.074382901 0.64957756
-0.25896728 -0.07481277 0.65333158
-0.25815731 -0.075247645 0.65712929
-0.25733784 -0.075687602 0.66097134
-0.25650874 -0.07613273 0.66485864
-0.38571343 -0.075232029 0.67784983
-0.36794707 -0.072213911 0.65065622
-0.35155138 -0.069428638 0.62556058
-0.34017757 -0.067606263 0.60914075
-0.33779576 -0.067559153 0.60871625
-0.33541727 -0.067512102 0.60829234
-0.33304211 -0.067465119 0.60786903
-0.33067027 -0.06741821 0.60744637
-0.3283017 -0.067371354 0.60702419
-0.32593638 -0.067324564 0.60660261
-0.32357442 -0.067277849 0.60618168
-0.32121569 -0.067231193 0.60576129
-0.31886023 -0.067184597 0.60534149
-0.31650802 -0.067138068 0.60492224
-0.31415913 -0.067091607 0.60450363
-0.31181341 -0.067045204 0.60408551
-0.30947095 -0.066998869 0.60366803
-0.30713174 -0.066952594 0.6032511
-0.3047958 -0.066906393 0.60283482
-0.30246302 -0.066860244 0.60241902
-0.30013347 -0.066814162 0.60200381
-0.29814562 -0.066844039 0.60227299
-0.29656142 -0.066965483 0.60336721
-0.29497144 -0.067087367 0.60446543
-0.2933757 -0.067209706 0.60556769
-0.29177409 -0.067332484 0.60667396
-0.29016662 -0.067455709 0.60778421
-0.2885533 -0.067579396 0.60889864
-0.28693399 -0.067703523 0.61001706
-0.28530881 -0.067828126 0.61113977
-0.28367758 -0.067953184 0.61226654
-0.28204036 -0.068078712 0.61339754
-0.28039706 -0.068204693 0.61453265
-0.27874771 -0.068331152 0.61567205
-0.27709219 -0.068458073 0.61681563
-0.2754305 -0.068585463 0.61796343
-0.27376267 -0.068713345 0.61911565
-0.27208856 -0.068841688 0.62027204
-0.27040818 -0.068970509 0.62143278
-0.26872155 -0.069099829 0.62259793
-0.26702854 -0.069229618 0.62376738
-0.26532918 -0.069359906 0.62494129
-0.26425126 -0.069656186 0.6276108
-0.26350278 -0.070045039 0.63111442
-0.26274592 -0.070438266 0.63465744
-0.26198053 -0.070835941 0.63824052
-0.26120642 -0.071238115 0.64186418
-0.26042348 -0.071644895 0.64552927
-0.25963157 -0.072056338 0.64923644
-0.25883049 -0.072472535 0.65298647
-0.2580201 -0.072893575 0.65678006
-0.25720027 -0.073319532 0.66061801
-0.25637081 -0.073750511 0.66450113
-0.37401319 -0.071074158 0.66138315
-0.35712007 -0.068289414 0.63546968
-0.34149906 -0.065714329 0.61150712
-0.33831275 -0.065514527 0.60964787
-0.33593029 -0.06546884 0.60922271
-0.33355108 -0.065423205 0.60879803
-0.33117527 -0.065377645 0.60837406
-0.32880273 -0.065332137 0.60795063
-0.32643351 -0.065286703 0.60752779
-0.32406753 -0.065241322 0.60710549
-0.32170489 -0.065196007 0.60668385
-0.31934553 -0.06515076 0.6062628
-0.31698942 -0.065105572 0.60584229
-0.31463656 -0.065060444 0.60542232
-0.31228697 -0.065015383 0.605003
-0.30994067 -0.064970382 0.60458428
-0.30759755 -0.06492544 0.60416603
-0.30525774 -0.064880565 0.6037485
-0.30292112 -0.06483575 0.60333145
-0.30058774 -0.064790994 0.60291499
-0.29833716 -0.064763583 0.60265988
-0.29675227 -0.064881325 0.60375553
-0.29516166 -0.064999498 0.60485524
-0.29356521 -0.065118104 0.60595888
-0.29196289 -0.065237127 0.60706651
-0.29035473 -0.065356605 0.60817826
-0.28874069 -0.065476514 0.60929412
-0.28712067 -0.065596856 0.61041397
-0.28549474 -0.065717652 0.61153805
-0.28386274 -0.065838888 0.61266619
-0.2822248 -0.065960586 0.61379868
-0.28058079 -0.066082731 0.61493528
-0.27893069 -0.066205338 0.61607623
-0.27727443 -0.066328391 0.6172213
-0.275612 -0.066451907 0.61837065
-0.27394336 -0.066575877 0.6195243
-0.2722685 -0.066700317 0.62068224
-0.27058738 -0.066825226 0.62184459
-0.26889995 -0.066950597 0.62301123
-0.26720616 -0.067076445 0.62418228
-0.265506 -0.067202762 0.62535775
-0.26411715 -0.067410655 0.62729234
-0.26336834 -0.06778679 0.63079244
-0.26261112 -0.068167143 0.63433182
-0.26184535 -0.068551794 0.6379112
-0.26107088 -0.068940796 0.64153111
-0.26028761 -0.069334254 0.64519244
-0.25949532 -0.069732219 0.64889574
-0.25869387 -0.070134781 0.65264177
-0.25788313 -0.070542023 0.65643138
-0.25706291 -0.070954017 0.66026521
-0.25623304 -0.071370848 0.66414404
-0.25539342 -0.071792625 0.66806889
-0.38028261 -0.069896184 0.67246968
-0.36286804 -0.067113526 0.64569777
-0.34678608 -0.064543784 0.62097436
-0.33883131 -0.063463643 0.61058235
-0.33644482 -0.063419312 0.61015582
-0.33406168 -0.063375041 0.60972995
-0.33168182 -0.063330837 0.60930461
-0.32930529 -0.063286684 0.60887986
-0.32693213 -0.063242607 0.60845578
-0.32456222 -0.063198581 0.60803223
-0.32219559 -0.063154615 0.60760921
-0.3198323 -0.063110724 0.60718691
-0.31747225 -0.063066877 0.60676509
-0.31511551 -0.063023105 0.60634392
-0.31276202 -0.062979385 0.6059233
-0.31041178 -0.062935725 0.60550326
-0.30806482 -0.062892132 0.60508382
-0.3057211 -0.06284859 0.60466492
-0.30338064 -0.062805116 0.60424668
-0.30104336 -0.062761694 0.60382891
-0.29870936 -0.062718339 0.60341179
-0.2969434 -0.062794484 0.60414439
-0.2953521 -0.062908933 0.60524547
-0.29375494 -0.063023783 0.60635048
-0.29215196 -0.063139066 0.6074596
-0.29054308 -0.063254766 0.60857278
-0.28892833 -0.063370898 0.60969007
-0.28730762 -0.063487448 0.61081141
-0.28568098 -0.063604444 0.61193699
-0.28404826 -0.063721858 0.61306661
-0.28240955 -0.063839711 0.61420047
-0.28076476 -0.063957997 0.6153385
-0.27911392 -0.064076737 0.61648089
-0.27745691 -0.064195916 0.6176275
-0.27579373 -0.064315528 0.61877835
-0.27412432 -0.064435601 0.61993355
-0.27244869 -0.064556122 0.62109303
-0.27076679 -0.064677089 0.62225688
-0.26907858 -0.064798512 0.62342513
-0.26738396 -0.064920388 0.62459767
-0.265683 -0.065042727 0.62577468
-0.26398325 -0.065167412 0.62697428
-0.26323402 -0.065530837 0.63047075
-0.26247644 -0.065898344 0.63400656
-0.26171032 -0.066269994 0.63758218
-0.26093549 -0.066645861 0.6411984
-0.26015183 -0.067026019 0.64485592
-0.25935918 -0.067410536 0.64855534
-0.25855738 -0.067799486 0.65229744
-0.25774625 -0.068192959 0.65608299
-0.2569257 -0.068591021 0.65991277
-0.25609547 -0.068993762 0.66378748
-0.25525546 -0.069401257 0.66770798
-0.38676631 -0.068678126 0.68393505
-0.36880401 -0.065899149 0.65626043
-0.35223928 -0.063336402 0.63073915
-0.33935145 -0.061406452 0.61151963
-0.33696094 -0.061363496 0.61109185
-0.33457375 -0.061320592 0.61066461
-0.33218995 -0.061277755 0.61023802
-0.32980943 -0.061234973 0.60981196
-0.32743225 -0.061192255 0.60938656
-0.3250584 -0.061149601 0.60896176
-0.32268783 -0.061106995 0.6085375
-0.32032055 -0.061064452 0.60811383
-0.31795657 -0.061021969 0.60769075
-0.3155959 -0.060979545 0.60726827
-0.31323847 -0.060937177 0.60684633
-0.31088439 -0.060894877 0.60642511
-0.30853349 -0.060852628 0.60600436
-0.3061859 -0.060810439 0.6055842
-0.30384153 -0.060768306 0.60516465
-0.30150041 -0.060726233 0.60474563
-0.29916254 -0.060684215 0.6043272
-0.29713476 -0.060704947 0.60453367
-0.29554275 -0.060815658 0.60563618
-0.29394493 -0.060926769 0.60674268
-0.29234126 -0.061038285 0.60785323
-0.2907317 -0.061150208 0.60896784
-0.28911623 -0.061262548 0.61008656
-0.28749481 -0.061375298 0.61120939
-0.28586742 -0.061488468 0.6123364
-0.28423405 -0.061602056 0.61346757
-0.28259459 -0.061716057 0.61460286
-0.28094906 -0.061830491 0.61574244
-0.27929741 -0.061945342 0.6168862
-0.2776396 -0.062060617 0.61803418
-0.27597567 -0.062176336 0.61918658
-0.27430555 -0.062292494 0.62034333
-0.27262911 -0.062409073 0.62150431
-0.27094644 -0.062526107 0.62266976
-0.26925743 -0.062643565 0.6238395
-0.26756206 -0.062761471 0.62501365
-0.26586029 -0.062879823 0.62619227
-0.26415211 -0.062998615 0.6273753
-0.26309988 -0.063277185 0.63014942
-0.26234192 -0.06363187 0.6336816
-0.26157543 -0.063990556 0.63725358
-0.26080024 -0.064353302 0.64086604
-0.26001623 -0.064720199 0.64451975
-0.25922319 -0.06509129 0.64821529
-0.25842106 -0.065466665 0.65195352
-0.25760958 -0.065846398 0.65573508
-0.25678864 -0.066230558 0.65956074
-0.25595805 -0.066619217 0.66343129
-0.25511768 -0.067012481 0.66734761
-0.3749375 -0.064644396 0.66717452
-0.35786581 -0.062090281 0.6408143
-0.34208864 -0.059729766 0.61645216
-0.33747867 -0.059301361 0.61203074
-0.33508748 -0.059259843 0.61160225
-0.3326996 -0.059218377 0.61117429
-0.33031511 -0.059176974 0.61074698
-0.32793391 -0.059135623 0.61032021
-0.32555607 -0.059094336 0.6098941
-0.32318154 -0.059053108 0.60946858
-0.32081032 -0.059011929 0.6090436
-0.3184424 -0.058970816 0.60861927
-0.31607777 -0.058929753 0.60819548
-0.31371638 -0.058888741 0.60777223
-0.31135833 -0.058847796 0.60734963
-0.30900359 -0.058806915 0.60692769
-0.30665207 -0.058766074 0.60650623
-0.30430382 -0.058725297 0.60608536
-0.30195886 -0.05868458 0.60566515
-0.29961711 -0.058643918 0.60524547
-0.29732639 -0.058612727 0.60492355
-0.29573369 -0.058719683 0.60602742
-0.29413518 -0.058827035 0.60713536
-0.2925308 -0.058934778 0.60824734
-0.29092053 -0.059042912 0.60936338
-0.28930438 -0.059151452 0.61048359
-0.28768227 -0.059260391 0.61160791
-0.28605416 -0.059369728 0.61273634
-0.28442001 -0.059479471 0.61386895
-0.28277984 -0.059589621 0.61500579
-0.28113359 -0.059700184 0.61614686
-0.2794812 -0.059811149 0.61729211
-0.27782264 -0.059922531 0.61844164
-0.27615792 -0.060034327 0.61959547
-0.27448696 -0.060146548 0.62075365
-0.2728098 -0.060259193 0.62191623
-0.27112633 -0.060372256 0.62308311
-0.26943651 -0.060485747 0.62425441
-0.26774037 -0.06059967 0.62543017
-0.26603779 -0.060714018 0.62661034
-0.26432881 -0.060828801 0.62779498
-0.26296583 -0.061025824 0.62982839
-0.26220754 -0.06136772 0.63335699
-0.26144066 -0.061713461 0.63692528
-0.26066512 -0.062063124 0.64053404
-0.25988072 -0.06241677 0.64418387
-0.25908735 -0.062774472 0.64787561
-0.25828484 -0.063136294 0.6516099
-0.25747302 -0.063502312 0.65538746
-0.25665173 -0.063872598 0.65920907
-0.38127872 -0.06334725 0.67845827
-0.363675 -0.060803704 0.65121657
-0.34742829 -0.05845619 0.62607431
-0.33799797 -0.057232887 0.61297256
-0.33560273 -0.05719275 0.61254269
-0.33321086 -0.057152674 0.61211348
-0.33082232 -0.057112649 0.6116848
-0.32843715 -0.057072684 0.61125678
-0.32605526 -0.057032771 0.61082929
-0.32367676 -0.056992918 0.61040246
-0.32130155 -0.056953121 0.60997623
-0.31892964 -0.056913372 0.60955054
-0.3165611 -0.056873687 0.60912549
-0.31419578 -0.056834053 0.60870099
-0.3118338 -0.056794472 0.60827708
-0.30947512 -0.056754954 0.60785383
-0.3071197 -0.056715485 0.60743111
-0.30476752 -0.056676064 0.60700893
-0.30241865 -0.056636706 0.60658741
-0.30007303 -0.056597404 0.60616648
-0.29773065 -0.056558155 0.60574609
-0.29592487 -0.056621004 0.60641921
-0.29432565 -0.056724578 0.60752851
-0.29272062 -0.056828544 0.60864198
-0.29110962 -0.056932878 0.60975945
-0.28949279 -0.057037611 0.61088115
-0.28786993 -0.057142723 0.6120069
-0.28624111 -0.057248224 0.61313683
-0.28460625 -0.057354111 0.61427093
-0.28296536 -0.057460397 0.61540926
-0.28131837 -0.057567079 0.61655182
-0.2796652 -0.057674147 0.61769855
-0.27800593 -0.057781626 0.61884964
-0.27634043 -0.057889495 0.62000495
-0.27466872 -0.057997778 0.62116468
-0.27299073 -0.058106463 0.6223287
-0.27130646 -0.058215551 0.62349707
-0.26961586 -0.058325067 0.62466997
-0.26791888 -0.058434986 0.62584722
-0.26621553 -0.058545329 0.627029
-0.26450571 -0.058656082 0.62821519
-0.26283196 -0.05877677 0.62950778
-0.26207328 -0.059105888 0.63303268
-0.26130605 -0.059438717 0.63659734
-0.26053014 -0.059775315 0.64020234
-0.25974539 -0.060115747 0.64384842
-0.25895166 -0.060460079 0.64753628
-0.25814879 -0.060808379 0.65126663
-0.36967587 -0.059474669 0.66196209
-0.35293731 -0.057142232 0.63600171
-0.33851889 -0.05515803 0.61391723
-0.33611959 -0.055119291 0.61348605
-0.33372366 -0.055080604 0.61305547
-0.3313311 -0.055041976 0.61262554
-0.32894188 -0.055003397 0.61219615
-0.32655603 -0.054964878 0.61176741
-0.32417348 -0.054926403 0.61133921
-0.3217943 -0.054887991 0.61091167
-0.3194184 -0.054849625 0.61048466
-0.31704587 -0.054811321 0.61005831
-0.31467664 -0.054773066 0.60963255
-0.31231073 -0.054734867 0.60920739
-0.30994806 -0.054696716 0.60878277
-0.30758873 -0.054658625 0.6083588
-0.30523267 -0.054620583 0.60793537
-0.30287987 -0.054582592 0.60751253
-0.30053034 -0.054544657 0.60709029
-0.2981841 -0.054506771 0.60666865
-0.29611629 -0.054519605 0.60681146
-0.29451635 -0.054619398 0.6079222
-0.29291064 -0.054719567 0.6090371
-0.29129899 -0.054820102 0.61015606
-0.2896814 -0.054921012 0.61127919
-0.28805786 -0.055022288 0.61240643
-0.2864283 -0.055123936 0.61353779
-0.28479275 -0.055225972 0.61467344
-0.28315109 -0.055328373 0.6158132
-0.28150335 -0.055431161 0.61695725
-0.27984947 -0.055534329 0.61810553
-0.27818942 -0.055637885 0.61925811
-0.2765232 -0.055741832 0.62041503
-0.2748507 -0.055846155 0.62157619
-0.27317196 -0.055950884 0.62274182
-0.27148688 -0.056055997 0.62391174
-0.26979548 -0.056161504 0.62508607
-0.2680977 -0.056267422 0.62626493
-0.26639351 -0.056373734 0.6274482
-0.26468289 -0.056480452 0.628636
-0.2629658 -0.056587577 0.62982833
-0.26193914 -0.056846365 0.63270867
-0.26117158 -0.057166308 0.63626969
-0.26039532 -0.057489872 0.639871
-0.25961021 -0.05781712 0.64351332
-0.28876612 -0.064876974 0.72209054
-0.28677097 -0.065001421 0.72347569
-0.3758783 -0.058101062 0.67306846
-0.35862383 -0.055785928 0.64624894
-0.34268779 -0.053647611 0.62147772
-0.336638 -0.053039428 0.61443228
-0.33423805 -0.053002153 0.61400044
-0.33184141 -0.052964915 0.61356908
-0.32944819 -0.05292774 0.61313844
-0.32705829 -0.052890614 0.61270833
-0.32467175 -0.052853543 0.61227888
-0.32228854 -0.052816518 0.61184996
-0.31990871 -0.052779555 0.61142176
-0.31753218 -0.05274263 0.61099404
-0.31515896 -0.052705765 0.61056697
-0.31278908 -0.052668951 0.6101405
-0.31042248 -0.052632183 0.60971457
-0.30805922 -0.052595478 0.60928935
-0.30569923 -0.052558813 0.60886461
-0.30334249 -0.052522201 0.60844046
-0.30098906 -0.052485637 0.60801691
-0.29863894 -0.052449133 0.60759401
-0.29630792 -0.052415483 0.6072042
-0.29470736 -0.052511491 0.60831642
-0.29310092 -0.052607857 0.60943276
-0.29148859 -0.052704576 0.61055321
-0.28987029 -0.052801654 0.61167777
-0.28824604 -0.052899089 0.6128065
-0.28661576 -0.052996878 0.61393934
-0.28497946 -0.053095035 0.61507642
-0.28333709 -0.053193554 0.61621773
-0.2816886 -0.053292442 0.61736327
-0.28003398 -0.053391691 0.61851305
-0.27837318 -0.05349132 0.61966717
-0.27670622 -0.053591322 0.62082565
-0.27503294 -0.053691689 0.62198836
-0.27335343 -0.053792439 0.62315547
-0.27166754 -0.053893562 0.62432694
-0.26997536 -0.053995073 0.62550288
-0.26827678 -0.054096963 0.62668324
-0.26657179 -0.054199241 0.62786806
-0.26486033 -0.05430191 0.62905741
-0.26314241 -0.054404967 0.63025129
-0.26180518 -0.054589164 0.63238508
-0.26103723 -0.054896239 0.6359424
-0.29293123 -0.062136929 0.71982175
-0.29095036 -0.062255751 0.72119826
-0.28896186 -0.062375024 0.72257996
-0.28696573 -0.062494759 0.72396702
-0.38229272 -0.056680627 0.68455452
-0.36449584 -0.054385096 0.65683049
-0.34808114 -0.052267779 0.63125879
-0.33715805 -0.050953146 0.61538148
-0.33475402 -0.050917279 0.61494827
-0.33235335 -0.05088146 0.61451566
-0.32995605 -0.050845686 0.61408365
-0.32756212 -0.050809968 0.61365223
-0.32517156 -0.050774295 0.61322141
-0.32278436 -0.050738677 0.61279124
-0.32040048 -0.050703105 0.61236161
-0.31801996 -0.050667588 0.61193264
-0.31564277 -0.050632115 0.61150426
-0.3132689 -0.050596695 0.61107647
-0.31089836 -0.050561324 0.61064929
-0.30853111 -0.050526001 0.61022264
-0.30616719 -0.050490726 0.60979664
-0.30380654 -0.050455503 0.60937124
-0.30144918 -0.050420325 0.60894638
-0.29909512 -0.050385203 0.60852218
-0.29674438 -0.050350126 0.60809857
-0.29489857 -0.050400846 0.60871112
-0.29329145 -0.050493401 0.60982895
-0.2916784 -0.050586294 0.61095083
-0.29005945 -0.050679527 0.61207688
-0.28843445 -0.050773107 0.61320704
-0.28680345 -0.050867029 0.61434138
-0.28516644 -0.050961304 0.61548001
-0.28352332 -0.051055923 0.61662275
-0.28187412 -0.051150903 0.61776984
-0.28021872 -0.051246226 0.6189211
-0.27855721 -0.051341914 0.62007678
-0.27688944 -0.051437959 0.62123674
-0.27521542 -0.051534358 0.622401
-0.2735351 -0.051631123 0.62356967
-0.27184847 -0.051728249 0.62474269
-0.27015549 -0.051825751 0.62592024
-0.2684561 -0.05192361 0.62710214
-0.26675031 -0.052021846 0.62828857
-0.26503804 -0.052120451 0.62947947
-0.26331925 -0.052219432 0.6306749
-0.26167133 -0.052334264 0.63206178
-0.29510349 -0.059527311 0.71893507
-0.29312918 -0.059641004 0.72030818
-0.29114732 -0.059755128 0.72168648
-0.28915784 -0.059869684 0.72307003
-0.28716072 -0.059984684 0.72445893
-0.28515595 -0.060100134 0.72585326
-0.370563 -0.052937575 0.66776365
-0.35364693 -0.050843809 0.64135253
-0.33801645 -0.048909131 0.61694819
-0.33527157 -0.048825957 0.61589903
-0.33286685 -0.048791558 0.6154651
-0.3304655 -0.048757207 0.61503178
-0.32806751 -0.048722897 0.61459899
-0.32567292 -0.048688643 0.61416692
-0.32328165 -0.048654426 0.61373532
-0.32089376 -0.048620269 0.61330444
-0.31850922 -0.048586152 0.61287409
-0.31612805 -0.048552088 0.6124444
-0.31375021 -0.048518073 0.61201531
-0.31137568 -0.048484102 0.61158681
-0.30900449 -0.048450179 0.61115891
-0.3066366 -0.048416305 0.6107316
-0.30427203 -0.048382476 0.61030489
-0.30191073 -0.048348691 0.60987872
-0.29955274 -0.048314959 0.6094532
-0.29719806 -0.048281275 0.60902828
-0.29509005 -0.048287462 0.60910636
-0.29348224 -0.048376191 0.61022562
-0.29186851 -0.048465248 0.61134899
-0.29024878 -0.048554633 0.61247647
-0.28862309 -0.048644345 0.61360812
-0.28699139 -0.048734389 0.61474395
-0.28535366 -0.048824772 0.61588407
-0.28370982 -0.048915487 0.61702836
-0.28205985 -0.049006537 0.61817688
-0.28040373 -0.049097933 0.61932975
-0.27874145 -0.049189668 0.62048692
-0.27707291 -0.049281742 0.62164837
-0.27539814 -0.049374167 0.62281424
-0.27371705 -0.049466938 0.62398446
-0.27202961 -0.049560051 0.62515903
-0.27033585 -0.049653526 0.62633812
-0.26863569 -0.049747352 0.62752163
-0.3031289 -0.056600831 0.71397263
-0.30118346 -0.056708183 0.71532679
-0.29923066 -0.056815948 0.71668613
-0.29727039 -0.056924116 0.7180506
-0.29530263 -0.057032697 0.71942025
-0.29332736 -0.057141695 0.72079515
-0.29134455 -0.057251111 0.72217536
-0.28935409 -0.057360943 0.72356081
-0.28735602 -0.057471201 0.72495162
-0.28535023 -0.057581887 0.7263478
-0.37683603 -0.051441111 0.67906779
-0.35939363 -0.049373567 0.65177441
-0.34329686 -0.047465481 0.62658602
-0.33579078 -0.046728168 0.61685282
-0.33338192 -0.046695188 0.61641747
-0.33097652 -0.046662264 0.61598283
-0.32857445 -0.04662938 0.61554873
-0.32617578 -0.046596542 0.61511523
-0.32378051 -0.046563752 0.61468238
-0.32138857 -0.046531007 0.61425012
-0.31900004 -0.046498314 0.61381853
-0.31661484 -0.046465658 0.61338747
-0.31423301 -0.046433054 0.61295706
-0.31185445 -0.046400491 0.61252719
-0.3094793 -0.046367977 0.61209798
-0.30710745 -0.046335511 0.61166942
-0.30473891 -0.046303082 0.61124134
-0.30237368 -0.046270706 0.61081392
-0.30001175 -0.04623837 0.61038709
-0.29765314 -0.046206083 0.60996085
-0.29529783 -0.046173844 0.60953528
-0.29367328 -0.046256229 0.61062282
-0.29205886 -0.046341442 0.61174768
-0.29043841 -0.046426959 0.61287659
-0.28881201 -0.046512797 0.61400974
-0.28717959 -0.046598952 0.61514705
-0.28554112 -0.046685431 0.61628866
-0.28389654 -0.046772227 0.61743444
-0.28224584 -0.046859346 0.61858451
-0.28058901 -0.046946798 0.61973894
-0.27892593 -0.047034569 0.62089759
-0.27725664 -0.047122668 0.6220606
-0.27558106 -0.047211099 0.62322795
-0.27389923 -0.047299869 0.62439978
-0.30912712 -0.053815655 0.71041387
-0.30720273 -0.053917211 0.7117545
-0.30527106 -0.054019161 0.71310031
-0.30333206 -0.054121487 0.71445113
-0.30138573 -0.054224208 0.71580714
-0.29943192 -0.054327313 0.71716821
-0.29747072 -0.054430816 0.71853453
-0.29550204 -0.054534711 0.71990603
-0.29352582 -0.054639008 0.72128284
-0.29154202 -0.0547437 0.72266489
-0.28955063 -0.054848798 0.72405225
-0.28755155 -0.054954294 0.72544491
-0.28554478 -0.055060204 0.726843
-0.3833251 -0.049893111 0.69076127
-0.36533016 -0.047854751 0.66254056
-0.3487449 -0.045976017 0.6365298
-0.33631155 -0.044623863 0.61780947
-0.3338986 -0.044592321 0.61737281
-0.33148912 -0.044560831 0.6169368
-0.329083 -0.044529382 0.61650139
-0.32668024 -0.044497974 0.61606658
-0.32428089 -0.044466611 0.61563236
-0.32188493 -0.044435296 0.61519879
-0.31949231 -0.044404019 0.61476576
-0.31710312 -0.044372793 0.61433345
-0.31471726 -0.044341605 0.61390167
-0.31233475 -0.044310465 0.61347055
-0.30995557 -0.044279367 0.61303997
-0.30757973 -0.044248313 0.61261004
-0.30520722 -0.044217303 0.61218071
-0.30283806 -0.044186335 0.61175197
-0.30047217 -0.044155411 0.61132383
-0.29810962 -0.044124529 0.61089629
-0.29575038 -0.044093691 0.61046934
-0.29386455 -0.044133507 0.61102057
-0.29224941 -0.044214856 0.61214685
-0.29062828 -0.044296503 0.61327726
-0.28900117 -0.044378459 0.61441189
-0.28736803 -0.044460714 0.6155507
-0.28572884 -0.044543277 0.61669379
-0.28408352 -0.044626143 0.61784106
-0.28243208 -0.044709325 0.61899269
-0.28077447 -0.044792816 0.6201486
-0.31696242 -0.050962586 0.70556796
-0.31506586 -0.051058102 0.7068904
-0.31316218 -0.05115398 0.7082178
-0.31125134 -0.051250219 0.7095502
-0.30933326 -0.05134682 0.71088761
-0.30740798 -0.051443785 0.71223009
-0.30547538 -0.051541112 0.71357757
-0.30353546 -0.051638816 0.71493024
-0.30158818 -0.051736888 0.71628803
-0.2996335 -0.051835332 0.71765101
-0.29767135 -0.051934149 0.71901911
-0.29570171 -0.05203335 0.72039253
-0.29372454 -0.052132927 0.72177112
-0.29173976 -0.052232884 0.72315502
-0.28974739 -0.052333228 0.72454429
-0.28774735 -0.05243396 0.72593892
-0.2857396 -0.052535083 0.72733891
-0.28372407 -0.05263659 0.72874427
-0.37146613 -0.046284914 0.67366832
-0.3543686 -0.044438507 0.6467942
-0.33858293 -0.04273377 0.62198204
-0.3344169 -0.042482931 0.61833113
-0.3320033 -0.042452879 0.61789376
-0.32959306 -0.042422868 0.61745697
-0.32718626 -0.042392906 0.61702085
-0.32478285 -0.042362981 0.61658531
-0.32238281 -0.042333096 0.61615032
-0.31998619 -0.042303257 0.61571604
-0.31759289 -0.042273458 0.6152823
-0.31520301 -0.0422437 0.61484921
-0.31281647 -0.042213988 0.61441672
-0.31043333 -0.042184323 0.61398494
-0.30805349 -0.042154688 0.61355364
-0.30567703 -0.042125102 0.613123
-0.30330387 -0.042095553 0.61269295
-0.30093405 -0.042066049 0.6122635
-0.29856753 -0.042036582 0.61183465
-0.2962043 -0.042007156 0.61140633
-0.29405609 -0.042008013 0.61141878
-0.29244024 -0.042085495 0.61254656
-0.29081842 -0.042163264 0.61367846
-0.28919059 -0.042241324 0.61481458
-0.28755671 -0.042319667 0.61595488
-0.32469153 -0.048148174 0.70078772
-0.32282224 -0.048237808 0.70209229
-0.32094595 -0.04832777 0.70340168
-0.31906268 -0.048418071 0.70471603
-0.31717235 -0.048508711 0.70603526
-0.31527492 -0.04859969 0.70735943
-0.31337035 -0.048691012 0.70868862
-0.31145859 -0.048782669 0.71002269
-0.30953965 -0.04887468 0.71136189
-0.30761346 -0.048967041 0.71270615
-0.30567998 -0.049059752 0.71405554
-0.30373916 -0.04915281 0.71540999
-0.30179098 -0.049246226 0.71676964
-0.29983532 -0.049339987 0.71813434
-0.29787225 -0.049434118 0.71950436
-0.29590166 -0.049528603 0.72087961
-0.29392353 -0.049623452 0.72226012
-0.2919378 -0.049718667 0.72364593
-0.28994447 -0.049814247 0.7250371
-0.28794339 -0.049910188 0.72643352
-0.28593466 -0.050006509 0.72783542
-0.28391814 -0.050103199 0.72924274
-0.37781098 -0.044661362 0.685175
-0.36779127 -0.043756519 0.67129326
-0.34391603 -0.041180883 0.63177902
-0.33493683 -0.040366977 0.61929244
-0.33251905 -0.040338375 0.61885363
-0.33010477 -0.040309824 0.61841559
-0.32769385 -0.040281303 0.61797804
-0.32528636 -0.040252827 0.61754119
-0.32288229 -0.040224392 0.61710495
-0.32048157 -0.04019599 0.61666924
-0.31808427 -0.040167637 0.61623424
-0.31569031 -0.040139318 0.61579978
-0.31329978 -0.040111043 0.61536598
-0.31091255 -0.040082801 0.61493272
-0.30852872 -0.040054604 0.61450016
-0.30614823 -0.040026445 0.61406815
-0.30377108 -0.039998326 0.61363673
-0.30139729 -0.039970253 0.61320603
-0.29902679 -0.039942209 0.6127758
-0.29665965 -0.039914209 0.61234623
-0.29429585 -0.039886251 0.61191732
-0.2926313 -0.039953351 0.61294675
-0.33047402 -0.045455534 0.69735885
-0.32862461 -0.04553974 0.69865066
-0.32676831 -0.045624252 0.69994724
-0.32490513 -0.045709085 0.70124871
-0.32303497 -0.04579423 0.70255494
-0.32115787 -0.045879696 0.70386612
-0.31927374 -0.045965482 0.70518219
-0.31738254 -0.046051584 0.70650315
-0.31548423 -0.046138011 0.70782906
-0.31357878 -0.046224762 0.70915997
-0.31166619 -0.046311844 0.71049595
-0.30974635 -0.046399251 0.71183693
-0.30781928 -0.046486992 0.71318299
-0.30588487 -0.046575062 0.7145341
-0.30394313 -0.046663467 0.71589041
-0.301994 -0.046752207 0.71725184
-0.30003744 -0.046841286 0.71861845
-0.29807341 -0.046930708 0.71999031
-0.2961019 -0.047020473 0.72136742
-0.29412279 -0.047110576 0.72274977
-0.2921361 -0.047201026 0.72413743
-0.29014179 -0.047291834 0.72553051
-0.28813976 -0.047382981 0.72692889
-0.28613001 -0.047474485 0.7283327
-0.28411248 -0.047566343 0.72974193
-0.38437638 -0.042981382 0.69708157
-0.36802304 -0.041417383 0.67171627
-0.36630872 -0.041491281 0.67291474
-0.33545837 -0.038244441 0.62025678
-0.33303648 -0.038217302 0.61981666
-0.33061802 -0.038190201 0.61937714
-0.32820302 -0.03816314 0.61893827
-0.32579142 -0.038136117 0.61849999
-0.32338324 -0.038109135 0.61806238
-0.32097849 -0.038082194 0.61762542
-0.31857708 -0.038055282 0.61718899
-0.3161791 -0.038028415 0.61675322
-0.31378448 -0.038001582 0.61631805
-0.31139326 -0.03797479 0.61588353
-0.30900538 -0.037948031 0.61544955
-0.34345278 -0.042476494 0.68889314
-0.34164962 -0.042554222 0.69015378
-0.33983982 -0.042632233 0.69141901
-0.33802336 -0.042710535 0.69268888
-0.33620024 -0.04278912 0.69396341
-0.33437037 -0.042867996 0.69524264
-0.33253378 -0.042947166 0.69652665
-0.33069035 -0.043026626 0.69781536
-0.32884011 -0.043106381 0.69910884
-0.32698303 -0.043186437 0.70040721
-0.32511899 -0.043266784 0.70171028
-0.323248 -0.043347433 0.70301825
-0.32137007 -0.043428384 0.70433116
-0.31948507 -0.04350964 0.70564896
-0.31759301 -0.043591198 0.7069717
-0.31569383 -0.043673061 0.70829934
-0.31378752 -0.043755233 0.70963204
-0.31187406 -0.043837719 0.71096981
-0.30995333 -0.043920513 0.71231258
-0.30802533 -0.044003617 0.71366042
-0.30609 -0.044087037 0.71501333
-0.30414736 -0.044170778 0.71637148
-0.30219734 -0.044254839 0.71773475
-0.3002398 -0.044339214 0.71910316
-0.29827484 -0.044423915 0.72047687
-0.29630238 -0.044508938 0.72185582
-0.29432231 -0.044594292 0.72324008
-0.29233468 -0.044679973 0.7246297
-0.29033938 -0.044765983 0.72602463
-0.28833634 -0.04485232 0.72742486
-0.2863256 -0.044938996 0.72883058
-0.28430706 -0.045026004 0.73024172
-0.37238538 -0.039513562 0.67967844
-0.3665401 -0.03914506 0.67333978
-0.36481893 -0.039215066 0.67454398
-0.33355549 -0.03608961 0.62078255
-0.33113292 -0.03606398 0.62034172
-0.32871374 -0.036038384 0.61990142
-0.35787252 -0.039497636 0.6794045
-0.35612023 -0.039568912 0.68063056
-0.35436159 -0.039640449 0.68186104
-0.35259661 -0.039712247 0.68309605
-0.35082522 -0.039784305 0.68433553
-0.34904739 -0.039856624 0.68557948
-0.34726307 -0.039929204 0.68682796
-0.34547225 -0.040002052 0.68808103
-0.34367487 -0.040075164 0.68933862
-0.34187093 -0.040148545 0.69060087
-0.34006038 -0.040222198 0.69186777
-0.33824319 -0.040296119 0.69313931
-0.33641922 -0.040370308 0.69441545
-0.33458859 -0.040444773 0.69569635
-0.33275118 -0.040519517 0.69698203
-0.33090696 -0.040594533 0.69827241
-0.32905594 -0.040669836 0.69956768
-0.32719797 -0.040745407 0.70086759
-0.32533312 -0.040821265 0.70217246
-0.32346132 -0.04089741 0.70348221
-0.32158253 -0.040973838 0.70479685
-0.31969669 -0.04105055 0.70611638
-0.31780374 -0.041127544 0.70744079
-0.31590372 -0.041204836 0.70877028
-0.31399655 -0.041282415 0.71010476
-0.31208217 -0.041360289 0.71144426
-0.31016055 -0.041438457 0.71278882
-0.30823165 -0.041516919 0.71413845
-0.30629545 -0.041595679 0.71549326
-0.3043519 -0.041674741 0.7168532
-0.30240092 -0.0417541 0.71821827
-0.30044252 -0.041833766 0.71958864
-0.29847658 -0.041913733 0.72096413
-0.29650316 -0.041994009 0.72234499
-0.29452214 -0.042074591 0.7237311
-0.29253352 -0.042155486 0.72512257
-0.29053724 -0.042236693 0.72651941
-0.28853321 -0.042318206 0.72792155
-0.28652149 -0.042400043 0.72932923
-0.28450194 -0.04248219 0.73074228
-0.37880364 -0.037758563 0.69139308
-0.3667717 -0.036795866 0.67376524
-0.36504993 -0.036861718 0.67497104
-0.36332199 -0.036927808 0.6761812
-0.36158782 -0.036994133 0.6773957
-0.35984743 -0.0370607 0.67861456
-0.35810071 -0.037127499 0.6798377
-0.35634774 -0.037194543 0.68106538
-0.35458839 -0.037261833 0.68229747
-0.35282269 -0.037329361 0.68353403
-0.35105059 -0.037397142 0.68477511
-0.34927201 -0.037465163 0.68602067
-0.34748694 -0.037533432 0.68727076
-0.34569535 -0.037601952 0.68852538
-0.34389725 -0.037670724 0.68978465
-0.34209254 -0.03773975 0.69104856
-0.34028122 -0.037809025 0.69231707
-0.33846322 -0.037878554 0.69359022
-0.33663851 -0.03794834 0.69486809
-0.33480707 -0.038018387 0.69615066
-0.33296886 -0.03808869 0.697438
-0.33112386 -0.038159255 0.69873011
-0.32927197 -0.03823008 0.70002699
-0.32741323 -0.03830117 0.70132869
-0.32554755 -0.038372528 0.70263529
-0.32367492 -0.038444147 0.70394671
-0.32179525 -0.038516037 0.70526308
-0.31990856 -0.038588192 0.70658433
-0.3180148 -0.038660623 0.7079106
-0.31611389 -0.038733322 0.70924181
-0.31420586 -0.038806301 0.71057808
-0.31229058 -0.038879551 0.71191937
-0.31036806 -0.038953077 0.71326572
-0.3084383 -0.039026886 0.71461719
-0.30650118 -0.039100971 0.71597379
-0.3045567 -0.039175343 0.71733558
-0.30260479 -0.039249994 0.7187025
-0.30064544 -0.039324928 0.72007465
-0.29867858 -0.039400153 0.72145206
-0.2967042 -0.039475664 0.72283477
-0.29472223 -0.039551467 0.72422278
-0.29273266 -0.039627563 0.72561616
-0.29073536 -0.03970395 0.72701484
-0.36704972 -0.034448035 0.67427599
-0.36528122 -0.034505393 0.67539871
-0.3635526 -0.034567297 0.67661041
-0.36181775 -0.034629419 0.6778264
-0.36007664 -0.03469177 0.67904681
-0.35832924 -0.03475434 0.68027157
-0.35657555 -0.034817141 0.68150079
-0.35481548 -0.034880165 0.68273443
-0.35304907 -0.034943424 0.6839726
-0.35127625 -0.035006911 0.68521529
-0.3494969 -0.035070624 0.6864624
-0.34771112 -0.035134573 0.6877141
-0.3459188 -0.035198756 0.68897039
-0.34411994 -0.035263173 0.69023132
-0.34231448 -0.035327829 0.69149685
-0.34050232 -0.035392713 0.6927669
-0.33868358 -0.035457846 0.69404179
-0.33685809 -0.035523217 0.69532132
-0.33502585 -0.035588827 0.69660556
-0.33318684 -0.035654683 0.69789457
-0.33134103 -0.03572078 0.69918835
-0.32948834 -0.035787124 0.70048696
-0.32762876 -0.035853714 0.70179039
-0.32576227 -0.035920557 0.70309871
-0.32388878 -0.035987642 0.70441186
-0.32200828 -0.036054984 0.70572996
-0.32012075 -0.036122575 0.70705301
-0.31822613 -0.03619042 0.708381
-0.31632435 -0.036258522 0.709714
-0.31441543 -0.036326881 0.71105206
-0.31249925 -0.036395498 0.71239507
-0.31057587 -0.036464375 0.71374327
-0.30864519 -0.036533512 0.71509653
-0.30670717 -0.036602914 0.71645498
-0.30476177 -0.036672577 0.71781856
-0.30280891 -0.036742505 0.71918732
-0.30084863 -0.0368127 0.72056133
-0.29888085 -0.036883168 0.72194064
-0.37332171 -0.032620344 0.68579769
-0.36551279 -0.032146078 0.67582691
-0.36378348 -0.032203782 0.6770401
-0.36204794 -0.032261696 0.67825764
-0.36030611 -0.032319818 0.67947954
-0.35855803 -0.032378148 0.6807059
-0.35680366 -0.032436695 0.68193674
-0.35504287 -0.03249545 0.68317199
-0.35327572 -0.032554418 0.6844117
-0.35150215 -0.032613602 0.68565595
-0.34972212 -0.032673001 0.68690473
-0.34793556 -0.032732613 0.68815804
-0.3461425 -0.032792445 0.68941593
-0.34434286 -0.032852501 0.69067848
-0.34253663 -0.032912772 0.69194561
-0.34072378 -0.032973267 0.69321746
-0.33890423 -0.033033986 0.69449395
-0.33707795 -0.033094928 0.69577515
-0.33524492 -0.033156089 0.69706106
-0.33340511 -0.033217482 0.69835174
-0.3315585 -0.033279106 0.69964725
-0.329705 -0.033340957 0.70094758
-0.32784459 -0.033403035 0.70225269
-0.32597727 -0.033465348 0.70356274
-0.32410294 -0.033527888 0.70487761
-0.32222161 -0.033590667 0.70619744
-0.32033321 -0.033653684 0.70752227
-0.3184377 -0.033716932 0.70885199
-0.31653512 -0.033780426 0.71018684
-0.31462526 -0.033844151 0.71152657
-0.31270826 -0.033908121 0.71287149
-0.31078395 -0.033972334 0.71422148
-0.30885234 -0.034036789 0.71557653
-0.30691344 -0.034101494 0.71693683
-0.30496708 -0.034166437 0.71830219
-0.37981451 -0.030729329 0.69772506
-0.36574468 -0.029783769 0.67625564
-0.36401466 -0.029837266 0.67747033
-0.3622784 -0.029890958 0.67868942
-0.36053592 -0.029944843 0.67991292
-0.35878712 -0.029998923 0.68114084
-0.35703203 -0.0300532 0.68237323
-0.35527056 -0.030107673 0.68361008
-0.35350266 -0.030162342 0.68485135
-0.35172835 -0.030217212 0.6860972
-0.34994757 -0.030272283 0.68734759
-0.34816033 -0.030327555 0.68860257
-0.34636652 -0.030383028 0.68986213
-0.34456611 -0.030438701 0.69112623
-0.3427591 -0.030494582 0.69239503
-0.34094545 -0.030550668 0.69366848
-0.33912513 -0.030606961 0.69494665
-0.33729807 -0.030663462 0.69622952
-0.33546424 -0.030720169 0.6975171
-0.33362365 -0.030777089 0.6988095
-0.33177623 -0.030834222 0.70010674
-0.32992193 -0.030891566 0.70140874
-0.32806072 -0.030949125 0.70271564
-0.3261925 -0.031006893 0.7040273
-0.3243174 -0.031064885 0.70534402
-0.3224352 -0.031123089 0.70666558
-0.32054594 -0.031181512 0.70799214
-0.31864962 -0.031240158 0.7093237
-0.31674609 -0.031299021 0.71066022
-0.3148354 -0.031358108 0.7120018
-0.3129175 -0.031417418 0.71334851
-0.3109923 -0.031476956 0.71470028
-0.36793116 -0.027564874 0.68029839
-0.3642461 -0.027467739 0.67790109
-0.36250919 -0.0275172 0.67912179
-0.36076599 -0.027566837 0.68034685
-0.35901654 -0.027616657 0.68157637
-0.3572607 -0.027666654 0.68281031
-0.35549849 -0.02771683 0.68404865
-0.35372993 -0.027767194 0.68529165
-0.35195488 -0.027817739 0.68653905
-0.35017335 -0.027868468 0.68779105
-0.34838533 -0.027919384 0.68904763
-0.34659076 -0.027970482 0.69030875
-0.34478962 -0.028021771 0.69157457
-0.34298187 -0.028073249 0.69284505
-0.34116745 -0.028124915 0.69412017
-0.33934635 -0.028176773 0.6954
-0.33751848 -0.028228819 0.69668448
-0.33568388 -0.028281061 0.69797379
-0.33384249 -0.028333494 0.69926786
-0.33199427 -0.028386127 0.70056683
-0.33013916 -0.028438954 0.70187056
-0.32827705 -0.028491972 0.70317906
-0.32640809 -0.028545193 0.70449257
-0.32453212 -0.028598616 0.70581102
-0.32264906 -0.028652234 0.70713431
-0.32075897 -0.028706057 0.70846266
-0.31886175 -0.028760079 0.70979595
-0.37427527 -0.025601892 0.69202858
-0.36447787 -0.025095198 0.67833245
-0.36274028 -0.025140416 0.6795547
-0.3609964 -0.025185794 0.6807813
-0.35924619 -0.025231339 0.68201238
-0.35748965 -0.025277046 0.68324786
-0.35572675 -0.025322922 0.68448788
-0.35395744 -0.025368962 0.68573242
-0.35218167 -0.025415173 0.6869815
-0.35039943 -0.025461551 0.6882351
-0.34861064 -0.025508096 0.68949324
-0.34681535 -0.025554815 0.69075608
-0.34501344 -0.025601706 0.69202352
-0.34320495 -0.025648769 0.69329566
-0.34138978 -0.025696004 0.69457245
-0.33956784 -0.025743412 0.69585389
-0.33773923 -0.025790995 0.6971401
-0.33590382 -0.025838755 0.69843107
-0.33406162 -0.025886694 0.69972688
-0.3322126 -0.025934812 0.70102751
-0.33035666 -0.025983108 0.70233297
-0.32849374 -0.02603158 0.7036432
-0.32662392 -0.026080238 0.70495844
-0.32474712 -0.026129078 0.70627862
-0.380844 -0.02357015 0.70417404
-0.36470997 -0.022719638 0.6787644
-0.36297166 -0.022760598 0.67998815
-0.3612271 -0.02280171 0.68121636
-0.35947615 -0.022842966 0.68244892
-0.35771894 -0.022884376 0.68368608
-0.35595533 -0.022925936 0.6849277
-0.35418525 -0.022967646 0.6861738
-0.3524088 -0.023009509 0.68742448
-0.35062575 -0.023051521 0.68867964
-0.34883627 -0.023093691 0.6899395
-0.34704021 -0.023136014 0.69120395
-0.34523758 -0.023178494 0.69247305
-0.34342828 -0.02322113 0.69374681
-0.34161234 -0.023263922 0.69502527
-0.33978963 -0.023306871 0.69630837
-0.33796024 -0.02334998 0.69759631
-0.33612403 -0.023393247 0.69888896
-0.33428106 -0.023436679 0.70018649
-0.3324312 -0.02348027 0.70148879
-0.33057442 -0.023524022 0.70279592
-0.36882848 -0.020557653 0.68642938
-0.36320335 -0.020377746 0.68042219
-0.36145803 -0.020414572 0.68165189
-0.35970643 -0.020451536 0.68288612
-0.35794848 -0.020488635 0.68412483
-0.35618418 -0.020525867 0.68536806
-0.35441339 -0.020563236 0.68661577
-0.35263619 -0.02060074 0.68786806
-0.35085243 -0.020638378 0.68912482
-0.3490622 -0.020676158 0.69038635
-0.34726539 -0.020714076 0.69165242
-0.34546196 -0.020752132 0.69292313
-0.34365195 -0.020790331 0.69419861
-0.34183514 -0.020828666 0.69547862
-0.34001172 -0.020867145 0.69676346
-0.33818153 -0.020905767 0.69805306
-0.37524635 -0.018454738 0.69837373
-0.36343533 -0.017991846 0.68085676
-0.3616893 -0.018024383 0.68208802
-0.35993701 -0.018057041 0.68332386
-0.35817838 -0.018089816 0.68456417
-0.3564133 -0.01812271 0.68580896
-0.35464182 -0.018155726 0.68705833
-0.35286382 -0.018188857 0.68831211
-0.35107937 -0.018222112 0.68957061
-0.3492884 -0.018255493 0.69083375
-0.34749085 -0.018288992 0.69210148
-0.34568667 -0.018322615 0.69337386
-0.34387583 -0.01835636 0.69465089
-0.36366755 -0.015602898 0.68129182
-0.36192086 -0.015631134 0.68252474
-0.36016786 -0.015659472 0.68376213
-0.35840851 -0.015687915 0.68500406
-0.35664275 -0.01571646 0.68625045
-0.3548705 -0.015745107 0.68750131
-0.35309181 -0.015773861 0.68875682
-0.35130665 -0.015802721 0.69001698
-0.36974207 -0.013422979 0.69267178
-0.36215273 -0.013234817 0.682962
-0.36039904 -0.013258828 0.684201
-0.35863897 -0.013282925 0.68544447
-0.35687244 -0.013307108 0.68669242
