# .PCD v0.7 - Point Cloud Data file format
VERSION 0.7
FIELDS x y z
SIZE 4 4 4
TYPE F F F
COUNT 1 1 1
WIDTH 889
HEIGHT 1
VIEWPOINT 0 0 0 1 0 0 0
POINTS 889
DATA ascii
-0.18199554 -0.10919733 1.2153828
-0.17772846 -0.10920665 1.2154865
-0.17346065 -0.10921596 1.2155902
-0.16919211 -0.10922528 1.215694
-0.16492285 -0.10923461 1.2157978
-0.16065283 -0.10924393 1.2159015
-0.15638211 -0.10925326 1.2160053
-0.15211065 -0.10926259 1.2161092
-0.14783847 -0.10927191 1.216213
-0.14356576 -0.10928141 1.2163186
-0.1392937 -0.10929199 1.2164364
-0.13502084 -0.10930258 1.2165543
-0.13074711 -0.10931316 1.2166721
-0.12647258 -0.10932375 1.21679
-0.12219721 -0.10933434 1.2169079
-0.11792102 -0.10934495 1.2170259
-0.21061422 -0.10217918 1.1836889
-0.20562485 -0.10177392 1.1789942
-0.20067488 -0.10137185 1.1743364
-0.19596805 -0.10107826 1.1709354
-0.1918586 -0.10108679 1.1710342
-0.18774843 -0.10109531 1.1711329
-0.18363759 -0.10110384 1.1712317
-0.17952605 -0.10111237 1.1713306
-0.17541382 -0.1011209 1.1714294
-0.17152143 -0.10125964 1.1730366
-0.16787274 -0.10155265 1.1764309
-0.16420288 -0.10184736 1.179845
-0.16051166 -0.10214379 1.1832789
-0.15679888 -0.10244194 1.1867329
-0.15306439 -0.10274184 1.1902071
-0.14930794 -0.1030435 1.1937016
-0.14552937 -0.10334694 1.1972169
-0.14156723 -0.10353424 1.1993866
-0.13674684 -0.10308608 1.1941949
-0.13196802 -0.10264179 1.1890481
-0.12723018 -0.1022013 1.1839452
-0.12253285 -0.10176457 1.1788859
-0.1178755 -0.10133157 1.1738698
-0.11363436 -0.10123789 1.1727846
-0.10978526 -0.10149958 1.1758162
-0.10596197 -0.1018066 1.1793728
-0.10211547 -0.10211547 1.1829509
-0.098245561 -0.10242622 1.1865509
-0.094352037 -0.10273888 1.1901728
-0.21462981 -0.097937874 1.1828347
-0.20962812 -0.097549722 1.1781468
-0.20466588 -0.097164616 1.1734958
-0.1997427 -0.09678255 1.1688814
-0.19485806 -0.096403465 1.1643031
-0.19001141 -0.09602727 1.1597596
-0.18601209 -0.096072182 1.160302
-0.18244468 -0.09634719 1.1636235
-0.1788567 -0.096623734 1.1669633
-0.17524809 -0.096901879 1.1703227
-0.17161863 -0.097181633 1.1737013
-0.16796814 -0.097462997 1.1770995
-0.16429648 -0.097746 1.1805174
-0.16060342 -0.098030657 1.1839553
-0.15688878 -0.098316967 1.1874132
-0.15315239 -0.09860497 1.1908915
-0.14939404 -0.098894648 1.1943901
-0.14561352 -0.099186018 1.1979091
-0.14166895 -0.099379711 1.2002484
-0.13684468 -0.098949231 1.1950493
-0.132062 -0.098522447 1.1898949
-0.12732042 -0.098099343 1.1847849
-0.1226194 -0.097679861 1.1797186
-0.1179584 -0.09726394 1.1746954
-0.11365254 -0.097121261 1.1729722
-0.1098502 -0.097414322 1.1765116
-0.10602483 -0.097709157 1.1800724
-0.10217623 -0.098005772 1.1836548
-0.098304205 -0.098304205 1.1872591
-0.09440852 -0.098604456 1.1908853
-0.090488955 -0.098906532 1.1945336
-0.2186396 -0.093702689 1.1819818
-0.21362561 -0.093331575 1.1773006
-0.20865116 -0.09296339 1.1726562
-0.20371585 -0.09259811 1.1680485
-0.19881913 -0.092235677 1.1634767
-0.19396007 -0.091875821 1.1589375
-0.1896653 -0.091773532 1.1576471
-0.18611662 -0.092035688 1.160954
-0.18254724 -0.092299163 1.1642776
-0.17895754 -0.09256424 1.1676213
-0.17534715 -0.092830844 1.1709843
-0.17171595 -0.093099006 1.1743668
-0.16806367 -0.093368709 1.1777689
-0.16439018 -0.09363997 1.1811907
-0.16069528 -0.093912825 1.1846325
-0.15697879 -0.094187275 1.1880945
-0.1532405 -0.094463326 1.1915766
-0.14948024 -0.094740994 1.1950792
-0.14569771 -0.095020249 1.1986017
-0.14177082 -0.095219202 1.2011114
-0.13694265 -0.094806448 1.1959049
-0.13215616 -0.094397254 1.1907432
-0.12741078 -0.09399157 1.1856258
-0.12270605 -0.093589358 1.1805522
-0.1180414 -0.093190581 1.175522
-0.11371959 -0.093043305 1.1736642
-0.1099152 -0.093324222 1.1772078
-0.10608775 -0.093606837 1.1807728
-0.10223706 -0.093891174 1.1843594
-0.098362908 -0.094177246 1.187968
-0.094465062 -0.094465062 1.1915985
-0.090543315 -0.094754629 1.1952512
-0.08659745 -0.095045976 1.1989263
-0.22264361 -0.089473598 1.1811301
-0.21761738 -0.089119501 1.1764556
-0.21263076 -0.088768184 1.1718179
-0.20768332 -0.088419631 1.1672168
-0.20277424 -0.088073663 1.1626496
-0.19790317 -0.087730274 1.1581166
-0.19330178 -0.087494485 1.155004
-0.18977134 -0.087743737 1.1582943
-0.18622094 -0.087994508 1.1616048
-0.18264991 -0.088246584 1.1649324
-0.17905848 -0.088500164 1.1682799
-0.17544638 -0.08875522 1.1716468
-0.17181335 -0.089011744 1.1750331
-0.16815929 -0.08926975 1.178439
-0.16448398 -0.089529254 1.1818647
-0.16078724 -0.089790277 1.1853105
-0.15706889 -0.090052828 1.1887764
-0.15332875 -0.090316929 1.1922628
-0.14956646 -0.090582497 1.1957685
-0.14578199 -0.090849645 1.199295
-0.14187282 -0.091052711 1.2019757
-0.13704075 -0.090657733 1.1967616
-0.13225041 -0.090266153 1.1915925
-0.12750128 -0.089877956 1.1864679
-0.12279283 -0.089493081 1.1813872
-0.11812454 -0.089111499 1.17635
-0.11378672 -0.088960528 1.1743571
-0.10998028 -0.089229286 1.1779048
-0.10615076 -0.08949966 1.1814741
-0.10229797 -0.089771688 1.185065
-0.098421685 -0.09004537 1.1886779
-0.094521679 -0.090320714 1.1923127
-0.090597749 -0.090597749 1.1959698
-0.086649671 -0.090876482 1.1996493
-0.082677223 -0.091156937 1.2033516
-0.22160342 -0.084913462 1.1756119
-0.21660466 -0.084578969 1.1709808
-0.21164505 -0.08424706 1.1663857
-0.2067237 -0.083917543 1.1618235
-0.20184067 -0.083590582 1.1572968
-0.19699553 -0.083266146 1.1528051
-0.19340959 -0.083471507 1.1556482
-0.18987747 -0.083709419 1.1589421
-0.18632539 -0.083948798 1.1622562
-0.18275268 -0.084189445 1.1655879
-0.17915955 -0.084431514 1.1689394
-0.17554566 -0.084674962 1.1723099
-0.17191088 -0.084919833 1.1757001
-0.16825503 -0.085166126 1.1791099
-0.16457789 -0.085413836 1.1825395
-0.16087931 -0.085663013 1.1859893
-0.15715909 -0.085913636 1.1894591
-0.15341695 -0.086165681 1.1929486
-0.14965276 -0.086419202 1.1964586
-0.14586636 -0.086674221 1.1999892
-0.14197499 -0.086880215 1.2028412
-0.13713901 -0.086503066 1.1976197
-0.13234483 -0.086129174 1.1924431
-0.12759191 -0.085758492 1.1873112
-0.12287972 -0.085390992 1.1822232
-0.11820783 -0.085026689 1.1771795
-0.11385394 -0.084872931 1.1750507
-0.11004543 -0.085129492 1.1786027
-0.10621384 -0.085387595 1.1821761
-0.10235894 -0.085647278 1.1857713
-0.098480523 -0.08590854 1.1893885
-0.094578363 -0.086171396 1.1930277
-0.09065225 -0.086435862 1.1966892
-0.086701952 -0.086701952 1.2003732
-0.082727268 -0.086969689 1.20408
-0.078727938 -0.087239072 1.2078094
-0.22558378 -0.080713458 1.1747694
-0.22057293 -0.080395743 1.170145
-0.21560086 -0.080080323 1.1655542
-0.21066751 -0.079767309 1.1609983
-0.20577258 -0.079456739 1.156478
-0.20091562 -0.079148576 1.1519928
-0.19703126 -0.079218753 1.1530142
-0.19351752 -0.079444036 1.1562932
-0.18998374 -0.079670601 1.1595907
-0.18642996 -0.079898551 1.1629086
-0.1828554 -0.080127642 1.166243
-0.17926072 -0.080358252 1.1695994
-0.17564508 -0.080590099 1.1729739
-0.17200853 -0.080823287 1.1763679
-0.16835088 -0.081057824 1.1797816
-0.16467191 -0.081293732 1.1832151
-0.16097163 -0.081531078 1.1866697
-0.15724948 -0.081769735 1.1901432
-0.15350528 -0.082009666 1.1936355
-0.14973919 -0.082251102 1.1971495
-0.14595085 -0.082493961 1.2006842
-0.1420773 -0.082701705 1.2037079
-0.1372374 -0.082342438 1.1984788
-0.13243936 -0.081986271 1.1932949
-0.12768267 -0.08163318 1.1881558
-0.12296676 -0.081283107 1.1830605
-0.11829124 -0.080936112 1.17801
-0.11392124 -0.080780514 1.1757454
-0.11011067 -0.081024833 1.1793014
-0.106277 -0.081270643 1.1828791
-0.10241999 -0.08151795 1.1864786
-0.098539427 -0.081766762 1.1901
-0.094635114 -0.082017101 1.1937436
-0.090706818 -0.082268976 1.1974096
-0.0867543 -0.082522385 1.201098
-0.082777366 -0.082777366 1.2048092
-0.078775771 -0.083033927 1.2085433
-0.22955839 -0.076519467 1.173928
-0.22453523 -0.076218382 1.1693089
-0.21955101 -0.075919509 1.1647238
-0.21460575 -0.075622976 1.1601745
-0.20969895 -0.075328745 1.1556605
-0.20483018 -0.075036801 1.1511816
-0.20063648 -0.074985348 1.1503923
-0.19714095 -0.075198092 1.1536561
-0.19362558 -0.075412065 1.1569388
-0.19009012 -0.075627252 1.1602401
-0.18653466 -0.075843766 1.1635617
-0.18295847 -0.07606139 1.1669004
-0.17936201 -0.076280393 1.1702603
-0.17574462 -0.076500602 1.1736386
-0.17210628 -0.076722078 1.1770364
-0.16844682 -0.076944843 1.180454
-0.1647661 -0.077168934 1.1838919
-0.16106389 -0.077394336 1.1873499
-0.15733966 -0.077620901 1.1908257
-0.15359372 -0.077848874 1.1943232
-0.14982571 -0.078078181 1.1978412
-0.14603543 -0.078308851 1.20138
-0.14217976 -0.078517176 1.204576
-0.13733593 -0.078175835 1.1993393
-0.13253404 -0.07783746 1.1941481
-0.12777355 -0.07750199 1.1890014
-0.12305391 -0.077169403 1.183899
-0.11837476 -0.07683976 1.1788418
-0.11398862 -0.076683253 1.1764407
-0.11017599 -0.076915309 1.1800009
-0.10634022 -0.077148788 1.1835828
-0.1024811 -0.07738369 1.1871866
-0.098598421 -0.077620037 1.1908125
-0.09469194 -0.077857815 1.1944604
-0.090761445 -0.07809706 1.1981307
-0.086806715 -0.078337766 1.2018236
-0.082827538 -0.07857997 1.2055393
-0.078823656 -0.078823656 1.2092779
-0.074794881 -0.079068869 1.2130399
-0.23352735 -0.072331481 1.173088
-0.22849174 -0.072046943 1.1684732
-0.22349556 -0.071764633 1.1638947
-0.21853839 -0.071484514 1.1593517
-0.21361975 -0.071206585 1.1548442
-0.20873924 -0.070930809 1.1503716
-0.2042253 -0.070771143 1.1477821
-0.20074792 -0.070971489 1.1510313
-0.1972508 -0.071172968 1.1542989
-0.19373375 -0.071375594 1.1575851
-0.19019663 -0.071579382 1.1608902
-0.18663949 -0.071784422 1.1642156
-0.18306169 -0.07199055 1.1675587
-0.1794634 -0.072197922 1.1709218
-0.17584425 -0.072406456 1.1743039
-0.17220412 -0.072616197 1.1777055
-0.16854282 -0.072827145 1.1811267
-0.1648602 -0.073039331 1.184568
-0.16115601 -0.073252738 1.1880291
-0.15743008 -0.073467374 1.1915101
-0.15368226 -0.073683277 1.1950116
-0.14991231 -0.073900439 1.1985337
-0.14612012 -0.074118897 1.2020767
-0.14228234 -0.074326597 1.2054452
-0.1374346 -0.074003249 1.200201
-0.13262884 -0.073682696 1.1950022
-0.12786455 -0.073364906 1.1898483
-0.12314119 -0.073049858 1.1847388
-0.11845841 -0.072737619 1.1796747
-0.11405607 -0.072581135 1.1771369
-0.11024138 -0.072800912 1.1807013
-0.10640353 -0.07302203 1.1842874
-0.1025423 -0.073244505 1.1878955
-0.098657466 -0.073468328 1.1915256
-0.094748832 -0.073693536 1.195178
-0.09081614 -0.073920116 1.1988528
-0.086859189 -0.074148089 1.2025501
-0.08287774 -0.074377462 1.2062701
-0.078871608 -0.074608274 1.2100135
-0.074840516 -0.074840516 1.21378
-0.23324735 -0.068116486 1.1716814
-0.22801094 -0.067787036 1.1660146
-0.22282498 -0.067460768 1.1604024
-0.21768866 -0.067137621 1.1548439
-0.21264279 -0.06683059 1.1495626
-0.2077979 -0.066576026 1.1451838
-0.20433851 -0.066764064 1.1484183
-0.2008595 -0.066953167 1.1516711
-0.19736075 -0.067143351 1.1549424
-0.19384204 -0.067334607 1.1582322
-0.19030312 -0.067526914 1.1615402
-0.18674442 -0.067720503 1.1648701
-0.18316473 -0.067915015 1.1682159
-0.17956491 -0.068110831 1.1715841
-0.175944 -0.068307668 1.17497
-0.17230198 -0.068505608 1.1783748
-0.16863932 -0.068704911 1.181803
-0.1649546 -0.068905093 1.1852463
-0.16124843 -0.069106475 1.1887103
-0.15752062 -0.069309071 1.1921953
-0.15377089 -0.069512874 1.1957009
-0.14999904 -0.069717862 1.199227
-0.14620489 -0.069924071 1.202774
-0.1423851 -0.070129976 1.2063158
-0.13753343 -0.069824658 1.201064
-0.13272379 -0.069521986 1.1958576
-0.12795569 -0.069221929 1.1906964
-0.12322863 -0.068924487 1.18558
-0.11854217 -0.068629682 1.180509
-0.11412361 -0.068474166 1.1778339
-0.11030684 -0.06868162 1.1814024
-0.10646691 -0.068890356 1.1849929
-0.10260357 -0.069100365 1.1886053
-0.098716602 -0.069311656 1.1922398
-0.094805785 -0.069524243 1.1958965
-0.090870902 -0.069738135 1.1995757
-0.08691173 -0.069953345 1.2032775
-0.082928032 -0.070169874 1.207002
-0.078919604 -0.070387751 1.2107499
-0.074886203 -0.070606992 1.2145211
-0.23343456 -0.064039573 1.1726218
-0.22819307 -0.063729599 1.1669459
-0.22300211 -0.063422613 1.1613249
-0.21786091 -0.063118577 1.1557577
-0.21276875 -0.062817439 1.1502435
-0.20791279 -0.06257569 1.1458169
-0.20445161 -0.06275247 1.1490539
-0.20097163 -0.062930509 1.1523139
-0.19747096 -0.063109279 1.1555873
-0.19395044 -0.063289091 1.1588799
-0.19040935 -0.063469782 1.1621885
-0.1899478 -0.064707495 1.1848521
-0.18456344 -0.064286143 1.1771368
-0.17966615 -0.064018972 1.1722447
-0.17604369 -0.064204171 1.1756358
-0.17240013 -0.064390413 1.179046
-0.16873513 -0.064577639 1.1824744
-0.16504887 -0.064766012 1.1859236
-0.16134092 -0.064955436 1.1893922
-0.15761127 -0.065145992 1.1928813
-0.15385963 -0.06533765 1.1963909
-0.15008587 -0.065530449 1.1999211
-0.14628975 -0.06572438 1.2034723
-0.14247112 -0.065919474 1.2070445
-0.13763237 -0.065640055 1.2019281
-0.13281889 -0.065355331 1.1967145
-0.12804697 -0.065073051 1.1915458
-0.12331621 -0.064793259 1.1864226
-0.11862605 -0.064515926 1.1813443
-0.11419123 -0.064362332 1.1785319
-0.11037241 -0.064557448 1.1821046
-0.10653036 -0.064753748 1.1856991
-0.1026649 -0.064951263 1.1893158
-0.098775797 -0.065149993 1.1929547
-0.094862811 -0.065349936 1.1966158
-0.090925723 -0.065551102 1.2002994
-0.086964332 -0.06575352 1.2040057
-0.082978375 -0.065957174 1.2077348
-0.078967668 -0.066162102 1.2114873
-0.074931949 -0.066368297 1.2152629
-0.23362209 -0.059956111 1.1735638
-0.22837551 -0.059665672 1.1678789
-0.22317953 -0.059378039 1.1622488
-0.21803339 -0.059093162 1.1566727
-0.21293645 -0.058811016 1.1511501
-0.20802775 -0.058570921 1.1464505
-0.20456541 -0.0587366 1.1496935
-0.20108242 -0.05890293 1.1529492
-0.19758135 -0.059070714 1.1562333
-0.20167226 -0.061563108 1.2050188
-0.19642289 -0.061250146 1.198893
-0.19120979 -0.060934987 1.1927241
-0.18603149 -0.060617004 1.1865
-0.18088436 -0.060294785 1.1801929
-0.17614396 -0.060096174 1.1763054
-0.17249839 -0.060270522 1.179718
-0.16883153 -0.060445853 1.1831499
-0.16514334 -0.060622241 1.1866025
-0.16143355 -0.060799651 1.190075
-0.157702 -0.060978107 1.1935681
-0.15394847 -0.061157614 1.1970817
-0.15017278 -0.061338175 1.200616
-0.14637473 -0.061519813 1.2041713
-0.14255412 -0.061702527 1.2077477
-0.13773148 -0.061449427 1.2027936
-0.1329141 -0.061182681 1.1975724
-0.12813836 -0.060918242 1.1923963
-0.12340391 -0.060656156 1.1872663
-0.11871005 -0.06039634 1.1821808
-0.11425892 -0.060245611 1.1792305
-0.11043803 -0.060428359 1.1828074
-0.1065939 -0.060612217 1.1864063
-0.10272633 -0.060797215 1.1900274
-0.098835066 -0.060983337 1.1936705
-0.094919913 -0.061170608 1.1973361
-0.090980619 -0.061359026 1.2010241
-0.087016977 -0.061548594 1.2047347
-0.083028778 -0.061739348 1.2084684
-0.079015784 -0.06193129 1.2122254
-0.074977748 -0.06212442 1.2160057
-0.23380992 -0.055866089 1.1745074
-0.22855824 -0.055595249 1.1688133
-0.22335723 -0.055327021 1.1631743
-0.21820617 -0.05506137 1.1575893
-0.21310453 -0.054798309 1.1520588
-0.20814285 -0.054561719 1.1470848
-0.20467891 -0.054716144 1.1503314
-0.20119511 -0.054871395 1.1535953
-0.19769125 -0.055027463 1.1568764
-0.20207432 -0.057431649 1.2074212
-0.19688989 -0.057161581 1.2017434
-0.19174065 -0.056890085 1.1960355
-0.18662758 -0.056617357 1.1903018
-0.18155441 -0.056344468 1.1845647
-0.17651705 -0.056070127 1.178797
-0.17259663 -0.056145892 1.1803899
-0.16892794 -0.056309313 1.1838256
-0.16523792 -0.056473717 1.187282
-0.16152628 -0.056639083 1.1907586
-0.15779284 -0.056805421 1.1942556
-0.15403742 -0.056972746 1.1977733
-0.15025979 -0.057141051 1.2013117
-0.1464598 -0.057310358 1.2048712
-0.14263722 -0.057480671 1.2084517
-0.13783072 -0.057252761 1.2036602
-0.13300945 -0.057004049 1.1984315
-0.1282299 -0.056757495 1.193248
-0.12349172 -0.05651316 1.1881112
-0.11879417 -0.05627092 1.1830184
-0.11432669 -0.056124009 1.1799299
-0.11050373 -0.056294356 1.1835111
-0.10665752 -0.056465745 1.1871144
-0.10278782 -0.056638181 1.1907396
-0.098894395 -0.056811675 1.1943871
-0.094977066 -0.056986239 1.1980571
-0.091035582 -0.057161875 1.2017496
-0.08706972 -0.057338595 1.2054648
-0.083079249 -0.057516403 1.209203
-0.079063959 -0.057695322 1.2129645
-0.075023606 -0.057875354 1.2167494
-0.23399806 -0.051769484 1.1754525
-0.22874126 -0.051518299 1.1697493
-0.22353521 -0.051269542 1.1641011
-0.2183793 -0.051023204 1.1585078
-0.2132729 -0.050779261 1.152969
-0.20825808 -0.050548077 1.1477199
-0.20479253 -0.050691221 1.15097
-0.20130728 -0.05083517 1.1542385
-0.19780067 -0.050979551 1.1575167
-0.2020946 -0.053182788 1.2075423
-0.19697015 -0.052948963 1.2022332
-0.19187851 -0.052713878 1.1968955
-0.18682198 -0.052478086 1.1915417
-0.18180282 -0.052242193 1.1861856
-0.1768166 -0.052004881 1.1807973
-0.17269486 -0.052016526 1.1810617
-0.16902447 -0.052168041 1.184502
-0.1653326 -0.052320443 1.1879623
-0.16161911 -0.052473739 1.191443
-0.15788379 -0.052627932 1.194944
-0.15412648 -0.052783038 1.1984658
-0.15034692 -0.052939057 1.2020082
-0.14654498 -0.053096008 1.2055719
-0.14272042 -0.053253885 1.2091566
-0.13793011 -0.053050041 1.2045282
-0.13310495 -0.052819423 1.1992919
-0.1283216 -0.052590825 1.1941015
-0.12357967 -0.052364267 1.1889573
-0.1188784 -0.052139651 1.1838573
-0.11439456 -0.051997527 1.1806303
-0.11056953 -0.052155439 1.1842158
-0.1067212 -0.052314315 1.1878232
-0.10284937 -0.052474167 1.1914527
-0.098953821 -0.05263501 1.1951047
-0.095034309 -0.052796837 1.1987791
-0.091090612 -0.052959658 1.202476
-0.0871225 -0.053123478 1.2061956
-0.083129786 -0.053288322 1.2099385
-0.079112202 -0.053454187 1.2137046
-0.075069517 -0.053621083 1.217494
-0.23418649 -0.047666274 1.176399
-0.22892457 -0.047434822 1.1706867
-0.22371349 -0.047205597 1.1650295
-0.21855278 -0.046978638 1.1594281
-0.21344151 -0.046753854 1.1538805
-0.20837891 -0.046531212 1.1483858
-0.20490628 -0.046661828 1.1516093
-0.20141943 -0.046794411 1.1548815
-0.19791265 -0.046927739 1.158172
-0.20177658 -0.04885117 1.2056421
-0.19672225 -0.04865174 1.2007202
-0.19169666 -0.048450805 1.1957611
-0.18670173 -0.04824876 1.1907747
-0.18173705 -0.048045427 1.1857564
-0.17680603 -0.047841631 1.1807268
-0.17279267 -0.047882307 1.1817306
-0.16912109 -0.048022036 1.1851791
-0.1654274 -0.048162408 1.1886435
-0.16171207 -0.048303604 1.1921282
-0.15797485 -0.04844562 1.1956332
-0.1542156 -0.048588481 1.1991589
-0.15043415 -0.048732188 1.2027056
-0.14663024 -0.048876747 1.2062733
-0.1428037 -0.049022164 1.2098622
-0.13802963 -0.048841257 1.2053974
-0.13320059 -0.048628785 1.2001536
-0.12841345 -0.048418187 1.1949561
-0.12366774 -0.048209459 1.1898047
-0.11896277 -0.048002522 1.1846975
-0.11446249 -0.047866132 1.1813314
-0.1106354 -0.048011586 1.1849213
-0.10678497 -0.04815793 1.1885329
-0.102911 -0.048305165 1.1921667
-0.099013299 -0.048453316 1.1958231
-0.095091604 -0.048602376 1.1995019
-0.091145694 -0.048752349 1.2032032
-0.087175362 -0.048903249 1.2069274
-0.083180368 -0.049055088 1.2106748
-0.079160489 -0.049207874 1.2144455
-0.075115487 -0.049361605 1.2182395
-0.23437522 -0.043556456 1.1773471
-0.22910814 -0.043344785 1.1716255
-0.22389218 -0.043135189 1.1659601
-0.21872656 -0.042927641 1.16035
-0.21361038 -0.042722076 1.1547935
-0.20854299 -0.04251847 1.14929
-0.20502014 -0.042627949 1.1522492
-0.20153168 -0.042749144 1.1555251
-0.19802171 -0.042870678 1.1588103
-0.20108554 -0.044450488 1.2015131
-0.19612488 -0.044286266 1.1970741
-0.19118601 -0.04411985 1.1925758
-0.18626991 -0.043951329 1.1880206
-0.18137693 -0.04378064 1.1834068
-0.17654374 -0.04361669 1.1789752
-0.17289159 -0.043743655 1.1824071
-0.16921772 -0.043871261 1.1858563
-0.16552231 -0.043999601 1.1893255
-0.16180509 -0.04412866 1.192814
-0.15806603 -0.04425849 1.1963233
-0.15430488 -0.044389077 1.1998531
-0.15052146 -0.044520434 1.2034037
-0.14671563 -0.044652581 1.2069757
-0.1428871 -0.044785507 1.2105688
-0.13812931 -0.044626392 1.2062678
-0.13329634 -0.044432115 1.2010164
-0.12850542 -0.044239573 1.195812
-0.12375593 -0.044048723 1.1906532
-0.11904723 -0.043859508 1.1855386
-0.1145305 -0.043729831 1.1820334
-0.11070134 -0.043862794 1.1856275
-0.10684882 -0.043996572 1.1892436
-0.10297272 -0.044131164 1.1928816
-0.099072859 -0.044266596 1.1965424
-0.095148981 -0.044402856 1.2002256
-0.091200858 -0.044539951 1.2039313
-0.087228276 -0.044677898 1.2076601
-0.083231024 -0.044816706 1.2114121
-0.079208836 -0.044956367 1.2151872
-0.075161509 -0.045096908 1.218986
-0.23456426 -0.03944001 1.1782967
-0.22929206 -0.039248191 1.1725661
-0.22407119 -0.039058279 1.1668923
-0.21890059 -0.038870197 1.1612732
-0.21377954 -0.038683917 1.155708
-0.20870733 -0.038499411 1.1501957
-0.20513415 -0.038589593 1.15289
-0.20164417 -0.038699389 1.1561701
-0.19813332 -0.03880962 1.1594634
-0.19982782 -0.039965563 1.193998
-0.19504158 -0.039847206 1.190462
-0.19024821 -0.039722152 1.186726
-0.18545358 -0.039591212 1.182814
-0.18066901 -0.039456453 1.1787879
-0.17664571 -0.03948551 1.1796561
-0.17298973 -0.039600059 1.1830783
-0.16931446 -0.039715737 1.1865343
-0.16561732 -0.039832011 1.190008
-0.16189826 -0.039948918 1.1935008
-0.15815727 -0.04006651 1.1970139
-0.15439422 -0.0401848 1.2005478
-0.1506089 -0.040303789 1.2041028
-0.14680108 -0.040423486 1.2076788
-0.14297058 -0.040543895 1.2112761
-0.13822912 -0.040405437 1.2071395
-0.13339224 -0.04022941 1.2018806
-0.12859754 -0.040054973 1.1966692
-0.12384426 -0.039882049 1.1915029
-0.11913183 -0.039710611 1.1863811
-0.11459859 -0.039588608 1.1827362
-0.11076736 -0.039709054 1.1863346
-0.10691272 -0.03983023 1.1899549
-0.1030345 -0.039952155 1.1935974
-0.099132471 -0.040074829 1.1972624
-0.095206417 -0.040198267 1.2009501
-0.091256082 -0.040322457 1.2046604
-0.087281264 -0.040447418 1.2083937
-0.083281741 -0.040573154 1.2121502
-0.079257257 -0.040699672 1.21593
-0.075207591 -0.04082698 1.2197334
-0.23475361 -0.035316914 1.1792479
-0.22947644 -0.035145041 1.1735089
-0.2242505 -0.034974847 1.1678261
-0.2190749 -0.034806293 1.1621979
-0.21394897 -0.034639355 1.1566238
-0.20887195 -0.034474012 1.1511029
-0.2052483 -0.03454674 1.1535314
-0.20175609 -0.034644984 1.1568118
-0.19824398 -0.03474379 1.160111
-0.19471203 -0.034843203 1.1634305
-0.19115984 -0.034943197 1.1667693
-0.18830259 -0.035177406 1.1745896
-0.18399507 -0.035145126 1.1735117
-0.18038069 -0.035246801 1.1769067
-0.17674427 -0.035348855 1.1803143
-0.1730891 -0.035451986 1.1837579
-0.16941115 -0.035555426 1.1872119
-0.16571228 -0.035659604 1.1906904
-0.16199151 -0.035764359 1.1941882
-0.15824866 -0.035869695 1.1977055
-0.15448369 -0.035975657 1.2012435
-0.15069643 -0.036082242 1.2048025
-0.14688665 -0.036189463 1.2083826
-0.14305417 -0.036297329 1.2119843
-0.13832909 -0.036178377 1.2080125
-0.13348833 -0.036020663 1.2027463
-0.12868978 -0.035864368 1.1975275
-0.12393271 -0.035709426 1.192354
-0.11921656 -0.035555817 1.1872249
-0.11466678 -0.03544246 1.1834399
-0.11083345 -0.035550352 1.1870425
-0.10697673 -0.035658907 1.1906672
-0.10309637 -0.035768125 1.194314
-0.09919218 -0.035878021 1.1979835
-0.095263936 -0.035988599 1.2016757
-0.09131138 -0.036099847 1.2053903
-0.08733432 -0.036211789 1.2091281
-0.083332509 -0.036324427 1.2128892
-0.079305716 -0.036437765 1.2166735
-0.07525374 -0.036551815 1.2204818
-0.22966111 -0.031035285 1.1744533
-0.22443007 -0.030884871 1.1687613
-0.21924947 -0.030735908 1.1631241
-0.21411864 -0.030588377 1.1575412
-0.20903681 -0.030442255 1.1520115
-0.20536251 -0.030499382 1.1541734
-0.20186861 -0.030586153 1.157457
-0.19835503 -0.030673459 1.1607609
-0.19482131 -0.030761261 1.1640835
-0.19126733 -0.030849569 1.1674253
-0.18769321 -0.030938439 1.1707884
-0.18409914 -0.031027945 1.1741755
-0.18048178 -0.031117547 1.1775663
-0.17684494 -0.031207932 1.1809866
-0.173187 -0.031298857 1.1844275
-0.16950767 -0.031390309 1.1878883
-0.1658075 -0.031482439 1.1913747
-0.16208479 -0.031574957 1.1948758
-0.15834013 -0.031668026 1.1983978
-0.15457326 -0.031761628 1.2019399
-0.15078406 -0.031855788 1.2055031
-0.14697233 -0.031950504 1.2090875
-0.14313784 -0.032045785 1.2126931
-0.13842919 -0.031945199 1.2088867
-0.13358457 -0.031805851 1.2036134
-0.12878217 -0.031667747 1.1983871
-0.12402128 -0.031530835 1.1932061
-0.11930139 -0.031395104 1.1880697
-0.11473504 -0.031291377 1.1841444
-0.11089963 -0.031386688 1.1877513
-0.1070408 -0.031482588 1.1913804
-0.1031583 -0.031579074 1.1950315
-0.099251933 -0.031676151 1.1987052
-0.095321506 -0.031773835 1.2024019
-0.091366746 -0.03187212 1.2061212
-0.087387435 -0.031971011 1.2098635
-0.083383344 -0.032070518 1.213629
-0.079354256 -0.032170642 1.2174181
-0.22610736 -0.026966933 1.1774961
-0.22043237 -0.026781503 1.1693994
-0.21483494 -0.026598612 1.1614136
-0.20931341 -0.026418198 1.1535358
-0.20547663 -0.026447486 1.1548147
-0.20198137 -0.026522806 1.1581035
-0.19846612 -0.026598552 1.1614109
-0.19493073 -0.026674731 1.1647372
-0.19137503 -0.026751349 1.1680827
-0.18779923 -0.026828462 1.1714498
-0.18420322 -0.02690609 1.1748394
-0.18058431 -0.026983863 1.1782353
-0.17694576 -0.027062293 1.1816599
-0.17328602 -0.027141184 1.1851046
-0.16960487 -0.027220534 1.1885694
-0.16590212 -0.02730035 1.1920545
-0.16217847 -0.027380781 1.1955665
-0.15843175 -0.027461503 1.1990912
-0.15466292 -0.027542714 1.2026372
-0.15087177 -0.02762441 1.2062044
-0.1470581 -0.027706597 1.2097931
-0.14322162 -0.027789269 1.2134029
-0.13852945 -0.027705889 1.2097622
-0.13368094 -0.027584957 1.2044817
-0.12887467 -0.027465094 1.199248
-0.12410998 -0.027346268 1.1940595
-0.11938636 -0.027228467 1.1889158
-0.11480339 -0.027135346 1.1848497
-0.11096589 -0.027218049 1.1884609
-0.10710495 -0.027301261 1.1920943
-0.10322031 -0.02738498 1.1957499
-0.099311776 -0.027469216 1.199428
-0.095379166 -0.027553981 1.2031292
-0.091422163 -0.027639259 1.2068528
-0.08744061 -0.027725073 1.2105998
-0.083434246 -0.027811415 1.2143699
-0.079402842 -0.027898295 1.2181635
-0.22273491 -0.022897981 1.1816144
-0.2170635 -0.022739986 1.1734613
-0.21146983 -0.022584155 1.1654199
-0.20595258 -0.02243048 1.1574897
-0.2020942 -0.02245491 1.1587504
-0.19857733 -0.022519078 1.1620617
-0.19504027 -0.022583611 1.1653918
-0.19148289 -0.022648513 1.168741
-0.1879053 -0.022713827 1.1721114
-0.18430738 -0.022779563 1.1755036
-0.180687 -0.022845482 1.1789052
-0.17704667 -0.022911923 1.1823338
-0.17338513 -0.022978751 1.1857824
-0.16970217 -0.023045974 1.1892513
-0.16599758 -0.023113588 1.1927404
-0.1622712 -0.0231816 1.1962501
-0.15852362 -0.023250131 1.1997865
-0.15475287 -0.023318924 1.2033365
-0.15095961 -0.02338811 1.2069067
-0.14714396 -0.023457734 1.2104995
-0.1433055 -0.023527769 1.2141136
-0.13862985 -0.023460437 1.210639
-0.13377745 -0.023357969 1.2053514
-0.1289673 -0.023256399 1.20011
-0.12419881 -0.02315571 1.1949141
-0.11947144 -0.023055891 1.1897631
-0.1148718 -0.022974361 1.1855558
-0.11103223 -0.023044426 1.1891714
-0.10716917 -0.023114918 1.1928091
-0.10328241 -0.023185845 1.1964692
-0.099371701 -0.023257207 1.2001517
-0.095436879 -0.023329014 1.2038572
-0.091477662 -0.023401262 1.2075855
-0.087493852 -0.023473959 1.2113369
-0.083485194 -0.023547107 1.2151115
-0.21933882 -0.018800469 1.1857618
-0.21367116 -0.018670296 1.1775516
-0.20808163 -0.018541927 1.1694553
-0.20256872 -0.018415339 1.1614712
-0.19868866 -0.018435029 1.1627132
-0.19514993 -0.018487887 1.166047
-0.19159088 -0.018541053 1.1694001
-0.18801147 -0.018594541 1.1727737
-0.18441142 -0.018648347 1.1761672
-0.18078983 -0.018702395 1.1795762
-0.17714772 -0.018756816 1.1830086
-0.17348436 -0.018811557 1.1864611
-0.16979957 -0.018866619 1.1899339
-0.16609316 -0.018922005 1.1934271
-0.16236489 -0.018977715 1.1969408
-0.15861462 -0.019033754 1.2004752
-0.15484266 -0.019090192 1.2040348
-0.15104741 -0.019146854 1.2076086
-0.14722992 -0.019203903 1.2112067
-0.14338948 -0.019261273 1.214825
-0.13873041 -0.019208824 1.2115171
-0.1338741 -0.019124873 1.2062222
-0.12906009 -0.019041652 1.2009734
-0.12428778 -0.018959152 1.19577
-0.11955663 -0.018877363 1.1906115
-0.11494032 -0.018808415 1.186263
-0.11109866 -0.018865811 1.1898829
-0.10723347 -0.018923555 1.1935248
-0.10334456 -0.018981654 1.1971892
-0.099431694 -0.019040111 1.2008762
-0.09549465 -0.01909893 1.2045859
-0.091533221 -0.019158116 1.2083188
-0.087547153 -0.019217668 1.2120749
-0.21591879 -0.014674093 1.1899384
-0.21025516 -0.01457214 1.1816709
-0.20467009 -0.014471622 1.1735198
-0.1991615 -0.014372479 1.1654803
-0.19525972 -0.014387558 1.166703
-0.19169894 -0.014428952 1.1700597
-0.18811788 -0.014470606 1.1734375
-0.18451563 -0.014512465 1.1768318
-0.18089274 -0.014554588 1.1802477
-0.17724888 -0.014596966 1.1836841
-0.17358373 -0.014639592 1.1871407
-0.16989709 -0.014682465 1.1906173
-0.16618882 -0.014725592 1.1941146
-0.1624587 -0.014768973 1.1976323
-0.15870652 -0.014812608 1.2011708
-0.15493213 -0.014856504 1.2047304
-0.15113528 -0.014900661 1.2083111
-0.14731599 -0.014945101 1.2119148
-0.14347355 -0.014989774 1.2155373
-0.13883115 -0.014951047 1.212397
-0.1339709 -0.014885657 1.2070943
-0.129153 -0.014820835 1.2018379
-0.12437685 -0.014756575 1.196627
-0.11964195 -0.014692872 1.1914612
-0.11500891 -0.014637497 1.1869708
-0.11116515 -0.01468219 1.190595
-0.10729785 -0.014727157 1.1942414
-0.10340679 -0.014772399 1.1979102
-0.09949176 -0.014817921 1.2016016
-0.095552512 -0.014863724 1.2053158
-0.091588855 -0.014909814 1.2090533
-0.087600522 -0.014956187 1.2128137
-0.21247457 -0.010518542 1.1941444
-0.20681548 -0.010445226 1.1858209
-0.20123473 -0.010372925 1.1776127
-0.1957307 -0.010301616 1.1695172
-0.19180715 -0.010312213 1.1707202
-0.18822412 -0.010341985 1.1741002
-0.18462043 -0.010371934 1.1775002
-0.18099579 -0.010402056 1.18092
-0.17735013 -0.010432362 1.1843604
-0.1736832 -0.010462843 1.1878209
-0.16999474 -0.010493502 1.1913016
-0.16628461 -0.010524342 1.1948028
-0.1625526 -0.010555364 1.1983246
-0.15879853 -0.010586569 1.2018672
-0.15502222 -0.01061796 1.205431
-0.15122344 -0.010649538 1.2090158
-0.14740197 -0.010681302 1.212622
-0.14355771 -0.010713262 1.2162504
-0.13893205 -0.01068708 1.2132781
-0.13406785 -0.010640305 1.2079678
-0.12924604 -0.010593937 1.2027037
-0.12446606 -0.010547971 1.1974853
-0.11972739 -0.010502403 1.192312
-0.11507756 -0.010461597 1.1876794
-0.11123172 -0.010493559 1.191308
-0.10736231 -0.010525716 1.1949588
-0.1034691 -0.010558072 1.198632
-0.099551901 -0.010590628 1.202328
-0.095610455 -0.010623383 1.2060467
-0.091644555 -0.010656344 1.2097886
-0.20900632 -0.0063335253 1.1983826
-0.20335156 -0.0062892232 1.1900002
-0.19777532 -0.0062455367 1.1817341
-0.19227602 -0.0062024519 1.173582
-0.18833074 -0.0062087057 1.1747652
-0.18472527 -0.0062266942 1.1781689
-0.18109895 -0.0062447912 1.1815931
-0.17745154 -0.0062629953 1.1850375
-0.17378277 -0.0062813046 1.1885018
-0.17009248 -0.0062997215 1.1919866
-0.16638049 -0.0063182469 1.1954918
-0.16264662 -0.0063368813 1.1990176
-0.15889066 -0.0063556265 1.2025645
-0.15511242 -0.0063744825 1.2061323
-0.13416491 -0.0063888058 1.2088424
-0.1293392 -0.0063609444 1.2035707
-0.1245554 -0.0063333255 1.1983448
-0.11981297 -0.0063059456 1.1931642
-0.11514631 -0.0062807081 1.1883889
-0.11129837 -0.0062999078 1.1920218
-0.10742684 -0.0063192258 1.195677
-0.10353149 -0.0063386625 1.1993546
-0.099612109 -0.0063582198 1.2030551
-0.095668457 -0.0063778972 1.2067784
-0.18879725 -0.0020746952 1.1776752
-0.18483031 -0.002076745 1.1788388
-0.18120223 -0.0020827842 1.182267
-0.17755303 -0.0020888592 1.1857153
