# .PCD v0.7 - Point Cloud Data file format
VERSION 0.7
FIELDS x y z
SIZE 4 4 4
TYPE F F F
COUNT 1 1 1
WIDTH 488
HEIGHT 1
VIEWPOINT 0 0 0 1 0 0 0
POINTS 488
DATA ascii
-0.40449667 -0.093345381 1.3586247
-0.39949238 -0.093294628 1.357886
-0.39449358 -0.093243942 1.3571482
-0.38950017 -0.093193293 1.356411
-0.38451219 -0.093142703 1.3556747
-0.37952963 -0.093092173 1.3549392
-0.37455246 -0.093041696 1.3542045
-0.41410837 -0.087554343 1.3432202
-0.40697393 -0.08704067 1.3353397
-0.40205356 -0.086994044 1.3346244
-0.39713848 -0.086947478 1.33391
-0.3922286 -0.086900949 1.3331962
-0.38732442 -0.08685457 1.3324846
-0.38242552 -0.086808249 1.331774
-0.37753186 -0.086761974 1.3310641
-0.37264338 -0.086715758 1.330355
-0.36776018 -0.086669594 1.3296468
-0.36288211 -0.086623468 1.3289392
-0.41937569 -0.082927391 1.3449348
-0.41002154 -0.082004309 1.329964
-0.40087342 -0.081101559 1.315323
-0.39486879 -0.080821097 1.3107744
-0.39004526 -0.080778606 1.3100853
-0.38522682 -0.08073616 1.3093969
-0.38041341 -0.080693752 1.3087091
-0.37560502 -0.080651388 1.308022
-0.37080172 -0.080609068 1.3073357
-0.36600348 -0.080566809 1.3066503
-0.36121026 -0.080524579 1.3059654
-0.3564221 -0.080482408 1.3052815
-0.35240489 -0.080615498 1.3074399
-0.42465639 -0.078288607 1.3466536
-0.41523159 -0.077416062 1.3316448
-0.40601462 -0.076562762 1.316967
-0.39699858 -0.075728051 1.3026091
-0.38817704 -0.074911356 1.288561
-0.38320097 -0.074826226 1.2870966
-0.3786127 -0.074815683 1.2869153
-0.37460026 -0.074920051 1.2887106
-0.37057659 -0.075024709 1.2905108
-0.36654168 -0.075129658 1.2923161
-0.36249545 -0.075234905 1.2941264
-0.35843787 -0.075340442 1.2959418
-0.3543689 -0.075446278 1.2977623
-0.35028845 -0.075552411 1.2995878
-0.3461965 -0.075658835 1.3014185
-0.36139664 -0.080040865 1.3767945
-0.42995065 -0.073637955 1.3483769
-0.42045489 -0.072816208 1.3333299
-0.41116872 -0.072012603 1.3186152
-0.40208524 -0.07122653 1.3042215
-0.39319575 -0.070457041 1.2901314
-0.38690531 -0.070140734 1.2843395
-0.38291216 -0.070238329 1.2861266
-0.37890789 -0.070336193 1.2879187
-0.37489247 -0.070434347 1.2897159
-0.37086606 -0.070532806 1.2915188
-0.36682835 -0.070631549 1.2933269
-0.36277938 -0.070730567 1.29514
-0.35871899 -0.070829868 1.2969582
-0.35464722 -0.070929445 1.2987816
-0.35056397 -0.071029298 1.3006101
-0.34646922 -0.071129441 1.3024437
-0.34236288 -0.071229868 1.3042825
-0.35083407 -0.07398542 1.3547392
-0.43525848 -0.068975389 1.3501046
-0.42569137 -0.068204693 1.3350192
-0.4163357 -0.06745103 1.3202673
-0.40718192 -0.066713423 1.3058295
-0.3982245 -0.065991491 1.2916986
-0.39119172 -0.065575488 1.283556
-0.38720697 -0.065666683 1.2853409
-0.38321114 -0.065758124 1.2871308
-0.37920418 -0.065849826 1.2889258
-0.37518603 -0.065941788 1.2907257
-0.3711566 -0.066033997 1.2925307
-0.36711589 -0.066126466 1.2943406
-0.36306387 -0.066219196 1.2961557
-0.35900059 -0.066312216 1.2979764
-0.35492599 -0.066405512 1.2998025
-0.35083994 -0.066499077 1.301634
-0.34674236 -0.066592902 1.3034705
-0.34263319 -0.066686995 1.3053123
-0.33851239 -0.066781357 1.3071592
-0.3406055 -0.068121098 1.333383
-0.43094113 -0.063581482 1.3367128
-0.4215126 -0.062877573 1.3219142
-0.41228908 -0.062188856 1.3074349
-0.40326545 -0.061515067 1.2932694
-0.39547294 -0.061015826 1.2827735
-0.39149657 -0.061100625 1.2845563
-0.38750914 -0.061185654 1.2863439
-0.38351059 -0.061270922 1.2881366
-0.37950093 -0.061356436 1.2899344
-0.37548 -0.061442181 1.2917371
-0.37144786 -0.061528172 1.2935449
-0.36740437 -0.061614398 1.2953577
-0.36334956 -0.061700869 1.2971756
-0.35928336 -0.061787587 1.2989987
-0.35520571 -0.061874546 1.3008269
-0.35111657 -0.061961748 1.3026602
-0.34701589 -0.062049199 1.3044988
-0.34290382 -0.062136937 1.3063433
-0.33878016 -0.062224928 1.3081932
-0.33464479 -0.062313166 1.3100483
-0.33069992 -0.062439848 1.3127116
-0.43620074 -0.058946047 1.3384
-0.42670062 -0.058292434 1.3235594
-0.41740882 -0.057653155 1.3090442
-0.40831867 -0.057027746 1.294844
-0.39974892 -0.056461714 1.281992
-0.39578092 -0.056540132 1.2837725
-0.39180186 -0.056618769 1.285558
-0.38781178 -0.056697626 1.2873485
-0.38381052 -0.056776706 1.289144
-0.37979811 -0.056856006 1.2909446
-0.37577447 -0.056935526 1.2927501
-0.37173954 -0.057015266 1.2945607
-0.36769333 -0.057095237 1.2963765
-0.36363575 -0.057175431 1.2981973
-0.35956669 -0.057255842 1.3000231
-0.35548624 -0.057336491 1.3018543
-0.35139424 -0.057417359 1.3036904
-0.34729069 -0.057498462 1.3055319
-0.34317556 -0.057579793 1.3073785
-0.33904871 -0.057661343 1.3092302
-0.33491021 -0.05774314 1.3110874
-0.33076009 -0.057825189 1.3129504
-0.32659823 -0.057907484 1.314819
-0.43190157 -0.053695869 1.3252088
-0.42254123 -0.053106274 1.3106576
-0.41338423 -0.052529488 1.2964226
-0.40442401 -0.051965095 1.2824935
-0.40006003 -0.0519852 1.2829896
-0.3960894 -0.052057464 1.2847731
-0.39210767 -0.052129924 1.2865614
-0.38811487 -0.052202582 1.2883546
-0.38411093 -0.052275453 1.290153
-0.38009578 -0.052348521 1.2919563
-0.37606943 -0.052421797 1.2937648
-0.37203175 -0.052495275 1.2955782
-0.36798269 -0.052568957 1.2973967
-0.36392233 -0.052642852 1.2992204
-0.3598505 -0.052716952 1.3010492
-0.35576719 -0.05279126 1.3028831
-0.35167238 -0.052865781 1.3047223
-0.34756598 -0.052940514 1.3065667
-0.34344792 -0.053015452 1.3084161
-0.33931822 -0.053090606 1.3102709
-0.33517677 -0.053165972 1.3121309
-0.33102357 -0.053241555 1.3139963
-0.32685852 -0.053317349 1.3158669
-0.32268164 -0.053393364 1.3177429
-0.42999056 -0.048809741 1.3193452
-0.41846213 -0.048020244 1.2980049
-0.40943649 -0.04750368 1.284042
-0.40433395 -0.047435824 1.2822078
-0.40037167 -0.047501724 1.2839891
-0.39639834 -0.0475678 1.2857752
-0.39241394 -0.047634065 1.2875663
-0.38841847 -0.047700513 1.2893624
-0.38441178 -0.047767147 1.2911636
-0.38039392 -0.047833964 1.2929697
-0.37636477 -0.047900971 1.2947809
-0.37232435 -0.047968168 1.2965972
-0.36827254 -0.048035551 1.2984186
-0.36420935 -0.048103124 1.3002452
-0.36013472 -0.048170887 1.3020768
-0.35604858 -0.04823884 1.3039136
-0.35195082 -0.048306976 1.3057554
-0.3478415 -0.048375309 1.3076024
-0.34372053 -0.048443835 1.3094547
-0.33958787 -0.048512552 1.3113122
-0.33544347 -0.048581466 1.313175
-0.33128735 -0.048650589 1.3150433
-0.32711944 -0.048719916 1.3169173
-0.32293966 -0.048789449 1.3187968
-0.43219441 -0.044387534 1.3261074
-0.41446111 -0.04303148 1.2855943
-0.40860263 -0.042891987 1.2814269
-0.40464869 -0.042951539 1.283206
-0.40068376 -0.043011252 1.28499
-0.39670774 -0.043071128 1.2867788
-0.39272064 -0.043131169 1.2885725
-0.38872239 -0.043191377 1.2903713
-0.38471293 -0.043251749 1.2921751
-0.3806923 -0.043312296 1.2939839
-0.37666035 -0.043373007 1.2957977
-0.3726171 -0.043433893 1.2976167
-0.36856249 -0.043494951 1.2994409
-0.36449647 -0.04355618 1.3012701
-0.36041898 -0.043617584 1.3031045
-0.35632992 -0.043679152 1.3049439
-0.35222936 -0.043740898 1.3067887
-0.34811717 -0.043802824 1.3086387
-0.34399334 -0.043864921 1.3104939
-0.33985791 -0.043927211 1.3123549
-0.33571073 -0.043989684 1.3142213
-0.33155176 -0.044052333 1.316093
-0.32738093 -0.044115163 1.31797
-0.32319817 -0.044178165 1.3198524
-0.43442106 -0.039919771 1.3329394
-0.41455761 -0.038510814 1.2858937
-0.40892014 -0.038406864 1.2824227
-0.40496352 -0.038460225 1.2842044
-0.40099588 -0.038513727 1.285991
-0.39701715 -0.038567383 1.2877824
-0.39302734 -0.038621183 1.2895789
-0.3890264 -0.038675141 1.2913805
-0.38501427 -0.038729247 1.2931871
-0.38099086 -0.038783502 1.2949988
-0.37695619 -0.03883791 1.2968155
-0.37291017 -0.038892474 1.2986374
-0.36885276 -0.038947187 1.3004643
-0.36478394 -0.039002057 1.3022964
-0.36070362 -0.03905708 1.3041337
-0.35661179 -0.039112259 1.3059762
-0.35250837 -0.039167598 1.3078239
-0.34839347 -0.039223105 1.3096774
-0.34426689 -0.039278772 1.3115361
-0.3401286 -0.039334599 1.3134001
-0.33597851 -0.039390583 1.3152695
-0.33181658 -0.039446726 1.3171442
-0.3276428 -0.03950303 1.3190242
-0.32345703 -0.039559495 1.3209095
-0.43667635 -0.035406191 1.3398594
-0.41663009 -0.034150008 1.2923222
-0.40923804 -0.033914752 1.2834196
-0.40527874 -0.033961903 1.2852039
-0.40130848 -0.034009192 1.2869934
-0.39732707 -0.034056604 1.2887876
-0.3933346 -0.034104157 1.2905871
-0.38933092 -0.034151837 1.2923914
-0.38531604 -0.034199648 1.2942008
-0.38128993 -0.0342476 1.2960153
-0.37725246 -0.034295678 1.2978348
-0.37320369 -0.034343898 1.2996595
-0.36914352 -0.034392253 1.3014894
-0.36507186 -0.034440741 1.3033243
-0.36098883 -0.034489378 1.3051648
-0.35689428 -0.034538157 1.3070108
-0.35278818 -0.034587074 1.308862
-0.34867036 -0.034636129 1.3107183
-0.34454089 -0.034685325 1.31258
-0.34039971 -0.034734663 1.314447
-0.33624667 -0.034784138 1.3163193
-0.33208185 -0.034833759 1.3181971
-0.32790506 -0.034883518 1.32008
-0.32371634 -0.034933418 1.3219684
-0.43895906 -0.030845772 1.3468634
-0.41872358 -0.029745391 1.2988158
-0.40955639 -0.029415652 1.284418
-0.40559447 -0.029456582 1.2862052
-0.40162149 -0.029497623 1.2879972
-0.39763746 -0.029538782 1.2897944
-0.39364231 -0.029580057 1.2915967
-0.38963589 -0.029621443 1.2934037
-0.3856183 -0.029662946 1.295216
-0.38158938 -0.029704563 1.2970332
-0.37754923 -0.029746301 1.2988557
-0.37349766 -0.029788157 1.3006833
-0.36943486 -0.029830145 1.3025166
-0.36536056 -0.029872248 1.304355
-0.36127478 -0.029914472 1.3061987
-0.35717741 -0.029956814 1.3080475
-0.35306841 -0.029999278 1.3099017
-0.34894779 -0.030041862 1.3117611
-0.3448154 -0.030084563 1.3136257
-0.34067127 -0.030127391 1.3154957
-0.33651537 -0.030170342 1.3173711
-0.33234754 -0.030213412 1.3192518
-0.3281678 -0.030256605 1.3211378
-0.32397613 -0.030299924 1.3230293
-0.44126579 -0.026237426 1.3539412
-0.42083815 -0.025296282 1.305375
-0.40987521 -0.024909543 1.2854179
-0.40591064 -0.024944229 1.2872078
-0.40193504 -0.024979014 1.2890028
-0.39794827 -0.025013892 1.2908026
-0.39395043 -0.025048871 1.2926077
-0.38994133 -0.025083944 1.2944176
-0.385921 -0.025119118 1.2962327
-0.38188943 -0.025154393 1.298053
-0.37784666 -0.025189778 1.299879
-0.3737925 -0.025225261 1.30171
-0.3697269 -0.025260843 1.3035462
-0.36564982 -0.025296528 1.3053876
-0.36156118 -0.025332311 1.3072342
-0.35746095 -0.025368197 1.309086
-0.35334909 -0.025404183 1.310943
-0.34922558 -0.025440274 1.3128054
-0.34509033 -0.025476467 1.3146731
-0.34094328 -0.025512762 1.3165461
-0.33678439 -0.02554916 1.3184243
-0.33261365 -0.025585664 1.3203081
-0.32843095 -0.025622273 1.3221972
-0.32423627 -0.025658986 1.3240917
-0.4435969 -0.021580391 1.3610938
-0.42297423 -0.020802012 1.3120008
-0.41019455 -0.020396415 1.2864194
-0.40622729 -0.020424835 1.2882119
-0.40224901 -0.020453339 1.2900097
-0.39825964 -0.020481924 1.2918125
-0.39425907 -0.020510586 1.2936203
-0.3902474 -0.020539338 1.2954336
-0.38622454 -0.02056817 1.2972522
-0.38219029 -0.020597082 1.2990756
-0.37814474 -0.020626077 1.3009044
-0.37408778 -0.020655153 1.3027383
-0.37001941 -0.020684315 1.3045775
-0.36593947 -0.020713555 1.3064218
-0.36184803 -0.02074288 1.3082713
-0.35774496 -0.020772288 1.3101261
-0.35363024 -0.020801779 1.3119861
-0.36016771 -0.02146695 1.3539389
-0.35590315 -0.021497507 1.3558662
-0.35162652 -0.021528155 1.3577992
-0.34733772 -0.021558892 1.3597379
-0.34303653 -0.021589711 1.3616817
-0.33872309 -0.021620622 1.3636312
-0.42712021 -0.016337931 1.3248609
-0.41051435 -0.015876245 1.2874223
-0.40654448 -0.015898388 1.2892178
-0.40256357 -0.015920592 1.2910185
-0.39857164 -0.015942866 1.2928246
-0.39456853 -0.015965201 1.2946358
-0.39055419 -0.015987599 1.296452
-0.38652858 -0.016010059 1.2982734
-0.39416245 -0.01652178 1.3397694
-0.38999051 -0.016545052 1.3416566
-0.38580683 -0.016568391 1.3435491
-0.38161132 -0.016591797 1.3454471
-0.37740389 -0.016615266 1.3473502
-0.37318453 -0.016638801 1.3492588
-0.36895329 -0.016662406 1.3511729
-0.36470997 -0.016686076 1.3530924
-0.36045459 -0.016709816 1.3550174
-0.35618708 -0.01673362 1.3569478
-0.35190737 -0.016757494 1.3588837
-0.34761542 -0.016781434 1.3608251
-0.34331137 -0.016805451 1.3627727
-0.33899489 -0.016829534 1.3647255
-0.42745322 -0.01167905 1.3258939
-0.4233709 -0.011695329 1.327742
-0.4192774 -0.011711659 1.3295959
-0.41517201 -0.011728023 1.3314537
-0.41105545 -0.011744441 1.3333176
-0.40692732 -0.011760905 1.3351867
-0.40278757 -0.011777414 1.3370609
-0.39863622 -0.011793971 1.3389406
-0.39447317 -0.011810574 1.3408254
-0.39029837 -0.011827223 1.3427156
-0.3861118 -0.01184392 1.3446112
-0.38191333 -0.011860663 1.346512
-0.37770304 -0.011877454 1.3484182
-0.3734808 -0.011894292 1.3503299
-0.3692466 -0.011911181 1.3522471
-0.36500031 -0.011928115 1.3541696
-0.36074194 -0.011945097 1.3560976
-0.35647145 -0.011962129 1.3580312
-0.35218924 -0.011979226 1.3599721
-0.34789389 -0.011996342 1.3619152
-0.34358668 -0.01201352 1.3638655
-0.3392671 -0.012030749 1.3658214
-0.42951766 -0.0070412732 1.3322974
-0.42370167 -0.0070226798 1.3287793
-0.41960523 -0.0070324899 1.3306355
-0.41549751 -0.0070423307 1.3324976
-0.41137847 -0.0070522022 1.3343654
-0.40724698 -0.0070620859 1.3362355
-0.40310439 -0.0070720073 1.3381127
-0.39895025 -0.0070819571 1.3399954
-0.39478433 -0.0070919343 1.3418832
-0.3906067 -0.00710194 1.3437763
-0.38641724 -0.0071119736 1.3456749
-0.38221589 -0.0071220351 1.3475786
-0.3780027 -0.0071321265 1.349488
-0.37377754 -0.0071422458 1.3514028
-0.36954033 -0.0071523939 1.3533229
-0.36529109 -0.0071625705 1.3552485
-0.36102974 -0.0071727764 1.3571795
-0.35675672 -0.0071830214 1.359118
-0.35247067 -0.007193279 1.3610588
-0.34817269 -0.0072035729 1.3630066
-0.34386241 -0.0072138971 1.3649601
-0.33953977 -0.0072242501 1.366919
-0.43175021 -0.0023592906 1.3392224
-0.42403299 -0.0023427238 1.3298184
-0.41993377 -0.0023459988 1.3316774
-0.4158231 -0.0023492831 1.3335418
-0.41170111 -0.0023525776 1.3354119
-0.40756762 -0.0023558822 1.3372877
-0.40342176 -0.0023591917 1.3391662
-0.39926475 -0.0023625132 1.3410517
-0.39509603 -0.0023658446 1.3429426
-0.39091551 -0.002369185 1.3448387
-0.38672316 -0.0023725347 1.3467402
-0.38251895 -0.002375894 1.3486471
-0.37830278 -0.0023792628 1.3505594
-0.3740747 -0.0023826414 1.3524772
-0.36983457 -0.0023860296 1.3544004
-0.36558238 -0.0023894273 1.3563291
-0.36131814 -0.0023928352 1.3582636
-0.35704145 -0.0023962513 1.3602027
-0.35275295 -0.00239968 1.3621489
-0.34845194 -0.002403117 1.3640999
-0.34413859 -0.0024065636 1.3660563
-0.3398129 -0.0024100207 1.3680186
-0.33547473 -0.0024134873 1.3699864
-0.43400604 0.0023716176 1.3462197
-0.42436478 0.0023445569 1.3308589
-0.42026284 0.0023478372 1.332721
-0.41614947 0.0023511271 1.3345884
-0.41202447 0.0023544256 1.3364608
-0.40788803 0.0023577344 1.338339
-0.40374032 0.0023610545 1.3402237
-0.39958078 0.0023643833 1.3421131
-0.39540818 0.0023677137 1.3440037
-0.3912248 0.0023710595 1.3459028
-0.38702956 0.0023744146 1.3478073
-0.38282245 0.0023777792 1.3497173
-0.3786034 0.0023811534 1.3516326
-0.37437236 0.0023845374 1.3535534
-0.37012926 0.0023879306 1.3554796
-0.3658742 0.0023913346 1.3574117
-0.36160782 0.0023947537 1.3593526
-0.35732746 0.0023981708 1.3612922
-0.35303566 0.0024016032 1.3632406
-0.34873164 0.0024050458 1.3651948
-0.34441525 0.0024084982 1.3671545
-0.34008646 0.0024119606 1.3691199
-0.33574519 0.0024154328 1.3710909
-0.43628561 0.007152223 1.3532906
-0.42469716 0.0070391796 1.3319013
-0.42059246 0.0070490357 1.3337662
-0.41647628 0.0070589203 1.3356365
-0.41234851 0.0070688319 1.3375119
-0.40820917 0.0070787719 1.3393927
-0.40405819 0.0070887399 1.3412788
-0.39989597 0.0070987451 1.3431718
-0.39572155 0.0071087708 1.3450688
-0.3915346 0.0071188109 1.3469685
-0.38733646 0.0071288915 1.348876
-0.38312647 0.0071390024 1.3507891
-0.37890446 0.0071491408 1.3527074
-0.37467048 0.0071593081 1.3546312
-0.37042484 0.007169513 1.356562
-0.36616719 0.0071797487 1.3584988
-0.36189619 0.0071899905 1.3604367
-0.35761368 0.0072002751 1.3623827
-0.35331887 0.0072105895 1.3643342
-0.34901178 0.0072209332 1.3662914
-0.34469232 0.0072313072 1.3682543
-0.3403604 0.007241711 1.3702228
-0.33601606 0.0072521446 1.372197
-0.43858927 0.011983314 1.3604362
-0.42503002 0.011741161 1.3329452
-0.42092258 0.011757614 1.3348131
-0.41680363 0.011774113 1.3366863
-0.41267309 0.011790659 1.3385646
-0.40853089 0.011807251 1.3404483
-0.40437707 0.011823891 1.3423374
-0.40021151 0.011840577 1.3442317
-0.39603508 0.011857337 1.3461344
-0.39184582 0.011874116 1.3480393
-0.3876451 0.011890953 1.3499508
-0.3834309 0.011907792 1.3518624
-0.37920603 0.011924718 1.353784
-0.37497041 0.011941733 1.3557156
-0.37072119 0.011958748 1.3576473
-0.36645886 0.011975779 1.3595809
-0.36218587 0.01199291 1.3615257
-0.35790035 0.012010079 1.3634748
-0.35360253 0.012027297 1.3654295
-0.42536339 0.016450519 1.3339907
-0.4212532 0.016473589 1.3358616
-0.41713148 0.016496725 1.3377377
-0.41299814 0.016519926 1.339619
-0.40885317 0.016543193 1.3415058
-0.40469652 0.016566524 1.3433977
-0.4005281 0.016589921 1.3452951
-0.39634791 0.016613385 1.3471978
-0.39215732 0.016636977 1.3491108
-0.38795251 0.016660538 1.3510214
-0.42569733 0.021167271 1.3350379
-0.42158437 0.021196978 1.3369117
-0.41745985 0.021226773 1.3387908
-0.41332373 0.021256648 1.3406751
