# .PCD v0.7 - Point Cloud Data file format
VERSION 0.7
FIELDS x y z
SIZE 4 4 4
TYPE F F F
COUNT 1 1 1
WIDTH 1380
HEIGHT 1
VIEWPOINT 0 0 0 1 0 0 0
POINTS 1380
DATA ascii
-0.27951652 -0.23737834 0.79730713
-0.27630019 -0.23702909 0.79613405
-0.27309328 -0.23668085 0.79496437
-0.26989582 -0.23633365 0.79379821
-0.26670772 -0.23598744 0.79263538
-0.26352894 -0.23564228 0.79147607
-0.26035944 -0.23529811 0.79032004
-0.25719923 -0.23495495 0.78916746
-0.25404817 -0.23461278 0.78801817
-0.25090635 -0.23427168 0.78687245
-0.24826653 -0.23439689 0.78729302
-0.24637716 -0.23524146 0.79012978
-0.24443871 -0.23605795 0.79287219
-0.24244761 -0.23684189 0.79550529
-0.24039379 -0.23758218 0.79799175
-0.2382627 -0.2382627 0.80027753
-0.23602663 -0.23885331 0.80226123
-0.22609876 -0.23157994 0.77783144
-0.22303653 -0.23124646 0.77671134
-0.21998432 -0.23091522 0.77559876
-0.21694081 -0.23058487 0.77448922
-0.21390601 -0.23025551 0.77338296
-0.21087986 -0.22992708 0.7722798
-0.20786236 -0.2295996 0.77117985
-0.20485343 -0.22927304 0.77008301
-0.20185302 -0.22894739 0.76898921
-0.19886115 -0.22862269 0.76789862
-0.19587775 -0.22829889 0.76681101
-0.19290279 -0.22797601 0.76572657
-0.19035758 -0.22815908 0.76634145
-0.1886563 -0.22937348 0.77042037
-0.18693677 -0.23060083 0.77454281
-0.18519877 -0.23184143 0.77870971
-0.18344197 -0.23309542 0.78292167
-0.18166605 -0.23436306 0.78717941
-0.17987067 -0.2356445 0.79148352
-0.1780555 -0.23693998 0.79583478
-0.17622025 -0.23824978 0.80023414
-0.2832675 -0.23535159 0.79996675
-0.2800349 -0.23500416 0.79878581
-0.27681187 -0.23465778 0.79760844
-0.27359828 -0.23431237 0.7964344
-0.27039418 -0.23396802 0.79526395
-0.26719946 -0.23362465 0.79409683
-0.26401412 -0.23328231 0.79293323
-0.26083809 -0.23294097 0.79177296
-0.25767133 -0.2326006 0.79061604
-0.25451383 -0.23226127 0.78946263
-0.25136551 -0.23192288 0.78831244
-0.24822745 -0.2315865 0.7871691
-0.24519119 -0.23133859 0.78632641
-0.243101 -0.2319878 0.78853315
-0.24090266 -0.23254766 0.79043609
-0.23856284 -0.23298243 0.79191387
-0.23594654 -0.23315427 0.79249799
-0.22958449 -0.22958449 0.78036416
-0.2265083 -0.22925386 0.77924037
-0.22344041 -0.2289236 0.77811784
-0.22038113 -0.22859409 0.7769978
-0.21733159 -0.22826651 0.77588433
-0.21429075 -0.22793984 0.77477401
-0.21125863 -0.22761413 0.77366692
-0.20823514 -0.22728935 0.77256292
-0.20522033 -0.22696553 0.77146226
-0.20221405 -0.22664259 0.77036458
-0.19921632 -0.22632058 0.76927006
-0.19622707 -0.22599946 0.76817858
-0.19324632 -0.22567928 0.76709026
-0.19037978 -0.22548528 0.76643085
-0.1886784 -0.22668557 0.77051067
-0.1869588 -0.22789869 0.77463412
-0.18522073 -0.2291249 0.77880204
-0.18346383 -0.23036435 0.78301495
-0.18168782 -0.2316173 0.78727376
-0.17989232 -0.23288386 0.79157883
-0.17807706 -0.23416431 0.79593116
-0.17624171 -0.23545893 0.80033159
-0.28379461 -0.23296572 0.80145538
-0.28055522 -0.23262116 0.80027002
-0.27732542 -0.23227763 0.79908818
-0.27410516 -0.23193513 0.79790992
-0.27089438 -0.23159362 0.79673505
-0.26769304 -0.23125315 0.7955637
-0.26450107 -0.23091362 0.79439569
-0.26131848 -0.23057513 0.79323119
-0.25814518 -0.2302376 0.79207003
-0.25498122 -0.22990109 0.79091233
-0.25182644 -0.22956555 0.78975797
-0.24868172 -0.22923176 0.78860968
-0.24554583 -0.22889866 0.78746372
-0.24241863 -0.22856614 0.78631979
-0.23930031 -0.2282344 0.78517854
-0.23619267 -0.22790521 0.78404605
-0.23309076 -0.22757383 0.782906
-0.22999991 -0.22724544 0.78177625
-0.22691883 -0.22691883 0.7806527
-0.22384548 -0.22659205 0.7795285
-0.2207801 -0.22626533 0.77840447
-0.21772377 -0.22593975 0.77728444
-0.21467689 -0.22561583 0.77617007
-0.21163876 -0.22529288 0.77505904
-0.20860931 -0.22497083 0.77395111
-0.2055885 -0.2246497 0.77284634
-0.20257634 -0.2243295 0.77174479
-0.19957274 -0.22401021 0.77064639
-0.19657765 -0.22369181 0.76955098
-0.19359109 -0.22337432 0.76845878
-0.19061296 -0.22305772 0.76736957
-0.18870053 -0.22399704 0.77060103
-0.18698086 -0.22519593 0.7747255
-0.18524267 -0.22640771 0.77889431
-0.18348569 -0.22763263 0.78310829
-0.18170959 -0.22887085 0.78736806
-0.17991398 -0.23012254 0.79167414
-0.17809862 -0.23138797 0.79602754
-0.17626318 -0.23266739 0.80042905
-0.2810775 -0.2302293 0.80175978
-0.27784091 -0.22988868 0.80057353
-0.27461392 -0.22954908 0.79939091
-0.2713964 -0.22921044 0.79821163
-0.26818842 -0.22887284 0.79703593
-0.26498982 -0.2285362 0.79586363
-0.26180065 -0.22820055 0.79469478
-0.25862083 -0.2278659 0.79352939
-0.25545031 -0.22753224 0.7923674
-0.25228935 -0.22719982 0.79120976
-0.24913852 -0.22686915 0.79005826
-0.24599677 -0.2265394 0.78890991
-0.24286325 -0.22620977 0.78776199
-0.2397387 -0.22588098 0.78661698
-0.2366233 -0.22555321 0.78547555
-0.23351695 -0.2252264 0.78433746
-0.23041785 -0.22489886 0.78319681
-0.22732961 -0.2245741 0.78206587
-0.22425121 -0.22425121 0.78094143
-0.22118068 -0.22392826 0.77981675
-0.21811785 -0.2236051 0.77869135
-0.21506444 -0.22328345 0.77757126
-0.21202028 -0.22296326 0.77645618
-0.20898482 -0.22264396 0.77534425
-0.20595805 -0.22232559 0.77423555
-0.20293993 -0.22200811 0.77312994
-0.19993043 -0.22169156 0.77202761
-0.19692948 -0.2213759 0.77092832
-0.19393708 -0.22106114 0.76983219
-0.19095315 -0.22074726 0.7687391
-0.18872267 -0.22130789 0.77069145
-0.1870029 -0.2224925 0.77481681
-0.18526463 -0.22368988 0.77898663
-0.18350755 -0.22490023 0.78320158
-0.18173134 -0.22612374 0.78746235
-0.17993565 -0.22736055 0.7917695
-0.17812018 -0.22861095 0.79612392
-0.17628464 -0.22987516 0.8005265
-0.28160173 -0.22782852 0.80325508
-0.27835834 -0.22749081 0.80206442
-0.27512452 -0.22715411 0.80087727
-0.27190033 -0.2268184 0.7996937
-0.26868561 -0.22648369 0.79851359
-0.2654804 -0.22614996 0.797337
-0.26228458 -0.22581722 0.7961638
-0.2590982 -0.22548546 0.79499412
-0.25592113 -0.22515465 0.79382783
-0.25275427 -0.22482562 0.79266775
-0.24959643 -0.22449735 0.79151034
-0.24644704 -0.22416934 0.79035389
-0.24330671 -0.22384217 0.78920043
-0.24017724 -0.22351755 0.7880559
-0.23705553 -0.22319263 0.7869103
-0.23394287 -0.22286865 0.78576803
-0.23083922 -0.22254559 0.78462905
-0.22774339 -0.22222234 0.78348935
-0.22465758 -0.22190104 0.78235656
-0.22158164 -0.22158164 0.78123045
-0.21851382 -0.22126241 0.78010494
-0.21545361 -0.22094287 0.77897835
-0.21240316 -0.22062522 0.77785838
-0.20936167 -0.22030869 0.7767424
-0.20632893 -0.2199931 0.7756297
-0.20330484 -0.21967839 0.77452016
-0.2002894 -0.21936458 0.77341378
-0.19728257 -0.21905167 0.77231055
-0.19428432 -0.21873969 0.77121055
-0.19129457 -0.21842855 0.77011359
-0.18874478 -0.21861807 0.77078176
-0.18702495 -0.21978845 0.77490819
-0.18528658 -0.22097141 0.77907896
-0.18352944 -0.22216721 0.78329498
-0.18175314 -0.22337601 0.78755683
-0.17995733 -0.2245979 0.79186487
-0.17814174 -0.22583324 0.7962203
-0.1763061 -0.22708225 0.80062395
-0.17445002 -0.22834517 0.8050766
-0.28212786 -0.22541873 0.80475587
-0.27887768 -0.22508401 0.80356085
-0.27563709 -0.22475024 0.8023693
-0.27240613 -0.22441748 0.80118132
-0.26918468 -0.22408569 0.79999679
-0.26597276 -0.22375487 0.79881579
-0.26277035 -0.22342505 0.7976383
-0.2595773 -0.22309618 0.7964642
-0.2563937 -0.22276829 0.79529363
-0.25322029 -0.22244214 0.79412925
-0.2500563 -0.22211705 0.79296869
-0.24690124 -0.22179264 0.79181051
-0.24375467 -0.22146852 0.79065341
-0.24061741 -0.22114548 0.78950012
-0.23748933 -0.22082342 0.78835034
-0.23437034 -0.22050227 0.78720385
-0.2312604 -0.22018206 0.78606069
-0.2281595 -0.21986279 0.78492087
-0.22506756 -0.21954443 0.78378427
-0.22198364 -0.21922608 0.78264779
-0.21891005 -0.21891005 0.78151953
-0.215845 -0.21859461 0.78039342
-0.21278743 -0.21827872 0.77926564
-0.20973989 -0.21796499 0.77814561
-0.20670114 -0.21765219 0.77702892
-0.20367107 -0.21734026 0.77591532
-0.20064969 -0.21702926 0.77480501
-0.19763692 -0.21671911 0.77369773
-0.19463278 -0.21640988 0.7725938
-0.19163719 -0.21610151 0.7714929
-0.18876693 -0.21592763 0.77087218
-0.187047 -0.21708375 0.77499956
-0.18530858 -0.21825232 0.77917141
-0.18355131 -0.21943353 0.78338838
-0.18177491 -0.22062758 0.78765118
-0.179979 -0.22183459 0.79196024
-0.17816333 -0.22305489 0.7963168
-0.17632757 -0.22428867 0.80072147
-0.17447139 -0.2255362 0.80517519
-0.27939892 -0.22266819 0.80506283
-0.27615154 -0.22233739 0.80386686
-0.27291378 -0.22200759 0.80267441
-0.26968563 -0.22167876 0.80148554
-0.26646701 -0.22135089 0.80030012
-0.26325789 -0.22102401 0.79911828
-0.26005822 -0.22069807 0.79793984
-0.25686815 -0.22037324 0.79676539
-0.25368863 -0.22005036 0.79559803
-0.25051704 -0.21972723 0.79442972
-0.24735442 -0.21940477 0.79326385
-0.24420285 -0.21908484 0.79210716
-0.2410592 -0.21876471 0.7909497
-0.23792471 -0.21844549 0.78979558
-0.23479939 -0.21812724 0.78864491
-0.23168315 -0.2178099 0.78749758
-0.22857596 -0.21749349 0.78635359
-0.2254778 -0.217178 0.78521293
-0.2223886 -0.21686341 0.7840755
-0.21930724 -0.21654867 0.78293753
-0.2162364 -0.2162364 0.78180856
-0.21317421 -0.21592484 0.78068209
-0.2101195 -0.21561281 0.77955395
-0.20707469 -0.21530281 0.77843314
-0.20403862 -0.21499372 0.77731556
-0.20101126 -0.21468548 0.77620119
-0.19799256 -0.21437815 0.77508998
-0.19498251 -0.21407171 0.77398205
-0.19198105 -0.21376613 0.77287722
-0.18898813 -0.21346143 0.77177554
-0.18706907 -0.21437843 0.77509099
-0.18533053 -0.21553254 0.77926373
-0.1835732 -0.2166992 0.78348178
-0.1817967 -0.21787848 0.78774554
-0.18000068 -0.2190706 0.79205567
-0.17818491 -0.22027583 0.79641324
-0.17634906 -0.22149442 0.80081904
-0.17449278 -0.22272654 0.80527383
-0.27992216 -0.22024332 0.80657047
-0.27666792 -0.21991554 0.80537003
-0.27342334 -0.2195887 0.80417311
-0.27018842 -0.21926285 0.80297983
-0.26696306 -0.21893796 0.80179
-0.26374722 -0.21861401 0.80060363
-0.26054093 -0.21829104 0.79942089
-0.25734475 -0.21796961 0.7982437
-0.25415781 -0.21764895 0.79706943
-0.25098073 -0.2173297 0.79590023
-0.24781202 -0.21701053 0.79473138
-0.24465269 -0.21669239 0.79356629
-0.24150261 -0.21637517 0.79240459
-0.23836173 -0.21605888 0.79124629
-0.23523 -0.2157435 0.79009128
-0.23210745 -0.21542907 0.78893977
-0.22899395 -0.21511553 0.78779155
-0.22588952 -0.21480292 0.78664672
-0.22279407 -0.21449119 0.78550512
-0.21970762 -0.21418038 0.78436691
-0.216629 -0.21386939 0.78322798
-0.21356079 -0.21356079 0.78209782
-0.21050142 -0.21325308 0.78097093
-0.20744959 -0.21294494 0.7798425
-0.2044075 -0.21263866 0.77872086
-0.20137413 -0.21233328 0.77760243
-0.19834948 -0.21202876 0.77648723
-0.19533351 -0.21172513 0.77537531
-0.19232613 -0.21142234 0.77426642
-0.18932737 -0.21112046 0.77316087
-0.18709113 -0.21167244 0.77518237
-0.18535252 -0.21281216 0.77935618
-0.18359509 -0.21396421 0.78357524
-0.18181849 -0.21512873 0.78783995
-0.18002237 -0.21630594 0.79215109
-0.1782065 -0.21749613 0.79650974
-0.17637055 -0.21869947 0.80091661
-0.17451414 -0.21991619 0.80537248
-0.28044736 -0.21780938 0.80808383
-0.27718624 -0.21748458 0.80687881
-0.27393484 -0.21716078 0.80567747
-0.27069306 -0.21683791 0.8044796
-0.26746097 -0.21651603 0.80328542
-0.26423842 -0.21619506 0.80209464
-0.26102543 -0.21587509 0.80090749
-0.25782284 -0.21555682 0.79972667
-0.25462919 -0.21523905 0.79854774
-0.2514447 -0.21492201 0.79737151
-0.24827 -0.21460629 0.79620016
-0.24510418 -0.21429108 0.79503077
-0.24194764 -0.21397682 0.79386479
-0.23880032 -0.21366344 0.7927022
-0.23566224 -0.21335101 0.79154307
-0.23253328 -0.21303947 0.79038721
-0.22941348 -0.21272886 0.78923482
-0.22630274 -0.21241914 0.78808576
-0.22320107 -0.21211033 0.78694004
-0.22010837 -0.21180239 0.7857976
-0.21702467 -0.21149538 0.78465855
-0.21394943 -0.21118879 0.78352112
-0.21088326 -0.21088326 0.78238755
-0.20782669 -0.21057937 0.78126007
-0.2047777 -0.21027508 0.78013122
-0.20173834 -0.20997256 0.77900881
-0.19870768 -0.20967087 0.77788955
-0.19568574 -0.20937006 0.77677351
-0.19267246 -0.20907012 0.77566069
-0.18966781 -0.20877104 0.77455109
-0.18711321 -0.20896585 0.77527386
-0.18537451 -0.21009113 0.77944869
-0.18361698 -0.21122856 0.78366864
-0.18184027 -0.21237834 0.78793436
-0.18004407 -0.21354064 0.79224658
-0.1782281 -0.21471573 0.79660624
-0.17639203 -0.21590385 0.80101418
-0.17453551 -0.21710517 0.80547112
-0.17265823 -0.21831992 0.80997795
-0.28097454 -0.21536627 0.8096028
-0.2777065 -0.21504453 0.8083933
-0.27444825 -0.21472375 0.80718744
-0.27119964 -0.21440391 0.80598509
-0.26796073 -0.21408501 0.80478632
-0.26473144 -0.2137671 0.80359119
-0.26151171 -0.21345009 0.80239952
-0.25830248 -0.21313483 0.8012144
-0.25510249 -0.21282032 0.80003208
-0.25191146 -0.21250631 0.79885167
-0.24872974 -0.21219316 0.79767448
-0.24555735 -0.21188091 0.79650068
-0.24239431 -0.21156961 0.79533041
-0.23924054 -0.2112592 0.79416353
-0.23609602 -0.2109497 0.7930001
-0.23296069 -0.21064109 0.79183996
-0.22983453 -0.21033341 0.79068333
-0.2267175 -0.21002664 0.7895301
-0.22360952 -0.20972073 0.78838015
-0.2205106 -0.20941573 0.78723359
-0.21742067 -0.2091116 0.78609031
-0.21433973 -0.20880838 0.78495044
-0.21126769 -0.20850603 0.78381383
-0.20820378 -0.20820378 0.78267765
-0.20514995 -0.20790364 0.78154933
-0.20210385 -0.20760328 0.78042024
-0.19906721 -0.20730446 0.77929693
-0.19603929 -0.20700651 0.7781769
-0.19302003 -0.2067094 0.77705997
-0.19000947 -0.20641316 0.77594638
-0.18713529 -0.20625861 0.77536535
-0.18539649 -0.2073694 0.77954108
-0.18363889 -0.20849226 0.7837621
-0.18186207 -0.20962729 0.78802884
-0.18006577 -0.21077466 0.79234207
-0.1782497 -0.21193469 0.7967028
-0.17641352 -0.21310753 0.80111176
-0.17455691 -0.21429344 0.80556983
-0.17267951 -0.21549262 0.81007779
-0.27822873 -0.21259528 0.80991346
-0.27496353 -0.21227755 0.80870301
-0.2717081 -0.21196078 0.80749619
-0.26846236 -0.21164493 0.80629295
-0.2652263 -0.21133004 0.80509335
-0.26200029 -0.21101646 0.80389869
-0.25878417 -0.21070404 0.80270851
-0.25557721 -0.21039228 0.80152082
-0.25237945 -0.21008122 0.80033576
-0.24919115 -0.20977108 0.79915422
-0.2460122 -0.20946181 0.79797602
-0.24284263 -0.20915347 0.79680139
-0.23968239 -0.20884605 0.79563022
-0.23653142 -0.20853955 0.7944625
-0.23338969 -0.20823392 0.79329818
-0.23025714 -0.20792916 0.79213721
-0.22713375 -0.20762533 0.79097968
-0.22401948 -0.20732239 0.78982556
-0.2209143 -0.20702033 0.78867483
-0.21781814 -0.20671913 0.78752738
-0.21473096 -0.2064188 0.78638321
-0.21165277 -0.20611937 0.7852425
-0.2085835 -0.2058208 0.78410506
-0.20552261 -0.20552261 0.78296906
-0.20247124 -0.20522594 0.78183889
-0.19942801 -0.20492947 0.78070939
-0.19639409 -0.2046344 0.7795853
-0.19336888 -0.20434017 0.77846438
-0.19035238 -0.2040468 0.77734673
-0.18734452 -0.20375426 0.77623224
-0.18541849 -0.20464708 0.77963358
-0.18366078 -0.20575531 0.78385556
-0.18188387 -0.20687556 0.78812331
-0.18008748 -0.20800801 0.79243755
-0.17827131 -0.20915295 0.79679936
-0.17643502 -0.21031055 0.80120945
-0.17457829 -0.21148102 0.80566853
-0.17270081 -0.21266462 0.81017762
-0.27875289 -0.2101368 0.81143934
-0.27548078 -0.20982215 0.81022429
-0.27221847 -0.20950845 0.80901295
-0.2689659 -0.20919569 0.80780524
-0.26572299 -0.20888385 0.80660105
-0.26249072 -0.2085737 0.80540341
-0.2592673 -0.20826389 0.80420709
-0.2560536 -0.20795514 0.80301487
-0.25284919 -0.2076471 0.8018254
-0.24965425 -0.20733997 0.80063939
-0.24646875 -0.20703375 0.79945695
-0.24329261 -0.2067284 0.79827785
-0.24012588 -0.206424 0.79710239
-0.23696843 -0.20612048 0.79593033
-0.23382026 -0.20581783 0.79476172
-0.23068132 -0.20551609 0.79359651
-0.22755155 -0.2052152 0.79243463
-0.22443096 -0.20491523 0.79127628
-0.22131947 -0.20461611 0.79012126
-0.21821705 -0.20431787 0.78896964
-0.21512368 -0.20402052 0.78782141
-0.21203925 -0.20372398 0.78667635
-0.20896383 -0.20342836 0.7855348
-0.20589729 -0.20313357 0.78439647
-0.20283905 -0.20283905 0.78325915
-0.19979058 -0.20254631 0.78212881
-0.19675019 -0.20225368 0.78099883
-0.193719 -0.20196235 0.77987385
-0.19069652 -0.20167185 0.77875209
-0.18768273 -0.2013822 0.77763361
-0.1854405 -0.20192409 0.77972609
-0.18368271 -0.20301773 0.78394914
-0.18190569 -0.20412317 0.78821778
-0.18010919 -0.2052407 0.7925331
-0.1782929 -0.20637053 0.79689592
-0.17645653 -0.20751289 0.80130708
-0.17459969 -0.20866793 0.8057673
-0.17272209 -0.20983592 0.81027746
-0.27927905 -0.20766905 0.81297094
-0.27599999 -0.20735751 0.81175137
-0.27273074 -0.20704691 0.81053543
-0.26947132 -0.20673725 0.80932319
-0.26622155 -0.20642848 0.80811447
-0.26298264 -0.20612153 0.80691284
-0.25975248 -0.20581479 0.80571204
-0.25653177 -0.20550889 0.80451447
-0.25332066 -0.20520389 0.80332053
-0.25011909 -0.20489983 0.80213016
-0.24692698 -0.20459664 0.80094326
-0.24374431 -0.20429435 0.79975992
-0.24057101 -0.20399295 0.79857999
-0.23740706 -0.20369245 0.79740357
-0.23425242 -0.20339282 0.79623061
-0.23110706 -0.20309408 0.79506111
-0.22797091 -0.20279622 0.79389507
-0.22484395 -0.20249921 0.79273236
-0.22172613 -0.20220308 0.79157311
-0.21861742 -0.20190781 0.79041719
-0.21551779 -0.20161343 0.78926474
-0.21242715 -0.20131986 0.7881155
-0.20934553 -0.20102717 0.78696972
-0.20627287 -0.20073535 0.78582728
-0.2032091 -0.20044436 0.78468812
-0.20015422 -0.20015422 0.78355229
-0.197108 -0.19986475 0.78241915
-0.19407037 -0.1995759 0.78128839
-0.19104192 -0.19928832 0.78016257
-0.18802218 -0.19900158 0.77904004
-0.1854625 -0.19920047 0.77981865
-0.18370463 -0.20027949 0.78404272
-0.1819275 -0.20137013 0.78831232
-0.1801309 -0.20247272 0.79262865
-0.17831452 -0.20358744 0.79699254
-0.17647804 -0.20471452 0.80140477
-0.17462111 -0.20585415 0.80586606
-0.17274338 -0.20700653 0.81037736
-0.1708445 -0.20817187 0.81493938
-0.27652115 -0.20488355 0.81328416
-0.27324498 -0.20457609 0.81206369
-0.26997858 -0.20426951 0.81084675
-0.26672232 -0.20396414 0.80963457
-0.26347578 -0.20365965 0.8084259
-0.26023918 -0.20335631 0.80722177
-0.25701177 -0.2030535 0.80601978
-0.25379393 -0.20275156 0.80482125
-0.25058568 -0.20245057 0.80362648
-0.24738692 -0.20215045 0.80243516
-0.24419764 -0.20185122 0.80124736
-0.24101779 -0.2015529 0.80006313
-0.2378473 -0.2012554 0.79888225
-0.23468618 -0.20095883 0.79770499
-0.23153436 -0.2006631 0.79653114
-0.2283918 -0.20036826 0.79536074
-0.22525844 -0.20007427 0.79419374
-0.22213428 -0.19978115 0.7930302
-0.21901928 -0.19948889 0.79187012
-0.21591336 -0.19919749 0.79071337
-0.21281651 -0.19890693 0.78956002
-0.20972866 -0.19861721 0.78840995
-0.20664982 -0.19832835 0.78726333
-0.2035799 -0.19804032 0.78612
-0.20051891 -0.19775313 0.78498
-0.19746678 -0.19746678 0.78384334
-0.19442339 -0.19718117 0.7827096
-0.19138856 -0.19689614 0.78157818
-0.18836287 -0.19661233 0.7804516
-0.18548453 -0.19647619 0.77991122
-0.18372652 -0.19754054 0.78413612
-0.18194932 -0.19861643 0.78840685
-0.18015262 -0.19970407 0.79272425
-0.17833614 -0.20080368 0.79708916
-0.17649956 -0.20191549 0.80150247
-0.17464252 -0.20303968 0.80596489
-0.17276467 -0.20417643 0.81047726
-0.17086568 -0.20532599 0.81504041
-0.2770443 -0.20240024 0.81482279
-0.27376115 -0.20209594 0.81359774
-0.27048784 -0.20179251 0.8123762
-0.26722497 -0.20149048 0.81116027
-0.2639716 -0.20118916 0.80994725
-0.26072773 -0.20088857 0.80873716
-0.25749353 -0.20058888 0.80753064
-0.25426897 -0.20029008 0.80632776
-0.25105399 -0.19999215 0.80512834
-0.24784857 -0.19969514 0.80393261
-0.24465267 -0.19939899 0.8027404
-0.24146622 -0.19910373 0.8015517
-0.23828919 -0.19880933 0.80036652
-0.23512155 -0.19851579 0.7991848
-0.23196323 -0.19822313 0.79800659
-0.22881424 -0.19793133 0.79683191
-0.2256745 -0.19764039 0.79566061
-0.22254397 -0.19735031 0.79449278
-0.21942261 -0.19706106 0.79332834
-0.2163104 -0.19677268 0.79216737
-0.21320727 -0.19648513 0.79100978
-0.21011321 -0.19619843 0.78985554
-0.20702815 -0.19591254 0.78870463
-0.20395207 -0.19562751 0.78755713
-0.20088495 -0.1953433 0.78641295
-0.19782673 -0.19505991 0.78527212
-0.19477735 -0.19477735 0.78413457
-0.19173668 -0.19449548 0.78299981
-0.18870477 -0.1942144 0.78186828
-0.18568181 -0.19393434 0.78074074
-0.18374847 -0.194801 0.78422982
-0.18197115 -0.19586207 0.78850144
-0.18017435 -0.19693476 0.79281986
-0.17835777 -0.19801925 0.79718584
-0.17652108 -0.19911578 0.80160022
-0.17466392 -0.20022449 0.80606365
-0.17278597 -0.20134564 0.81057715
-0.17088687 -0.20247941 0.8151415
-0.27756944 -0.19990751 0.81636727
-0.27427924 -0.19960636 0.81513745
-0.27099901 -0.19930615 0.81391144
-0.26772889 -0.19900703 0.81268996
-0.26446882 -0.19870901 0.81147289
-0.2612181 -0.19841157 0.81025821
-0.2579771 -0.19811501 0.80904716
-0.25474578 -0.19781934 0.80783975
-0.25152406 -0.19752456 0.80663592
-0.24831197 -0.19723064 0.80543566
-0.24510939 -0.19693761 0.80423898
-0.24191634 -0.19664544 0.80304587
-0.23873274 -0.19635415 0.80185628
-0.23555854 -0.1960637 0.80067015
-0.23239373 -0.19577411 0.79948759
-0.22923826 -0.19548538 0.79830849
-0.22609209 -0.19519751 0.79713291
-0.22295515 -0.19491047 0.79596072
-0.21982743 -0.19462427 0.794792
-0.21670888 -0.19433893 0.79362673
-0.21359947 -0.19405442 0.79246485
-0.21049915 -0.19377074 0.79130638
-0.20740789 -0.1934879 0.7901513
-0.2043256 -0.19320585 0.7889995
-0.20125233 -0.19292465 0.78785115
-0.19818796 -0.19264425 0.78670609
-0.19513252 -0.19236468 0.78556442
-0.19208592 -0.19208592 0.78442603
-0.18904802 -0.19180785 0.78329045
-0.18601899 -0.19153066 0.78215849
-0.18377039 -0.19206078 0.78432339
-0.18199296 -0.19310704 0.78859597
-0.18019608 -0.19416477 0.79291546
-0.1783794 -0.19523415 0.79728252
-0.17654261 -0.19631538 0.80169797
-0.17468534 -0.19740863 0.80616254
-0.17280728 -0.19851415 0.81067711
-0.17090806 -0.19963211 0.81524259
-0.27479935 -0.19710737 0.81668311
-0.27151242 -0.19681059 0.81545341
-0.26823533 -0.19651467 0.81422728
-0.26496795 -0.1962195 0.81300437
-0.26171035 -0.19592522 0.81178504
-0.25846249 -0.19563183 0.81056941
-0.25522438 -0.19533932 0.80935746
-0.25199592 -0.19504769 0.8081491
-0.24877708 -0.19475691 0.80694431
-0.24556783 -0.19446701 0.80574316
-0.24236813 -0.19417797 0.80454558
-0.23917791 -0.19388978 0.80335152
-0.23599716 -0.19360246 0.80216104
-0.2328258 -0.19331597 0.80097401
-0.22966383 -0.19303034 0.79979056
-0.22651121 -0.19274557 0.79861063
-0.22336785 -0.19246161 0.79743409
-0.22023375 -0.1921785 0.79626107
-0.21710883 -0.19189619 0.79509139
-0.21399312 -0.19161475 0.79392529
-0.21088651 -0.19133411 0.79276252
-0.207789 -0.19105431 0.79160321
-0.20470053 -0.19077532 0.79044724
-0.20162106 -0.19049713 0.7892946
-0.19855055 -0.19021976 0.78814536
-0.19548899 -0.18994319 0.78699946
-0.19243632 -0.18966745 0.78585696
-0.18939248 -0.18939248 0.78471762
-0.18635747 -0.18911833 0.78358173
-0.18379232 -0.18931991 0.78441697
-0.18201481 -0.19035137 0.78869063
-0.18021782 -0.19139412 0.79301113
-0.17840104 -0.19244836 0.7973792
-0.17656413 -0.19351429 0.80179572
-0.17470677 -0.19459209 0.80626142
-0.1728286 -0.19568196 0.81077713
-0.17092925 -0.19678411 0.81534368
-0.27532142 -0.1945989 0.81823468
-0.27202746 -0.19430535 0.81700033
-0.26874325 -0.19401251 0.81576908
-0.26546893 -0.19372056 0.81454152
-0.26220441 -0.19342948 0.8133176
-0.25894973 -0.1931393 0.81209743
-0.25570479 -0.19284996 0.8108809
-0.25246954 -0.19256151 0.809668
-0.24924396 -0.19227391 0.80845875
-0.24602796 -0.19198714 0.80725294
-0.2428216 -0.19170126 0.8060509
-0.23962477 -0.19141623 0.80485243
-0.23643741 -0.19113204 0.80365747
-0.23325951 -0.19084869 0.80246609
-0.23009099 -0.19056617 0.80127811
-0.2269319 -0.19028451 0.80009383
-0.22378209 -0.19000366 0.79891294
-0.22064157 -0.18972364 0.79773557
-0.21751028 -0.18944444 0.7965616
-0.21438821 -0.18916607 0.79539108
-0.21127531 -0.18888852 0.79422408
-0.2081715 -0.18861176 0.79306042
-0.2050768 -0.18833584 0.79190022
-0.20166159 -0.18775389 0.78945327
-0.19823119 -0.18714133 0.78687763
-0.19482312 -0.18653277 0.7843188
-0.19143711 -0.18592814 0.78177649
-0.18807301 -0.18532741 0.77925062
-0.1855723 -0.1855723 0.78028029
-0.18381421 -0.18657835 0.78451043
-0.18203664 -0.18759501 0.78878522
-0.18023956 -0.1886228 0.79310679
-0.17842267 -0.18966191 0.79747593
-0.17658567 -0.19071253 0.80189353
-0.1747282 -0.19177485 0.8063603
-0.17284991 -0.19284907 0.81087708
-0.17095046 -0.19393539 0.81544483
-0.16902952 -0.19503406 0.82006437
-0.27584547 -0.19208089 0.81979215
-0.27254435 -0.19179046 0.81855267
-0.2692531 -0.19150087 0.81731671
-0.26597181 -0.19121216 0.8160845
-0.26270041 -0.19092433 0.81485605
-0.25943878 -0.19063734 0.81363118
-0.25618699 -0.19035122 0.81241006
-0.25294492 -0.19006597 0.81119257
-0.24971257 -0.18978155 0.80997872
-0.24648988 -0.18949801 0.80876857
-0.24327677 -0.18921527 0.80756187
-0.23975964 -0.18868658 0.80530542
-0.2361338 -0.18805866 0.80262548
-0.23253202 -0.18743491 0.79996336
-0.22895406 -0.18681528 0.79731882
-0.22539967 -0.18619972 0.79469168
-0.22186863 -0.18558823 0.79208183
-0.21836072 -0.18498074 0.78948909
-0.21487567 -0.18437719 0.78691316
-0.21141331 -0.18377759 0.78435409
-0.20797341 -0.18318187 0.78181159
-0.20455571 -0.18258999 0.77928549
-0.20116003 -0.18200193 0.77677566
-0.19778617 -0.18141766 0.77428204
-0.19443388 -0.18083711 0.77180427
-0.191103 -0.18026027 0.76934236
-0.18905407 -0.18089347 0.77204478
-0.18733351 -0.18186392 0.77618665
-0.18559439 -0.18284485 0.78037322
-0.18383603 -0.18383603 0.78460354
-0.18205841 -0.18483792 0.78887957
-0.1802613 -0.1858508 0.79320246
-0.17844431 -0.18687476 0.79757267
-0.17660721 -0.18791008 0.80199134
-0.17474963 -0.1889569 0.80645919
-0.17287123 -0.19001549 0.81097716
-0.17097166 -0.19108598 0.81554598
-0.16905059 -0.19216862 0.82016665
-0.27558416 -0.18901323 0.81901556
-0.27177575 -0.18837367 0.8162443
-0.267993 -0.18773842 0.8134917
-0.26423553 -0.18710731 0.81075704
-0.26050326 -0.18648046 0.80804086
-0.25679585 -0.18585779 0.80534267
-0.25311318 -0.18523924 0.80266249
-0.2494549 -0.18462481 0.80000007
-0.24582084 -0.18401445 0.79735535
-0.24221072 -0.18340811 0.79472798
-0.23862429 -0.18280573 0.79211783
-0.23506136 -0.18220733 0.78952485
-0.23152168 -0.1816128 0.78694874
-0.22800502 -0.18102217 0.78438944
-0.22451119 -0.18043537 0.78184676
-0.22103989 -0.17985234 0.77932042
-0.21759097 -0.17927307 0.77681035
-0.21416421 -0.17869753 0.77431649
-0.21075936 -0.17812565 0.77183849
-0.20737624 -0.17755744 0.76937634
-0.20401466 -0.17699285 0.76692992
-0.20067437 -0.17643182 0.76449895
-0.19735517 -0.17587434 0.76208329
-0.19412981 -0.17538625 0.75996834
-0.19246313 -0.17631237 0.76398134
-0.19077872 -0.17724831 0.7680369
-0.18907633 -0.17819424 0.77213567
-0.1873557 -0.17915033 0.77627856
-0.1856164 -0.18011665 0.78046572
-0.18385784 -0.18109307 0.78469664
-0.18208015 -0.18208015 0.78897375
-0.18028297 -0.18307805 0.79329777
-0.17846595 -0.18408692 0.79766935
-0.17662877 -0.18510695 0.80208921
-0.17477106 -0.18613829 0.80655813
-0.17289256 -0.18718119 0.81107718
-0.1709929 -0.18823588 0.81564724
-0.16907169 -0.18930249 0.82026899
-0.27759486 -0.18363969 0.80806834
-0.27383044 -0.18302657 0.80537045
-0.27009109 -0.18241753 0.80269051
-0.26637655 -0.18181257 0.8000285
-0.26268652 -0.18121156 0.7973839
-0.25902086 -0.18061456 0.79475689
-0.25537926 -0.18002144 0.79214698
-0.25176147 -0.17943221 0.78955424
-0.24816732 -0.17884684 0.78697842
-0.24459654 -0.17826527 0.78441936
-0.24104892 -0.17768748 0.78187692
-0.23752418 -0.17711341 0.77935082
-0.23402216 -0.17654303 0.77684098
-0.23054264 -0.17597634 0.77434736
-0.22708537 -0.17541325 0.7718696
-0.22365017 -0.17485377 0.76940775
-0.22023679 -0.17429784 0.76696146
-0.21684507 -0.17374542 0.76453072
-0.21347477 -0.17319651 0.7621153
-0.2101257 -0.17265105 0.75971514
-0.20679766 -0.17210902 0.75733006
-0.20349044 -0.17157038 0.75495982
-0.20020379 -0.17103502 0.75260413
-0.19743389 -0.1709327 0.75215387
-0.19580168 -0.17182596 0.7560845
-0.19415234 -0.17272863 0.7600565
-0.19248554 -0.1736408 0.76407033
-0.19080107 -0.17456268 0.76812685
-0.18909861 -0.1754944 0.77222669
-0.18737786 -0.17643608 0.77637041
-0.18563831 -0.17738773 0.78055787
-0.18387969 -0.17834948 0.78478986
-0.18210188 -0.17932169 0.78906792
-0.18030459 -0.18030459 0.79339296
-0.17848749 -0.18129833 0.79776567
-0.17665026 -0.18230306 0.80218679
-0.17479251 -0.18331897 0.80665714
-0.17291391 -0.18434624 0.81117737
-0.17101412 -0.18538505 0.81574845
-0.16909279 -0.18643564 0.82037139
-0.28329855 -0.17899959 0.80005449
-0.27955249 -0.17840788 0.79740977
-0.2758311 -0.17782006 0.79478246
-0.27213418 -0.17723611 0.79217249
-0.26846147 -0.17665599 0.78957957
-0.26481271 -0.17607966 0.78700364
-0.2611877 -0.17550707 0.78444439
-0.25758612 -0.17493817 0.78190166
-0.25400791 -0.17437299 0.77937549
-0.25045267 -0.17381142 0.77686554
-0.2469203 -0.17325348 0.77437174
-0.24341053 -0.17269909 0.77189386
-0.23992313 -0.17214823 0.76943177
-0.23645791 -0.17160089 0.76698536
-0.23301467 -0.17105702 0.76455444
-0.22996894 -0.17079565 0.76338625
-0.22693878 -0.1705398 0.76224273
-0.22391772 -0.17028473 0.76110268
-0.22090566 -0.17003042 0.75996602
-0.21790259 -0.16977686 0.75883269
-0.21490845 -0.16952406 0.75770277
-0.21192323 -0.16927201 0.75657624
-0.20894687 -0.16902071 0.75545305
-0.20597932 -0.16877015 0.75433314
-0.20302056 -0.16852033 0.75321656
-0.20007053 -0.16827124 0.75210321
-0.19745652 -0.16830188 0.75224012
-0.19582427 -0.16918151 0.7561717
-0.19417484 -0.17007038 0.76014459
-0.19250795 -0.17096861 0.76415932
-0.19082341 -0.1718764 0.76821679
-0.18912087 -0.1727939 0.77231759
-0.18740004 -0.17372121 0.77646232
-0.18566024 -0.17465815 0.78065008
-0.18390153 -0.17560522 0.78488308
-0.18212365 -0.17656261 0.78916222
-0.18032624 -0.17753048 0.7934882
-0.17850904 -0.17850904 0.79786193
-0.1766717 -0.17949845 0.80228418
-0.17481387 -0.18049887 0.80675566
-0.1729352 -0.18151051 0.81127727
-0.17103533 -0.1825335 0.81584966
-0.16911389 -0.18356808 0.82047373
-0.16717054 -0.18461442 0.82515049
-0.28889021 -0.17445061 0.792198
-0.28516251 -0.17387958 0.7896049
-0.28145915 -0.17331229 0.78702879
-0.27777991 -0.1727487 0.78446943
-0.27412444 -0.17218871 0.78192651
-0.27072522 -0.17177996 0.7800703
-0.26756659 -0.17151704 0.77887636
-0.26441759 -0.1712549 0.777686
-0.26127818 -0.17099358 0.77649927
-0.25814837 -0.17073305 0.77531618
-0.2550281 -0.17047332 0.77413672
-0.25191727 -0.17021437 0.77296078
-0.24881588 -0.16995619 0.77178842
-0.2457239 -0.16969883 0.77061969
-0.24264127 -0.16944222 0.76945442
-0.23956794 -0.1691864 0.76829267
-0.23650387 -0.16893134 0.76713443
-0.23344904 -0.16867706 0.76597971
-0.23040338 -0.16842352 0.76482838
-0.22736688 -0.16817077 0.76368058
-0.22433946 -0.16791876 0.76253617
-0.22132111 -0.16766751 0.76139522
-0.21831177 -0.167417 0.76025766
-0.21531141 -0.16716725 0.7591235
-0.21231999 -0.16691823 0.75799268
-0.20933747 -0.16666996 0.75686526
-0.20636377 -0.1664224 0.75574106
-0.20339891 -0.16617559 0.75462025
-0.20044282 -0.1659295 0.75350273
-0.19749549 -0.16568413 0.75238854
-0.19584684 -0.16653644 0.7562589
-0.19419734 -0.16741151 0.76023269
-0.19253041 -0.16829582 0.76424843
-0.19084576 -0.16918951 0.76830679
-0.18914315 -0.17009276 0.77240855
-0.18742211 -0.17100558 0.77655375
-0.18568219 -0.17192794 0.78074235
-0.18392336 -0.17286029 0.78497624
-0.18214537 -0.17380284 0.78925639
-0.1803479 -0.17475572 0.79358351
-0.17853059 -0.17571908 0.79795825
-0.17669314 -0.17669314 0.80238158
-0.17483522 -0.17767806 0.80685419
-0.17295644 -0.17867401 0.81137687
-0.17105649 -0.1796812 0.81595063
-0.169135 -0.18069978 0.82057613
-0.16719152 -0.18172991 0.82525408
-0.29044721 -0.17093304 0.7888459
-0.28722253 -0.17066847 0.7876249
-0.28400785 -0.17040472 0.78640771
-0.28080311 -0.17014179 0.78519428
-0.27760822 -0.16987965 0.78398454
-0.27442315 -0.16961832 0.78277856
-0.27124786 -0.16935781 0.78157628
-0.26808232 -0.16909808 0.78037763
-0.26492649 -0.16883916 0.77918273
-0.26178029 -0.16858102 0.77799147
-0.25864369 -0.16832367 0.77680379
-0.25551668 -0.16806711 0.7756198
-0.25239915 -0.16781133 0.77443939
-0.24929112 -0.16755633 0.77326256
-0.24619251 -0.1673021 0.7720893
-0.24310327 -0.16704862 0.7709195
-0.2400234 -0.16679592 0.76975334
-0.23695283 -0.16654399 0.76859069
-0.23389153 -0.16629282 0.76743156
-0.23083946 -0.16604242 0.76627594
-0.22779655 -0.16579276 0.76512378
-0.22476278 -0.16554385 0.76397508
-0.2217381 -0.16529568 0.76282978
-0.21872248 -0.16504826 0.76168793
-0.21571589 -0.16480158 0.76054955
-0.21271822 -0.16455559 0.75941437
-0.20972946 -0.16431035 0.75828254
-0.20674965 -0.16406585 0.75715423
-0.20377867 -0.16382207 0.75602919
-0.20081653 -0.16357903 0.75490755
-0.19786313 -0.16333668 0.75378913
-0.19586943 -0.16389075 0.75634611
-0.19421984 -0.16475201 0.76032078
-0.19255285 -0.16562238 0.76433754
-0.19086812 -0.16650198 0.76839679
-0.18916541 -0.16739099 0.7724995
-0.18744414 -0.16828926 0.776645
-0.18570411 -0.16919708 0.78083456
-0.18394522 -0.17011476 0.78506958
-0.18216713 -0.17104243 0.78935069
-0.18036956 -0.17198028 0.79367882
-0.17855217 -0.17292847 0.7980547
-0.17671458 -0.17388716 0.80247897
-0.17485654 -0.17485654 0.80695266
-0.17297769 -0.17583682 0.81147653
-0.17107762 -0.17682813 0.81605136
-0.16915601 -0.17783068 0.82067811
-0.1672125 -0.17884468 0.82535762
-0.28778243 -0.16822064 0.78916019
-0.28456059 -0.16796017 0.78793824
-0.28134874 -0.16770048 0.78672004
-0.2781468 -0.16744161 0.78550559
-0.27495474 -0.16718353 0.7842949
-0.2717725 -0.16692626 0.78308797
-0.26860005 -0.16666977 0.78188473
-0.2654373 -0.16641405 0.78068513
-0.26228428 -0.16615915 0.77948928
-0.25914088 -0.16590501 0.77829707
-0.25600711 -0.16565165 0.77710849
-0.25288287 -0.16539906 0.77592355
-0.24976815 -0.16514724 0.77474225
-0.2466629 -0.16489619 0.77356446
-0.24356708 -0.1646459 0.77239031
-0.24048063 -0.16439636 0.77121967
-0.23740354 -0.16414759 0.77005261
-0.23433574 -0.16389956 0.76888907
-0.23127718 -0.16365227 0.76772898
-0.22822787 -0.16340575 0.76657248
-0.22518772 -0.16315997 0.76541942
-0.22215667 -0.16291489 0.76426977
-0.21913472 -0.16267055 0.76312351
-0.21612179 -0.16242693 0.76198065
-0.21311791 -0.16218407 0.76084131
-0.21012297 -0.16194192 0.75970531
-0.20713696 -0.16170047 0.75857264
-0.20415987 -0.16145976 0.75744343
-0.20119159 -0.16121976 0.7563175
-0.19823216 -0.16098048 0.75519502
-0.19589201 -0.16124444 0.75643331
-0.19424236 -0.1620919 0.76040894
-0.19257529 -0.16294833 0.76442659
-0.19089049 -0.16381383 0.76848686
-0.18918771 -0.16468857 0.77259052
-0.18746617 -0.16557232 0.77673632
-0.18572606 -0.16646558 0.78092682
-0.18396707 -0.16736855 0.78516281
-0.1821889 -0.16828135 0.78944498
-0.18039122 -0.16920416 0.79377413
-0.17857371 -0.17013717 0.79815102
-0.17673607 -0.17108051 0.80257648
-0.1748779 -0.17203435 0.80705118
-0.17299892 -0.17299892 0.81157619
-0.17109875 -0.17397435 0.81615216
-0.16917701 -0.17496084 0.82077998
-0.1675719 -0.17631479 0.82713163
-0.28834444 -0.16576323 0.79070139
-0.28511548 -0.16550606 0.78947467
-0.2818965 -0.16524968 0.7882517
-0.27868751 -0.16499409 0.78703254
-0.27548841 -0.16473931 0.78581721
-0.2722992 -0.16448529 0.78460556
-0.2691198 -0.16423208 0.78339767
-0.26595014 -0.16397962 0.78219348
-0.26279023 -0.16372795 0.78099298
-0.25964001 -0.16347705 0.77979612
-0.25649944 -0.16322692 0.77860302
-0.25336844 -0.16297755 0.77741349
-0.250247 -0.16272894 0.77622759
-0.24713509 -0.16248108 0.77504534
-0.24403264 -0.16223398 0.77386665
-0.2409396 -0.16198765 0.77269161
-0.23785596 -0.16174205 0.77152008
-0.23478162 -0.16149718 0.77035207
-0.2317166 -0.16125306 0.76918763
-0.22866081 -0.16100968 0.76802665
-0.22561421 -0.160767 0.76686907
-0.22257678 -0.16052508 0.76571506
-0.21954846 -0.16028385 0.76456439
-0.21652927 -0.16004337 0.7634173
-0.2135191 -0.1598036 0.76227355
-0.21051794 -0.15956455 0.76113331
-0.20752575 -0.15932621 0.75999641
-0.20454247 -0.15908858 0.75886291
-0.20156808 -0.15885167 0.75773281
-0.19860256 -0.15861547 0.7566061
-0.19591463 -0.15859754 0.75652063
-0.1942649 -0.15943119 0.76049715
-0.19259773 -0.16027364 0.7645157
-0.19091287 -0.16112505 0.76857698
-0.18920982 -0.16198538 0.77268082
-0.18748821 -0.16285473 0.77682763
-0.18574803 -0.16373344 0.78101915
-0.18398893 -0.16462167 0.78525609
-0.18221065 -0.16551961 0.78953928
-0.18041289 -0.16642739 0.7938695
-0.17859527 -0.16734518 0.7982474
-0.17675753 -0.16827317 0.80267394
-0.17489928 -0.16921149 0.80714983
-0.17302017 -0.17016034 0.81167585
-0.17144319 -0.17144319 0.81779522
-0.1702396 -0.17314968 0.82593524
-0.28890869 -0.16329621 0.79224867
-0.28567252 -0.16304237 0.79101712
-0.28244644 -0.16278933 0.78978944
-0.27923033 -0.16253705 0.78856552
-0.27602416 -0.16228557 0.78734541
-0.27282792 -0.16203485 0.78612906
-0.26964152 -0.16178492 0.78491646
-0.26646498 -0.16153575 0.78370762
-0.26329815 -0.16128735 0.78250247
-0.26014107 -0.16103971 0.78130102
-0.25699368 -0.16079284 0.78010327
-0.25385591 -0.16054671 0.77890915
-0.25072774 -0.16030134 0.77771872
-0.24760912 -0.16005673 0.77653193
-0.2445 -0.15981284 0.77534872
-0.24140033 -0.15956971 0.77416915
-0.23831008 -0.15932731 0.77299315
-0.23522919 -0.15908563 0.7718206
-0.2321576 -0.15884468 0.77065158
-0.22909532 -0.15860446 0.76948613
-0.2260423 -0.15836497 0.7683242
-0.22299847 -0.15812619 0.76716572
-0.21996382 -0.15788814 0.76601082
-0.21693827 -0.1576508 0.76485932
-0.21392183 -0.15741417 0.76371133
-0.21091439 -0.15717824 0.76256669
-0.20791598 -0.15694302 0.7614255
-0.20492654 -0.15670852 0.76028782
-0.20194599 -0.15647471 0.75915343
-0.19897436 -0.15624161 0.75802249
-0.19601153 -0.15600917 0.75689483
-0.19428742 -0.15676984 0.76058531
-0.1926202 -0.15759835 0.76460487
-0.19093525 -0.15843563 0.76866704
-0.18923196 -0.15928158 0.77277124
-0.18751024 -0.16013648 0.77691889
-0.18576996 -0.16100064 0.78111142
-0.1840108 -0.16187416 0.78534943
-0.18223244 -0.16275722 0.78963363
-0.18043457 -0.16364995 0.79396486
-0.17861687 -0.16455255 0.7983439
-0.176779 -0.16546515 0.80277145
-0.17522806 -0.16668035 0.80866712
-0.17407532 -0.16832076 0.81662577
-0.17289953 -0.16999365 0.82474202
-0.17169975 -0.17169975 0.83301926
-0.28623179 -0.16056906 0.7925657
-0.2829985 -0.16031934 0.79133314
-0.27977526 -0.16007042 0.79010445
-0.27656201 -0.15982227 0.78887957
-0.27335873 -0.15957488 0.78765851
-0.27016532 -0.15932827 0.78644121
-0.26698178 -0.15908241 0.78522766
-0.26380801 -0.15883729 0.78401774
-0.26064405 -0.15859294 0.78281164
-0.2574898 -0.15834934 0.78160924
-0.25434524 -0.15810649 0.78041053
-0.25121027 -0.15786439 0.77921551
-0.24808493 -0.15762302 0.77802414
-0.24496911 -0.1573824 0.7768364
-0.24186279 -0.15714249 0.77565223
-0.2387659 -0.15690331 0.77447164
-0.2356784 -0.15666483 0.77329457
-0.23260032 -0.15642712 0.77212113
-0.22953153 -0.15619008 0.77095121
-0.22647202 -0.15595378 0.76978481
-0.22342177 -0.15571821 0.76862198
-0.22038071 -0.15548332 0.76746261
-0.21734883 -0.15524916 0.76630682
-0.21432605 -0.15501569 0.76515442
-0.21131235 -0.15478294 0.76400554
-0.20830768 -0.15455087 0.76286
-0.20531201 -0.15431949 0.76171798
-0.20232533 -0.15408882 0.76057941
-0.19934751 -0.15385883 0.75944412
-0.19637862 -0.15362953 0.75831234
-0.19430996 -0.1541079 0.76067358
-0.19264264 -0.15492241 0.76469398
-0.19095758 -0.15574554 0.76875693
-0.18925409 -0.15657713 0.7728616
-0.18753231 -0.15741763 0.77701032
-0.18579192 -0.15826719 0.78120375
-0.18403266 -0.159126 0.78544277
-0.18225421 -0.15999416 0.78972799
-0.18045624 -0.16087183 0.79406023
-0.17892934 -0.16202264 0.79974055
-0.17782548 -0.16359943 0.80752361
-0.17669992 -0.16520725 0.81545973
-0.17555182 -0.16684677 0.82355237
-0.17438035 -0.16851883 0.83180559
-0.2867932 -0.15808602 0.79412025
-0.28355271 -0.15783969 0.79288286
-0.28032231 -0.15759413 0.79164934
-0.27710193 -0.15734935 0.7904197
-0.27389154 -0.15710531 0.78919381
-0.2706911 -0.15686202 0.78797174
-0.26750058 -0.1566195 0.78675348
-0.2643199 -0.15637773 0.78553897
-0.26114902 -0.15613671 0.78432822
-0.25798789 -0.15589643 0.78312117
-0.25483647 -0.15565687 0.78191781
-0.25169471 -0.15541805 0.78071815
-0.24856259 -0.15517996 0.77952212
-0.24543999 -0.15494256 0.77832961
-0.24232696 -0.15470591 0.77714086
-0.23922342 -0.15446998 0.77595568
-0.23612936 -0.15423478 0.77477419
-0.23304468 -0.15400028 0.77359623
-0.22996937 -0.1537665 0.77242184
-0.22690338 -0.15353343 0.77125102
-0.22384666 -0.15330105 0.77008373
-0.22079921 -0.15306939 0.76892
-0.21776092 -0.15283841 0.76775974
-0.2147318 -0.15260814 0.76660299
-0.21171181 -0.15237856 0.76544976
-0.20870088 -0.15214968 0.76429999
-0.20569898 -0.15192147 0.76315361
-0.20270605 -0.15169394 0.76201063
-0.19972213 -0.15146711 0.76087123
-0.19674705 -0.15124093 0.75973505
-0.19433251 -0.15144534 0.76076186
-0.19266511 -0.15224586 0.76478314
-0.19097979 -0.15305473 0.76884639
-0.18927622 -0.15387203 0.77295196
-0.18755434 -0.1546981 0.77710164
-0.18581389 -0.15553311 0.78129613
-0.18405454 -0.15637717 0.78553611
-0.18254983 -0.15746665 0.79100895
-0.18149298 -0.15898223 0.79862225
-0.1804156 -0.16052726 0.80638349
-0.17931707 -0.16210262 0.81429708
-0.17819646 -0.16370894 0.82236612
-0.17705315 -0.16534716 0.83059549
-0.17588672 -0.16701849 0.83899111
-0.28735685 -0.15559322 0.79568094
-0.28410912 -0.15535031 0.79443872
-0.28087151 -0.15510815 0.79320037
-0.27764401 -0.15486676 0.7919659
-0.27442649 -0.15462609 0.79073519
-0.27121899 -0.15438619 0.7895084
-0.26802143 -0.15414704 0.78828537
-0.26483375 -0.15390861 0.7870661
-0.26165593 -0.15367094 0.78585064
-0.25848788 -0.15343398 0.78463888
-0.25532958 -0.15319775 0.78343081
-0.25218096 -0.15296222 0.78222638
-0.24904203 -0.15272743 0.78102571
-0.24591269 -0.15249334 0.77982861
-0.24279293 -0.15225998 0.7786352
-0.23968275 -0.15202734 0.77744555
-0.23658201 -0.1517954 0.77625942
-0.23349075 -0.15156418 0.77507699
-0.23040889 -0.15133364 0.77389812
-0.22733639 -0.15110382 0.77272284
-0.22427319 -0.15087469 0.77155107
-0.22121927 -0.15064625 0.77038288
-0.21817461 -0.15041852 0.76921827
-0.21513909 -0.15019144 0.76805705
-0.21211277 -0.14996508 0.76689947
-0.20909555 -0.1497394 0.76574534
-0.2060874 -0.14951439 0.76459467
-0.20308825 -0.14929004 0.7634474
-0.2000981 -0.14906637 0.76230359
-0.19711691 -0.14884338 0.76116323
-0.19435506 -0.14878213 0.76085007
-0.1926876 -0.14956871 0.76487243
-0.19100203 -0.1503633 0.76893586
-0.18929838 -0.15116632 0.77304244
-0.1875764 -0.15197796 0.77719301
-0.18609211 -0.15300906 0.78246593
-0.18508048 -0.15446566 0.78991479
-0.18404946 -0.15595029 0.79750699
-0.18299839 -0.15746373 0.80524647
-0.18192673 -0.15900682 0.81313759
-0.18083347 -0.16058013 0.82118326
-0.17971818 -0.1621847 0.8293888
-0.17858037 -0.16382167 0.83775997
-0.28466773 -0.15285115 0.79600072
-0.28142288 -0.15261242 0.79475749
-0.27818817 -0.15237443 0.79351813
-0.27496353 -0.15213719 0.79228264
-0.27174893 -0.15190069 0.79105103
-0.26854429 -0.15166491 0.78982317
-0.2653496 -0.15142988 0.78859919
-0.26216471 -0.15119553 0.78737879
-0.25898975 -0.15096194 0.78616232
-0.25582454 -0.15072905 0.78494948
-0.25266907 -0.15049689 0.78374046
-0.2495233 -0.15026541 0.78253502
-0.24638718 -0.15003465 0.78133333
-0.24326073 -0.14980462 0.78013539
-0.24014382 -0.14957529 0.77894109
-0.23703644 -0.14934665 0.77775043
-0.23393853 -0.14911872 0.77656341
-0.2308501 -0.14889149 0.77538007
-0.22777103 -0.14866492 0.7742002
-0.22470133 -0.14843906 0.77302396
-0.22164096 -0.14821389 0.77185136
-0.21858984 -0.14798939 0.77068228
-0.21554796 -0.14776558 0.76951671
-0.21251526 -0.14754245 0.76835465
-0.20949173 -0.14731999 0.76719618
-0.20647727 -0.14709818 0.7660411
-0.20347187 -0.14687705 0.76488948
-0.20047553 -0.14665659 0.76374143
-0.19748813 -0.14643678 0.76259673
-0.1945097 -0.14621763 0.76145548
-0.19271 -0.14689083 0.7649613
-0.19102424 -0.14767122 0.76902533
-0.18955867 -0.14864673 0.77410543
-0.18859063 -0.15004656 0.78139532
-0.18760417 -0.151473 0.78882378
-0.18659879 -0.15292683 0.79639488
-0.18557392 -0.15440883 0.80411267
-0.18452899 -0.15591985 0.81198156
-0.18346295 -0.15746032 0.82000387
-0.18237549 -0.15903142 0.82818568
-0.18126613 -0.1606342 0.83653247
-0.28522849 -0.15034211 0.79756874
-0.2819764 -0.15010683 0.79632062
-0.27873448 -0.1498723 0.79507643
-0.27550268 -0.1496385 0.79383612
-0.27228093 -0.14940543 0.79259962
-0.26906916 -0.14917305 0.79136688
-0.26586735 -0.1489414 0.79013795
-0.26267552 -0.14871047 0.78891289
-0.25949353 -0.14848025 0.78769153
-0.2563214 -0.14825076 0.78647405
-0.25315905 -0.14802195 0.78526026
-0.25000647 -0.14779387 0.78405029
-0.24686354 -0.14756648 0.78284395
-0.24373029 -0.14733978 0.7816413
-0.24060667 -0.14711379 0.78044242
-0.23749259 -0.14688848 0.77924716
-0.23438807 -0.14666387 0.77805561
-0.23129299 -0.14643994 0.77686763
-0.22820738 -0.14621671 0.77568334
-0.22513112 -0.14599413 0.77450258
-0.22206424 -0.14577223 0.77332544
-0.21900667 -0.14555103 0.77215189
-0.21595836 -0.14533047 0.77098185
-0.21291929 -0.14511059 0.76981544
-0.20988938 -0.14489138 0.7686525
-0.20686863 -0.14467283 0.76749307
-0.20385696 -0.14445493 0.7663371
-0.20085436 -0.1442377 0.76518464
-0.19786076 -0.14402111 0.76403564
-0.19487615 -0.14380516 0.76289004
-0.19295196 -0.14437664 0.76592177
-0.19202586 -0.14572175 0.77305758
-0.19108233 -0.14709215 0.78032762
-0.19012089 -0.14848858 0.7877357
-0.18914104 -0.14991178 0.79528582
-0.1881422 -0.15136252 0.80298203
-0.18712385 -0.15284161 0.81082869
-0.18608484 -0.15434943 0.81882769
-0.1850251 -0.15588728 0.82698601
-0.18394403 -0.1574561 0.83530861
-0.18284096 -0.15905677 0.84380025
-0.28579152 -0.1478232 0.79914308
-0.28253213 -0.1475914 0.79789001
-0.27928293 -0.14736034 0.79664087
-0.27604389 -0.14713 0.79539561
-0.27281496 -0.14690036 0.79415417
-0.26959607 -0.14667143 0.7929166
-0.26638719 -0.14644322 0.79168284
-0.26318827 -0.14621571 0.7904529
-0.25999933 -0.14598893 0.78922689
-0.2568202 -0.14576283 0.78800458
-0.25365096 -0.14553744 0.78678608
-0.25049147 -0.14531273 0.78557134
-0.24734175 -0.14508873 0.78436041
-0.2442017 -0.14486542 0.78315312
-0.2410713 -0.14464279 0.78194952
-0.23795052 -0.14442083 0.78074968
-0.23483929 -0.14419957 0.77955347
-0.23173757 -0.14397897 0.7783609
-0.22864535 -0.14375906 0.77717203
-0.22556256 -0.14353982 0.77598679
-0.22248916 -0.14332125 0.77480519
-0.2194251 -0.14310332 0.7736271
-0.21637034 -0.14288607 0.77245265
-0.21332484 -0.14266948 0.77128172
-0.21028858 -0.14245355 0.77011442
-0.20726147 -0.14223826 0.76895052
-0.2042435 -0.14202362 0.7677902
-0.20123462 -0.14180963 0.76663333
-0.19823481 -0.14159629 0.76547998
-0.19538854 -0.14148825 0.76489592
-0.19448635 -0.14280467 0.77201253
-0.19356722 -0.1441458 0.77926284
-0.19263068 -0.14551239 0.78665066
-0.1916762 -0.14690511 0.79417986
-0.19070327 -0.14832476 0.80185461
-0.1897113 -0.14977208 0.80967891
-0.18869923 -0.15124749 0.81765503
-0.18766704 -0.15275224 0.82578987
-0.18661408 -0.15428723 0.83408815
-0.18553977 -0.15585341 0.84255499
-0.28309 -0.14506601 0.79946548
-0.27983347 -0.14483844 0.79821128
-0.27658719 -0.14461158 0.79696107
-0.27335104 -0.14438541 0.79571468
-0.270125 -0.14415997 0.79447228
-0.26690903 -0.14393523 0.79323369
-0.26370305 -0.14371119 0.79199898
-0.26050705 -0.14348784 0.79076809
-0.25732097 -0.14326519 0.78954107
-0.25414476 -0.14304322 0.7883178
-0.25097838 -0.14282195 0.78709835
-0.24782178 -0.14260136 0.78588265
-0.24467494 -0.14238146 0.78467077
-0.24153775 -0.14216222 0.78346252
-0.2384102 -0.14194365 0.78225797
-0.23529229 -0.14172576 0.78105718
-0.2321839 -0.14150853 0.77986002
-0.22908506 -0.14129198 0.77866662
-0.22599564 -0.14107607 0.77747673
-0.22291571 -0.14086084 0.7762906
-0.21984513 -0.14064626 0.77510804
-0.2167839 -0.14043233 0.77392906
-0.21373196 -0.14021905 0.77275366
-0.21068929 -0.14000644 0.77158189
-0.20765582 -0.13979444 0.77041358
-0.20463151 -0.13958308 0.76924878
-0.20161635 -0.13937238 0.76808757
-0.19861026 -0.13916229 0.76692981
-0.19694023 -0.13989547 0.7709704
-0.19604537 -0.1412075 0.77820104
-0.19513355 -0.14254437 0.78556859
-0.19420432 -0.1439068 0.79307699
-0.19325717 -0.14529553 0.80073035
-0.19229141 -0.14671122 0.8085323
-0.19130614 -0.14815439 0.81648564
-0.19030136 -0.14962626 0.82459718
-0.18927637 -0.15112764 0.83287138
-0.18823062 -0.15265948 0.84131342
-0.18716343 -0.15422267 0.8499282
-0.28038627 -0.1423066 0.79978806
-0.27713263 -0.14208323 0.79853272
-0.27388927 -0.14186059 0.79728144
-0.27065605 -0.14163867 0.79603416
