# .PCD v0.7 - Point Cloud Data file format
VERSION 0.7
FIELDS x y z
SIZE 4 4 4
TYPE F F F
COUNT 1 1 1
WIDTH 789
HEIGHT 1
VIEWPOINT 0 0 0 1 0 0 0
POINTS 789
DATA ascii
0.30980948 -0.49703249 1.2651767
0.3126429 -0.49446359 1.2586377
0.31544715 -0.4919211 1.2521658
0.31822273 -0.48940462 1.2457602
0.32097009 -0.4869138 1.2394199
0.32434717 -0.48543236 1.235649
0.32919067 -0.48615578 1.2374904
0.33404863 -0.48688135 1.2393373
0.3389211 -0.48760906 1.2411897
0.34380817 -0.48833898 1.2430477
0.34870991 -0.48907113 1.2449113
0.35362631 -0.4898054 1.2467804
0.35855755 -0.49054193 1.2486552
0.30717641 -0.49551815 1.2727367
0.31003892 -0.49293959 1.2661136
0.31287321 -0.49038994 1.2595649
0.31567839 -0.48786661 1.2530837
0.31845477 -0.485369 1.2466686
0.32120419 -0.4828988 1.2403239
0.32392466 -0.480452 1.2340393
0.32838276 -0.4806132 1.2344533
0.33322757 -0.48132873 1.2362912
0.33808684 -0.4820464 1.2381345
0.3429606 -0.48276621 1.2399833
0.34784895 -0.48348817 1.2418377
0.35275194 -0.48421231 1.2436976
0.35766959 -0.4849385 1.2455629
0.30451182 -0.49398583 1.2803881
0.30740657 -0.49140176 1.2736903
0.31027114 -0.48884445 1.2670619
0.31310388 -0.4863103 1.2604935
0.31590992 -0.48380613 1.2540028
0.31868872 -0.48132986 1.2475845
0.32143793 -0.47887692 1.2412266
0.32415947 -0.47644913 1.2349339
0.32757881 -0.47509775 1.2314311
0.33241054 -0.47580332 1.2332599
0.33725664 -0.476511 1.2350942
0.34211719 -0.4772208 1.2369339
0.34699228 -0.47793275 1.2387793
0.35188189 -0.47864679 1.24063
0.35678604 -0.47936285 1.242486
0.36170483 -0.48008096 1.2443473
0.30474135 -0.48984349 1.2813532
0.3076371 -0.48727921 1.2746454
0.31050107 -0.48473907 1.2680008
0.31333739 -0.48222846 1.2614335
0.31614172 -0.47973952 1.2549229
0.31892329 -0.47728521 1.2485027
0.32167169 -0.47484869 1.2421292
0.32439464 -0.47244054 1.2358298
0.32709011 -0.47005665 1.229594
0.33159751 -0.47030497 1.2302436
0.33643055 -0.47100279 1.2320689
0.34127796 -0.47170267 1.2338997
0.34613979 -0.47240463 1.2357359
0.35101604 -0.47310856 1.2375773
0.35590678 -0.47381458 1.2394241
0.36081216 -0.47452268 1.2412764
0.30204388 -0.48826644 1.2891091
0.30497125 -0.48569494 1.2823199
0.30786794 -0.48315045 1.275602
0.31073368 -0.48063123 1.2689508
0.31472379 -0.47989798 1.2670149
0.31965774 -0.48060429 1.2688797
0.31915843 -0.47323492 1.2494233
0.32190642 -0.47081551 1.2430356
0.32463014 -0.46842605 1.236727
0.32732639 -0.46606076 1.2304822
0.33078843 -0.46483344 1.2272419
0.33560845 -0.46552143 1.2290583
0.34044281 -0.46621147 1.2308801
0.34529144 -0.46690354 1.2327073
0.35015446 -0.46759754 1.2345396
0.35503191 -0.46829361 1.2363774
0.3599239 -0.46899176 1.2382206
0.36483052 -0.46969199 1.2400693
0.30227312 -0.48409155 1.2900875
0.30520147 -0.48154011 1.283288
0.30809915 -0.4790155 1.2765599
0.31138796 -0.47716284 1.2716227
0.31633502 -0.47786781 1.2735014
0.32129523 -0.47857261 1.2753797
0.32627007 -0.47927949 1.2772635
0.3221415 -0.46677646 1.2439433
0.32486603 -0.4644058 1.2376256
0.32756302 -0.46205911 1.2313718
0.33023286 -0.45973596 1.2251806
0.33479041 -0.46006683 1.2260624
0.33961171 -0.46074712 1.2278754
0.34444726 -0.46142933 1.2296934
0.34929705 -0.4621135 1.2315167
0.35416126 -0.4627997 1.2333454
0.35903999 -0.46348798 1.2351797
0.36393321 -0.46417829 1.2370193
0.29954207 -0.48246855 1.2979496
0.30250272 -0.47991031 1.2910674
0.30543208 -0.47737905 1.2842577
0.30833071 -0.47487432 1.2775193
0.31235653 -0.47415274 1.2755781
0.31731811 -0.47485194 1.2774591
0.32229364 -0.47555214 1.2793429
0.32728386 -0.47625446 1.2812322
0.3223812 -0.46273765 1.244869
0.32510221 -0.46037963 1.2385254
0.32779998 -0.45805162 1.2322625
0.33047053 -0.45574695 1.2260624
0.33397633 -0.45463875 1.2230811
0.33878466 -0.45530933 1.2248851
0.34360716 -0.45598182 1.2266942
0.34844387 -0.45665625 1.2285086
0.35329494 -0.4573327 1.2303284
0.35816038 -0.45801115 1.2321537
0.36304033 -0.45869166 1.2339844
0.3679347 -0.4593741 1.2358203
0.29677758 -0.48082569 1.3059082
0.29977122 -0.47826096 1.2989424
0.30273256 -0.47572261 1.2920483
0.30566257 -0.47321093 1.2852267
0.3085618 -0.47072569 1.2784768
0.31295258 -0.47055459 1.2780122
0.31792229 -0.47124654 1.2798915
0.3229067 -0.47194055 1.2817764
0.3279058 -0.47263664 1.283667
0.32261711 -0.45868689 1.2457799
0.32534197 -0.45635214 1.2394388
0.32803875 -0.45404041 1.2331601
0.33070898 -0.45175281 1.2269471
0.33335313 -0.44948906 1.2207989
0.33796164 -0.44989797 1.2219094
0.34277111 -0.45056078 1.2237096
0.34759486 -0.45122561 1.2255152
0.35243282 -0.45189238 1.2273262
0.35728508 -0.45256111 1.2291424
0.36215177 -0.45323187 1.2309642
0.36703292 -0.4539046 1.2327913
0.29700586 -0.47659078 1.3069127
0.29999965 -0.47404525 1.2999322
0.3029623 -0.47152779 1.2930288
0.30589285 -0.46903571 1.286195
0.3087936 -0.46657139 1.2794373
0.31322828 -0.46646225 1.2791381
0.31820059 -0.46714556 1.2810118
0.3231875 -0.46783084 1.282891
0.32818913 -0.46851826 1.2847761
0.32285485 -0.45463231 1.2466979
0.32557735 -0.45231214 1.2403355
0.32827857 -0.45002425 1.2340616
0.33094868 -0.44775411 1.2278364
0.33359307 -0.44550818 1.2216775
0.33818159 -0.44588274 1.2227046
0.3430011 -0.44654858 1.2245306
0.347835 -0.44721645 1.226362
0.35268342 -0.44788632 1.2281989
0.35754636 -0.44855815 1.2300413
0.3624239 -0.44923201 1.2318891
0.36731616 -0.44990796 1.2337427
0.29723454 -0.47234946 1.3079189
0.3002294 -0.46982464 1.3009278
0.30319241 -0.46732664 1.2940109
0.30612406 -0.46485505 1.2871672
0.30902594 -0.46241108 1.2803999
0.3131513 -0.46184185 1.2788237
0.31811979 -0.46251458 1.2806865
0.32310244 -0.46318883 1.2825534
0.32033554 -0.45288816 1.2540313
0.32309043 -0.45056826 1.2476076
0.32581723 -0.44827202 1.2412493
0.32851633 -0.445999 1.2349554
0.33118823 -0.44374892 1.2287251
0.33383331 -0.44152147 1.2225573
0.33861813 -0.44214469 1.224283
0.3434445 -0.4428058 1.2261136
0.34828532 -0.44346887 1.2279496
0.35314068 -0.444134 1.2297913
0.35801065 -0.44480112 1.2316386
0.36289525 -0.44547024 1.2334913
0.36779451 -0.44614127 1.2353494
0.2974636 -0.46810162 1.3089268
0.30045953 -0.4655976 1.3019249
0.30342355 -0.46312016 1.2949975
0.30635622 -0.46066901 1.2881434
0.30925801 -0.45824364 1.2813615
0.31254333 -0.4564482 1.276341
0.31749552 -0.45710349 1.2781733
0.32246178 -0.45776042 1.2800103
0.32057238 -0.44880134 1.2549585
0.32332808 -0.44650066 1.2485253
0.32605562 -0.44422343 1.2421576
0.3287555 -0.44196931 1.2358545
0.33142811 -0.43973798 1.2296151
0.33423692 -0.43774253 1.2240354
0.33905575 -0.43839693 1.2258652
0.34388903 -0.4390533 1.2277006
0.34873682 -0.43971166 1.2295415
0.35359919 -0.44037199 1.231388
0.35847613 -0.44103429 1.2332399
0.3633678 -0.44169855 1.2350974
0.36827424 -0.4423649 1.2369606
0.29769298 -0.46384719 1.3099362
0.30069 -0.46136403 1.3029236
0.30365506 -0.45890725 1.2959855
0.30658874 -0.45647657 1.289121
0.30949181 -0.45407194 1.2823302
0.312365 -0.4516933 1.2756127
0.31520814 -0.44933924 1.2689648
0.31802547 -0.44701481 1.2624004
0.32081199 -0.44471177 1.2558964
0.32356602 -0.44242701 1.2494441
0.32629439 -0.44016892 1.2430671
0.32899499 -0.43793371 1.2367548
0.33166838 -0.43572119 1.2305064
0.33466882 -0.43398988 1.2256171
0.33949456 -0.43463951 1.2274517
0.34433475 -0.43529108 1.2292918
0.34918949 -0.43594465 1.2311375
0.35405883 -0.43660018 1.2329887
0.35894287 -0.43725765 1.2348455
0.36384156 -0.43791708 1.2367078
0.36875522 -0.4385787 1.2385762
0.29792273 -0.45958623 1.3109472
0.30092081 -0.45712397 1.3039237
0.30388695 -0.45468798 1.2969751
0.30682158 -0.45227775 1.2901001
0.30972844 -0.44989753 1.2833107
0.31260294 -0.44753948 1.2765844
0.31544429 -0.44520152 1.2699155
0.3182601 -0.44289342 1.2633318
0.32104537 -0.44060707 1.2568101
0.32380435 -0.4383474 1.2503644
0.32653347 -0.43610847 1.243978
0.32923484 -0.43389228 1.2376565
0.33190894 -0.43169856 1.2313989
0.33510181 -0.43022749 1.2272028
0.33993444 -0.43087232 1.2290422
0.34478164 -0.43151915 1.2308872
0.34964335 -0.43216789 1.2327377
0.3545197 -0.43281853 1.2345936
0.35941073 -0.43347111 1.2364551
0.36431664 -0.43412581 1.2383226
0.36923739 -0.43478251 1.2401958
0.29815283 -0.45531869 1.3119597
0.30115199 -0.4528774 1.3049254
0.30411914 -0.45046216 1.2979661
0.30705521 -0.44807315 1.2910824
0.30996227 -0.44571218 1.2842795
0.31283563 -0.44337136 1.2775346
0.31568077 -0.4410575 1.2708675
0.31849635 -0.4387677 1.2642696
0.32128468 -0.43650401 1.2577469
0.32404301 -0.43426174 1.251286
0.32677296 -0.43204209 1.2448903
0.32947508 -0.42984495 1.2385595
0.33214989 -0.42767012 1.2322929
0.33553594 -0.42645535 1.2287927
0.34037551 -0.42709538 1.2306368
0.34522963 -0.42773736 1.2324866
0.35009834 -0.4283812 1.2343419
0.35498175 -0.42902702 1.2362027
0.35987991 -0.4296748 1.2380692
0.36479294 -0.43032461 1.2399416
0.36972088 -0.43097639 1.2418196
0.2983833 -0.4510445 1.3129737
0.30138353 -0.44862431 1.3059287
0.30435172 -0.44622996 1.2989588
0.30728927 -0.44386229 1.2920666
0.31019554 -0.44151917 1.2852459
0.31307158 -0.43920115 1.2784982
0.31591758 -0.43690732 1.2718209
0.31873405 -0.43463734 1.2652131
0.3215223 -0.43239203 1.2586771
0.32428369 -0.43017223 1.2522154
0.32701275 -0.42796969 1.2458038
0.32971564 -0.42579171 1.2394638
0.33239117 -0.42363581 1.233188
0.33597121 -0.42267346 1.2303867
0.34081772 -0.42330864 1.2322357
0.34567881 -0.42394572 1.2340902
0.35055459 -0.42458475 1.2359504
0.35544497 -0.42522559 1.2378159
0.36035034 -0.42586857 1.2396876
0.36527053 -0.42651349 1.2415649
0.37020561 -0.42716032 1.2434478
0.29861411 -0.44676378 1.3139895
0.30161542 -0.4443647 1.3069335
0.30458513 -0.44199196 1.299955
0.30752474 -0.43964645 1.2930566
0.31043091 -0.43732238 1.2862211
0.31330788 -0.43502462 1.2794632
0.31615481 -0.43275091 1.2727759
0.31897211 -0.43050084 1.2661581
0.3217603 -0.42827404 1.2596089
0.32452229 -0.42607349 1.2531368
0.32725289 -0.42389134 1.2467188
0.32995653 -0.42173254 1.2403694
0.33263278 -0.41959563 1.2340845
0.3364076 -0.41888171 1.2319849
0.34126106 -0.419512 1.2338386
0.34612918 -0.4201442 1.235698
0.35101193 -0.4207783 1.2375629
0.35590953 -0.42141435 1.2394336
0.36082196 -0.42205238 1.2413101
0.36574936 -0.42269236 1.2431924
0.37069166 -0.42333427 1.2450804
0.29884529 -0.44247636 1.3150067
0.30184767 -0.44009849 1.3079399
0.30481926 -0.43774796 1.3009542
0.30775809 -0.43542069 1.2940378
0.31066659 -0.43311912 1.2871977
0.31354454 -0.43084177 1.2804296
0.31639239 -0.42858827 1.2737323
0.31921056 -0.42635816 1.2671046
0.32199955 -0.42415112 1.2605455
0.32476053 -0.42196777 1.2540567
0.32749343 -0.41980702 1.2476351
0.33019781 -0.41766742 1.2412764
0.3328748 -0.41554961 1.2349824
0.33684513 -0.41508013 1.2335871
0.34170559 -0.4157055 1.2354457
0.34658068 -0.41633278 1.2373099
0.35147053 -0.41696194 1.2391797
0.35637525 -0.41759309 1.2410555
0.36129487 -0.41822618 1.242937
0.36622941 -0.41886118 1.2448242
0.29907686 -0.43818235 1.3160256
0.3020809 -0.43582666 1.3089505
0.30505261 -0.43349582 1.3019502
0.3079932 -0.43119049 1.2950264
0.31090268 -0.42890957 1.2881759
0.31378156 -0.42665261 1.2813975
0.3166303 -0.42441934 1.2746902
0.31944934 -0.42220926 1.2680525
0.32223916 -0.4200221 1.2614836
0.32500032 -0.41785753 1.2549826
0.32773358 -0.41571572 1.2485499
0.33043945 -0.41359639 1.2421848
0.33311716 -0.41149765 1.2358814
0.33728379 -0.41126862 1.2351936
0.34215122 -0.41188905 1.237057
0.34703335 -0.41251135 1.2389259
0.35193041 -0.41313568 1.2408011
0.35684225 -0.41376185 1.2426817
0.36176899 -0.41438994 1.2445681
0.36671072 -0.41501993 1.2464602
0.29930875 -0.43388167 1.317046
0.30231383 -0.43154722 1.3099599
0.30528709 -0.42923826 1.302951
0.3082287 -0.42695382 1.2960166
0.31113914 -0.42469358 1.2891556
0.31401893 -0.42245713 1.2823669
0.31686857 -0.42024413 1.2756493
0.31968847 -0.41805416 1.2690017
0.32247919 -0.41588697 1.2624232
0.32524109 -0.41374204 1.2559123
0.327975 -0.41161963 1.2494698
0.33068141 -0.40951934 1.2430943
0.33335984 -0.4074398 1.2367818
0.33772364 -0.40744722 1.2368044
0.34259808 -0.4080627 1.2386726
0.34748733 -0.40868008 1.2405467
0.35239142 -0.40929934 1.2424265
0.35731038 -0.40992051 1.244312
0.36224434 -0.41054359 1.2462034
0.36719331 -0.41116858 1.2481005
0.29954118 -0.42957458 1.3180689
0.30254766 -0.42726195 1.310973
0.30552191 -0.42497411 1.3039532
0.30846453 -0.42271063 1.2970082
0.31137595 -0.42047119 1.2901368
0.31425667 -0.41825527 1.2833377
0.3171072 -0.41606262 1.27661
0.31992799 -0.41389284 1.2699524
0.32271951 -0.41174558 1.263364
0.32548222 -0.40962046 1.2568434
0.32821655 -0.40751719 1.2503899
0.33092371 -0.40543634 1.2440052
0.33360288 -0.40337601 1.2376835
0.33816457 -0.40361577 1.2384192
0.34304607 -0.40422624 1.2402923
0.34794244 -0.40483868 1.2421714
0.35285366 -0.40545297 1.2440562
0.3577798 -0.4060691 1.2459468
0.362721 -0.40668717 1.2478431
0.36767718 -0.40730703 1.2497451
0.29673421 -0.42757767 1.3262799
0.29977429 -0.4252612 1.3190945
0.30278182 -0.42297 1.3119876
0.30575714 -0.42070341 1.304957
0.30870071 -0.41846097 1.2980013
0.31161311 -0.41624233 1.2911195
0.31449479 -0.41404709 1.2843101
0.31734619 -0.41187483 1.2775722
0.32016784 -0.40972528 1.2709045
0.3229602 -0.40759805 1.2643062
0.32572371 -0.40549278 1.257776
0.32845885 -0.40340918 1.251313
0.33116615 -0.40134704 1.2449166
0.33384627 -0.39930633 1.2385865
0.33860666 -0.39977431 1.2400382
0.34349528 -0.40037984 1.2419164
0.34839875 -0.40098724 1.2438005
0.35331711 -0.40159646 1.2456902
0.35825047 -0.40220758 1.2475858
0.36319888 -0.40282056 1.2494872
0.36816236 -0.40343538 1.2513943
0.26090032 -0.41790229 1.3105918
0.2651045 -0.41725144 1.3085506
0.26966801 -0.41717872 1.3083225
0.27422994 -0.41710603 1.3080946
0.27879027 -0.41703334 1.3078667
0.28334901 -0.41696075 1.307639
0.28790617 -0.41688815 1.3074113
0.29246175 -0.41681558 1.3071837
0.29701528 -0.41674238 1.3069541
0.30156216 -0.41666222 1.3067027
0.30599266 -0.41642612 1.3059623
0.30893728 -0.41420478 1.298996
0.31185064 -0.41200703 1.2921035
0.31473321 -0.40983245 1.2852838
0.31758553 -0.40768072 1.2785357
0.32040808 -0.40555146 1.2718581
0.32320124 -0.40344432 1.2652498
0.32596558 -0.40135899 1.25871
0.3287015 -0.39929512 1.2522374
0.33140936 -0.39725229 1.2458309
0.33416912 -0.39532426 1.2397844
0.33904994 -0.39592284 1.2416615
0.34394565 -0.39652333 1.2435448
0.34885624 -0.39712566 1.2454338
0.35378182 -0.39772987 1.2473286
0.35872239 -0.3983359 1.2492292
0.36367798 -0.39894372 1.2511355
0.3686488 -0.39955348 1.2530477
0.261112 -0.41361991 1.3116552
0.26423499 -0.41128752 1.3042587
0.26732296 -0.40898129 1.2969453
0.2703765 -0.40670079 1.2897135
0.27339619 -0.40444559 1.2825619
0.27638254 -0.40221524 1.2754891
0.27933615 -0.40000936 1.2684939
0.28225753 -0.39782754 1.261575
0.28514725 -0.39566943 1.2547313
0.28800571 -0.39353451 1.2479612
0.29083356 -0.39142263 1.241264
0.2936312 -0.38933319 1.2346381
0.29639912 -0.38726601 1.2280827
0.30079961 -0.38736066 1.2283828
0.30558568 -0.38794214 1.2302268
0.31038618 -0.38852537 1.2320763
0.31520107 -0.3891103 1.2339312
0.32003048 -0.38969699 1.2357917
0.32487449 -0.39028546 1.2376579
0.32973316 -0.39087573 1.2395297
0.33460647 -0.39146769 1.2414069
0.33949444 -0.39206129 1.2432894
0.34439725 -0.39265671 1.2451775
0.34931502 -0.39325401 1.2470716
0.35424775 -0.39385307 1.2489713
0.3591955 -0.39445394 1.2508768
0.36415839 -0.39505669 1.2527882
0.36913648 -0.39566126 1.2547054
0.26132402 -0.40933055 1.3127202
0.26444834 -0.40702048 1.3053118
0.26753759 -0.40473637 1.2979866
0.27059236 -0.40247774 1.2907432
0.27361324 -0.40024418 1.2835802
0.27660078 -0.39803529 1.2764963
0.27955547 -0.39585054 1.2694899
0.28247797 -0.39368975 1.2625602
0.28536871 -0.39155242 1.2557058
0.28822821 -0.38943812 1.2489253
0.29105705 -0.3873466 1.2422178
0.29385573 -0.38527751 1.2355822
0.29662466 -0.38323039 1.2290171
0.30118996 -0.38352966 1.2299769
0.30598286 -0.38410616 1.2318257
0.31079015 -0.38468432 1.2336799
0.31561196 -0.38526425 1.2355397
0.32044828 -0.3858459 1.2374051
0.32529932 -0.3864294 1.2392763
0.33016485 -0.38701442 1.2411525
0.33504507 -0.38760114 1.2430341
0.3399401 -0.38818964 1.2449214
0.34485003 -0.38877997 1.2468146
0.34977493 -0.38937208 1.2487135
0.35471484 -0.38996601 1.2506182
0.35966989 -0.39056179 1.2525289
0.36464009 -0.39115939 1.2544453
0.36962548 -0.39175874 1.2563674
0.26153639 -0.40503424 1.313787
0.26466206 -0.40274659 1.3063667
0.26775256 -0.40048462 1.2990296
0.27080858 -0.3982479 1.2917745
0.27383062 -0.39603603 1.2846
0.27681935 -0.39384866 1.2775049
0.2797752 -0.39168528 1.2704877
0.28269875 -0.38954553 1.2635471
0.28559056 -0.38742906 1.256682
0.28845119 -0.38533556 1.2498915
0.29128107 -0.38326457 1.243174
0.2940807 -0.38121572 1.2365282
0.29685056 -0.37918869 1.2299532
0.30158135 -0.37968877 1.2315753
0.30638105 -0.38026017 1.2334287
0.31119522 -0.38083333 1.2352878
0.31602389 -0.38140815 1.2371523
0.32086721 -0.38198477 1.2390227
0.32572505 -0.38256297 1.2408981
0.33059752 -0.38314283 1.242779
0.33548477 -0.38372442 1.2446655
0.34038693 -0.38430783 1.2465578
0.34530401 -0.384893 1.248456
0.35023606 -0.38547993 1.2503598
0.35518324 -0.38606873 1.2522696
0.36014551 -0.38665929 1.2541852
0.36512303 -0.3872517 1.2561067
0.37011579 -0.3878459 1.2580341
0.26174912 -0.40073097 1.3148556
0.26487607 -0.39846575 1.3074231
0.26796788 -0.39622602 1.3000742
0.27102515 -0.39401135 1.2928076
0.27404842 -0.39182127 1.2856216
0.27703825 -0.38965544 1.2785152
0.27999529 -0.38751346 1.2714871
0.28292003 -0.38539502 1.2645361
0.28581294 -0.38329956 1.2576606
0.28867459 -0.38122675 1.2508595
0.29150546 -0.37917626 1.2441316
0.29430604 -0.37714773 1.2374756
0.29718164 -0.37527317 1.2313249
0.30197376 -0.37583783 1.2331777
0.30678028 -0.37640417 1.2350359
0.31160131 -0.3769722 1.2368997
0.31643698 -0.37754205 1.2387694
0.32128707 -0.37811336 1.240644
0.32615182 -0.37868634 1.242524
0.33103132 -0.37926108 1.2444098
0.3359257 -0.37983754 1.2463013
0.34083498 -0.3804158 1.2481986
0.34575918 -0.38099578 1.2501017
0.35069847 -0.38157758 1.2520106
0.35565284 -0.38216114 1.2539253
0.36062247 -0.38274655 1.2558461
0.36560726 -0.38333365 1.2577726
0.37060741 -0.38392264 1.2597051
0.26196215 -0.3964206 1.3159257
0.26509047 -0.394178 1.3084813
0.26818356 -0.39196056 1.3011205
0.27124205 -0.38976797 1.2938422
0.2742666 -0.38759992 1.2866453
0.27725771 -0.38545582 1.2795279
0.28021589 -0.38333535 1.272489
0.28314173 -0.38123807 1.265527
0.28603569 -0.37916359 1.2586408
0.28889835 -0.37711158 1.251829
0.2917302 -0.37508169 1.2450907
0.2945317 -0.37307349 1.2384245
0.2975682 -0.37141725 1.2329266
0.30236712 -0.37197682 1.2347841
0.30718055 -0.37253812 1.2366474
0.3120085 -0.37310109 1.2385161
0.3168509 -0.37366554 1.2403898
0.32170793 -0.3742317 1.2422692
0.32657969 -0.37479952 1.2441541
0.33146629 -0.3753691 1.2460449
0.33636776 -0.37594044 1.2479414
0.34128419 -0.37651351 1.2498437
0.34621558 -0.37708831 1.2517518
0.35116211 -0.37766489 1.2536658
0.35612375 -0.37824324 1.2555856
0.36110058 -0.37882331 1.2575111
0.36609274 -0.37940523 1.2594428
0.37110031 -0.37998894 1.2613804
0.26217556 -0.39210328 1.3169978
0.26530522 -0.38988331 1.3095413
0.26839969 -0.38768843 1.3021691
0.27145952 -0.38551813 1.2948796
0.27448529 -0.38337201 1.2876711
0.27747753 -0.38124964 1.2805425
0.28043684 -0.37915063 1.2734923
0.28336373 -0.37707457 1.2665193
0.28625879 -0.37502122 1.2596225
0.28912246 -0.37299004 1.2528001
0.29195526 -0.37098074 1.2460513
0.29475772 -0.36899301 1.2393749
0.29795578 -0.3675513 1.2345325
0.30276155 -0.3681058 1.2363949
0.30758187 -0.36866197 1.238263
0.31241655 -0.36921954 1.2401358
0.3172659 -0.36977887 1.2420144
0.32212988 -0.37033981 1.2438985
0.32700869 -0.37090248 1.2457885
0.33190238 -0.3714669 1.2476842
0.33681098 -0.37203303 1.2495857
0.34173456 -0.37260091 1.2514931
0.34667319 -0.3731705 1.2534063
0.3516269 -0.37374181 1.2553252
0.35659584 -0.3743149 1.2572501
0.36158007 -0.37488976 1.2591809
0.36657956 -0.37546635 1.2611176
0.26238954 -0.38777924 1.3180727
0.26552054 -0.38558203 1.3106042
0.26861626 -0.38340953 1.3032199
0.27167735 -0.38126147 1.2959186
0.27470431 -0.37913734 1.2886986
0.27769774 -0.37703675 1.2815586
0.28065816 -0.37495929 1.2744973
0.28358614 -0.37290463 1.2675134
0.28648221 -0.37087232 1.2606056
0.2893469 -0.36886209 1.2537727
0.29218069 -0.3668735 1.2470134
0.2949841 -0.36490628 1.2403268
0.2983444 -0.3636753 1.2361426
0.303157 -0.36422458 1.2380097
0.30798399 -0.36477539 1.2398819
0.31282562 -0.36532784 1.2417597
0.31768194 -0.36588195 1.2436432
0.32255298 -0.36643773 1.2455323
0.32743886 -0.36699525 1.2474272
0.33233964 -0.36755446 1.249328
0.33725539 -0.36811537 1.2512345
0.34218615 -0.36867797 1.2531469
0.347132 -0.36924231 1.2550651
0.35209298 -0.36980838 1.2569891
0.35706925 -0.37037617 1.2589191
0.36206073 -0.37094566 1.2608548
0.36706766 -0.37151697 1.2627968
0.26260427 -0.38344872 1.3191513
0.26573664 -0.38127428 1.3116708
0.26883361 -0.37912434 1.3042744
0.27189589 -0.37699851 1.2969611
0.27492398 -0.37489632 1.2897291
0.27791852 -0.37281752 1.2825775
0.28088003 -0.37076163 1.2755048
0.28380904 -0.36872828 1.2685096
0.28670612 -0.36671713 1.2615908
0.28957176 -0.3647278 1.254747
0.2924065 -0.36275992 1.2479771
0.29521084 -0.36081323 1.2412801
0.29873395 -0.35978907 1.2377567
0.30355328 -0.36033306 1.2396281
0.30838722 -0.36087868 1.2415051
0.31323579 -0.36142591 1.2433878
0.31809905 -0.36197481 1.2452761
0.32297719 -0.3625254 1.2471703
0.32790968 -0.36312145 1.2492208
0.33287212 -0.36373442 1.2513297
0.33785138 -0.36434954 1.2534457
0.3428475 -0.36496669 1.2555689
0.34786052 -0.36558589 1.2576991
0.35289061 -0.36620724 1.2598367
0.35793787 -0.36683074 1.2619816
0.3630023 -0.36745632 1.2641338
0.36808419 -0.36808419 1.2662938
0.26595303 -0.3769595 1.3127389
0.26905131 -0.37483218 1.3053306
0.27211484 -0.37272874 1.2980055
0.27514416 -0.37064874 1.2907621
0.27813986 -0.36859185 1.283599
0.28110248 -0.36655763 1.276515
0.28403258 -0.36454573 1.2695087
0.28693071 -0.36255586 1.2625791
0.28979734 -0.36058751 1.2557244
0.29263303 -0.35864049 1.248944
0.29543826 -0.35671437 1.2422364
0.30015829 -0.35712263 1.2436582
0.30505198 -0.35772282 1.2457483
0.30996212 -0.358325 1.2478454
0.31488886 -0.35892928 1.2499497
0.31983224 -0.35953555 1.252061
0.32479233 -0.36014387 1.2541795
0.32976922 -0.36075425 1.2563051
0.33476305 -0.36136672 1.258438
0.33977383 -0.36198127 1.2605782
0.34480172 -0.36259794 1.2627256
0.34984669 -0.36321664 1.2648802
0.35490897 -0.36383748 1.2670423
0.35998905 -0.36446095 1.2692134
0.3650865 -0.3650865 1.2713919
0.26616973 -0.37263763 1.3138086
0.26926935 -0.37053302 1.3063884
0.27233413 -0.36845207 1.2990515
0.27536467 -0.36639434 1.2917966
0.2783615 -0.36435938 1.284622
0.28132528 -0.36234695 1.2775267
0.28425646 -0.3603566 1.2705094
0.28715563 -0.35838804 1.2635688
0.29002327 -0.35644081 1.2567035
0.29285994 -0.35451469 1.2499125
0.29694521 -0.35413468 1.2485727
0.30185285 -0.35473219 1.2506794
0.30677709 -0.35533175 1.2527932
0.31171799 -0.35593331 1.2549142
0.3166756 -0.3565369 1.2570422
0.32165012 -0.35714254 1.2591776
0.32664156 -0.35775027 1.2613202
0.33164999 -0.35836005 1.2634702
0.33667555 -0.35897195 1.2656275
0.34171829 -0.35958591 1.2677921
0.34677863 -0.36020231 1.2699654
0.35185644 -0.36082095 1.2721465
0.35695174 -0.3614417 1.2743351
0.3620646 -0.3620646 1.2765312
0.26638681 -0.36830869 1.31488
0.26948771 -0.36622688 1.3074478
0.27255377 -0.36416849 1.3000993
0.27558553 -0.36213306 1.2928326
0.27858353 -0.36012018 1.2856466
0.28154841 -0.35812956 1.27854
0.28448069 -0.35616088 1.2715117
0.2873809 -0.35421368 1.2645601
0.29024959 -0.35228768 1.2576841
0.29370666 -0.35112301 1.2535262
0.2986283 -0.35171777 1.2556496
0.30356666 -0.35231459 1.2577802
0.30852181 -0.35291341 1.2599181
0.31349382 -0.35351431 1.2620633
0.31848282 -0.35411724 1.2642158
0.3234888 -0.3547222 1.2663755
0.32851195 -0.35532928 1.2685428
0.3335526 -0.3559387 1.2707185
0.33861071 -0.35655037 1.2729021
0.34368622 -0.35716411 1.2750933
0.3487792 -0.35777998 1.2772919
0.35388982 -0.35839799 1.2794982
0.35901812 -0.35901812 1.2817122
0.36416423 -0.35964045 1.2839339
0.26970643 -0.36191377 1.308509
0.27277371 -0.35987794 1.3011484
0.2758067 -0.35786489 1.2938702
0.27880591 -0.35587421 1.2866728
0.28177193 -0.35390556 1.2795551
0.28470528 -0.35195848 1.2725154
0.28760654 -0.35003275 1.2655529
0.29047623 -0.34812799 1.2586662
0.295378 -0.3486793 1.2606595
0.30033058 -0.34927332 1.2628071
0.30530003 -0.34986937 1.2649622
0.31028646 -0.35046744 1.2671245
0.31529 -0.3510676 1.2692944
0.32031089 -0.35167 1.2714723
0.32534921 -0.35227466 1.2736585
0.33040491 -0.35288143 1.2758523
0.33547804 -0.35349026 1.2780536
0.34056872 -0.35410124 1.2802626
0.34567702 -0.3547143 1.2824792
0.35080299 -0.35532948 1.2847034
0.35594684 -0.35594684 1.2869354
0.3611086 -0.35656634 1.2891753
0.26992548 -0.3575936 1.3095717
0.27299404 -0.35558048 1.3021994
0.27602822 -0.35358986 1.2949094
0.27902862 -0.35162145 1.2877007
0.28199577 -0.34967476 1.2805716
0.28493023 -0.34774947 1.2735208
0.28783253 -0.34584528 1.2665473
0.29210171 -0.34561652 1.2657095
0.29706854 -0.34620768 1.2678745
0.30205238 -0.34680086 1.2700468
0.30705339 -0.34739617 1.2722269
0.31207192 -0.34799388 1.2744159
0.31710774 -0.34859359 1.2766122
0.32216096 -0.34919545 1.2788162
0.32723165 -0.34979934 1.2810278
0.33231992 -0.35040537 1.2832471
0.33742583 -0.35101345 1.2854741
0.34254947 -0.35162362 1.2877086
0.347691 -0.35223597 1.2899512
0.35285044 -0.35285044 1.2922014
0.35802791 -0.35346705 1.2944596
0.27321473 -0.35127607 1.303252
0.27625009 -0.34930795 1.2959502
0.27925166 -0.3473618 1.2887299
0.28221995 -0.3454372 1.2815895
0.28515553 -0.34353384 1.2745279
0.28879902 -0.34252906 1.2708001
0.29378018 -0.34311733 1.2729826
0.29877883 -0.34370798 1.275174
0.30379474 -0.34430072 1.2773731
0.30882797 -0.34489548 1.2795796
0.3138786 -0.34549227 1.2817938
0.31894681 -0.34609121 1.2840159
0.32403255 -0.34669217 1.2862455
0.32913601 -0.34729522 1.2884829
0.33425725 -0.34790039 1.2907281
0.3393963 -0.34850761 1.2929809
0.34455344 -0.34911707 1.295242
0.34972855 -0.34972855 1.2975106
0.35492191 -0.35034227 1.2997875
