# .PCD v0.7 - Point Cloud Data file format
VERSION 0.7
FIELDS x y z
SIZE 4 4 4
TYPE F F F
COUNT 1 1 1
WIDTH 1385
HEIGHT 1
VIEWPOINT 0 0 0 1 0 0 0
POINTS 1385
DATA ascii
0.28498822 -0.088555664 0.91395521
0.28767589 -0.088392034 0.91226643
0.27559474 -0.085418254 0.91484195
0.27830258 -0.085260324 0.91315055
0.28100035 -0.08510296 0.91146517
0.28368801 -0.084946126 0.90978545
0.28636581 -0.08478988 0.90811199
0.2890338 -0.084634207 0.90644473
0.29169199 -0.084479108 0.90478355
0.29434046 -0.084324569 0.90312845
0.27162844 -0.081970707 0.91234642
0.27433619 -0.081819564 0.9106642
0.27703404 -0.081668995 0.9089883
0.2797218 -0.081518926 0.907318
0.28239962 -0.081369385 0.9056536
0.28506762 -0.081220388 0.90399522
0.28772593 -0.081071943 0.90234303
0.29037449 -0.080924034 0.90069681
0.29301342 -0.080776669 0.89905661
0.29564276 -0.08062984 0.89742237
0.29826251 -0.080483533 0.89579397
0.30087283 -0.08033777 0.8941716
0.30347371 -0.080192536 0.89255506
0.26768368 -0.078541927 0.90986449
0.27039137 -0.078397498 0.90819138
0.27308914 -0.078253612 0.9065246
0.27577701 -0.078110248 0.90486377
0.27845481 -0.077967353 0.90320837
0.28112286 -0.07782498 0.90155905
0.28378117 -0.077683121 0.8999157
0.28642982 -0.077541776 0.89827836
0.28906882 -0.077400945 0.89664686
0.29169828 -0.077260628 0.89502138
0.29431823 -0.077120818 0.89340174
0.2969287 -0.076981515 0.89178801
0.29952976 -0.07684271 0.89018005
0.30212143 -0.076704405 0.88857782
0.3047038 -0.076566599 0.88698143
0.30770516 -0.076535806 0.88662469
0.26376033 -0.075131737 0.9073959
0.26646793 -0.074993968 0.90573204
0.26916558 -0.074856699 0.90407419
0.27185336 -0.074719928 0.90242237
0.2745313 -0.07458365 0.90077645
0.2771993 -0.074447818 0.89913595
0.27985761 -0.074312471 0.89750135
0.28250626 -0.074177623 0.89587271
0.28514534 -0.074043266 0.89425004
0.28777489 -0.073909394 0.89263326
0.29039487 -0.073775999 0.89102215
0.2930055 -0.073643096 0.88941699
0.2956067 -0.073510662 0.88781756
0.29819858 -0.073378704 0.88622391
0.30078116 -0.073247224 0.88463593
0.30387262 -0.073241092 0.8845619
0.30726877 -0.073307782 0.88536727
0.31067106 -0.073374569 0.88617396
0.25985825 -0.071740009 0.90494078
0.26256567 -0.071608819 0.90328592
0.26526314 -0.071478091 0.9016369
0.26795083 -0.071347855 0.89999408
0.27062869 -0.071218081 0.89835709
0.27329674 -0.071088746 0.89672571
0.27595502 -0.070959866 0.89509994
0.2786037 -0.070831448 0.89348006
0.28124276 -0.070703484 0.89186591
0.28387234 -0.07057599 0.89025772
0.28649244 -0.070448957 0.8886553
0.28910312 -0.070322379 0.88705862
0.29170448 -0.070196263 0.88546771
0.29429644 -0.07007058 0.88388234
0.29687917 -0.069945358 0.88230276
0.30005792 -0.069961689 0.88250875
0.30344269 -0.070025235 0.88331038
0.30683362 -0.070088901 0.88411343
0.3102307 -0.07015267 0.88491786
0.31363395 -0.070216559 0.88572371
0.25597721 -0.06836658 0.9024989
0.25868443 -0.068241902 0.90085298
0.26138172 -0.068117663 0.8992129
0.26406923 -0.067993872 0.89757878
0.26674697 -0.067870528 0.89595056
0.26941505 -0.067747645 0.89432836
0.27207327 -0.06762515 0.89271134
0.27472189 -0.067503095 0.89110005
0.27736095 -0.067381471 0.8894946
0.27999052 -0.067260295 0.88789493
0.28261065 -0.067139551 0.88630098
0.28522137 -0.067019232 0.88471264
0.28782275 -0.066899344 0.88313007
0.2904149 -0.066779897 0.88155323
0.29299778 -0.066660874 0.87998199
0.29626086 -0.066697478 0.88046521
0.29963437 -0.066757917 0.88126308
0.30301401 -0.066818476 0.88206249
0.30639973 -0.066879131 0.88286322
0.30979156 -0.06693989 0.88366526
0.3131896 -0.067000762 0.88446885
0.31659383 -0.067061745 0.88527393
0.24940024 -0.065130003 0.90171331
0.25211707 -0.065011315 0.90007019
0.25482398 -0.064893067 0.89843297
0.25752109 -0.064775243 0.89680177
0.2602084 -0.064657845 0.89517641
0.26288599 -0.06454087 0.89355689
0.26555392 -0.064424321 0.89194334
0.2682122 -0.064308189 0.8903355
0.27086073 -0.064192429 0.88873279
0.2734997 -0.064077072 0.88713574
0.27612925 -0.063962139 0.88554454
0.27874938 -0.063847624 0.883959
0.28136015 -0.063733511 0.88237917
0.28396156 -0.063619807 0.88080496
0.28655371 -0.063506499 0.87923622
0.28913668 -0.0633936 0.87767321
0.29248136 -0.063448332 0.87843096
0.29584363 -0.063505702 0.87922519
0.29921204 -0.063563175 0.88002092
0.30258653 -0.063620754 0.88081807
0.30596706 -0.063678421 0.88161647
0.30935374 -0.0637362 0.88241637
0.31274655 -0.063794069 0.88321763
0.31614551 -0.063852049 0.88402033
0.31955069 -0.063910142 0.88482457
0.24556115 -0.061786354 0.89928889
0.24827765 -0.061674066 0.89765453
0.25098425 -0.061562177 0.89602602
0.25368112 -0.061450705 0.89440358
0.25636819 -0.061339628 0.89278686
0.25904557 -0.06122895 0.89117599
0.26171333 -0.061118681 0.88957101
0.26437148 -0.061008804 0.88797176
0.26702002 -0.060899302 0.88637799
0.26965892 -0.060790159 0.88478947
0.27228838 -0.06068141 0.88320661
0.27490845 -0.060573049 0.88162947
0.27751917 -0.060465071 0.88005787
0.28012061 -0.060357481 0.87849188
0.28271282 -0.060250271 0.87693149
0.28537413 -0.060159951 0.87561691
0.28871924 -0.060214173 0.87640607
0.29207039 -0.060268492 0.87719667
0.29542759 -0.060322911 0.87798876
0.29879087 -0.060377426 0.87878221
0.30216017 -0.060432035 0.87957704
0.30553558 -0.060486741 0.88037324
0.30891711 -0.06054154 0.88117087
0.31230474 -0.06059644 0.88196993
0.31569853 -0.06065144 0.88277042
0.31909844 -0.060706533 0.88357228
0.32250458 -0.060761731 0.88437569
0.24174263 -0.058460634 0.89687735
0.24445876 -0.058354672 0.89525175
0.24716507 -0.058249094 0.89363199
0.24986161 -0.058143899 0.89201814
0.25254843 -0.05803908 0.89041007
0.25522557 -0.057934638 0.88880777
0.25789309 -0.057830572 0.8872112
0.26055107 -0.057726882 0.88562047
0.26319948 -0.057623558 0.88403529
0.26583838 -0.057520583 0.88245553
0.26846772 -0.057417955 0.88088101
0.27108771 -0.057315689 0.8793121
0.27369839 -0.057213787 0.87774879
0.2762998 -0.05711225 0.87619102
0.27889198 -0.057011068 0.87463874
0.28164041 -0.056943685 0.87360501
0.28497446 -0.056994893 0.8743906
0.28831455 -0.057046197 0.87517768
0.29166061 -0.057097577 0.87596595
0.29501271 -0.05714906 0.87675577
0.29837087 -0.057200633 0.87754697
0.30173507 -0.057252299 0.87833959
0.30510533 -0.057304043 0.87913346
0.30848166 -0.057355888 0.87992883
0.31186414 -0.05740783 0.88072568
0.31525275 -0.057459861 0.88152391
0.3186475 -0.057511985 0.88232362
0.3220484 -0.057564206 0.88312477
0.32545546 -0.057616517 0.88392729
0.23794454 -0.055152707 0.8944788
0.24066027 -0.055053003 0.89286178
0.24336623 -0.054953665 0.89125067
0.24606246 -0.054854687 0.88964546
0.24874896 -0.05475606 0.88804591
0.25142583 -0.054657791 0.88645214
0.25409308 -0.054559868 0.88486397
0.25675082 -0.054462299 0.88328159
0.25939909 -0.05436508 0.88170487
0.26203793 -0.054268211 0.88013387
0.26466715 -0.05417164 0.87856764
0.26728702 -0.054075409 0.87700695
0.26989758 -0.053979516 0.87545174
0.27249894 -0.05388397 0.87390214
0.27509108 -0.053788759 0.87235796
0.27792376 -0.053742163 0.8716023
0.28124684 -0.053790383 0.87238431
0.28457591 -0.053838685 0.87316769
0.28791094 -0.053887073 0.87395245
0.29125199 -0.05393555 0.87473869
0.294599 -0.053984109 0.87552625
0.29795209 -0.054032758 0.87631524
0.30131117 -0.054081492 0.87710559
0.30467629 -0.054130305 0.87789726
0.3080475 -0.054179206 0.87869036
0.31142482 -0.054228202 0.87948495
0.31480825 -0.054277282 0.88028097
0.31819779 -0.054326452 0.88107842
0.32159349 -0.054375712 0.8818773
0.32499534 -0.054425057 0.88267761
0.32840335 -0.054474488 0.8834793
0.23416668 -0.051862422 0.89209294
0.23688202 -0.051768918 0.89048457
0.23958758 -0.051675752 0.88888204
0.24228342 -0.051582921 0.88728523
0.24496961 -0.051490426 0.88569421
0.24764614 -0.051398255 0.88410878
0.25031316 -0.051306423 0.88252914
0.25297064 -0.051214915 0.8809551
0.25561863 -0.051123731 0.8793866
0.25825727 -0.051032871 0.87782377
0.26088646 -0.050942328 0.8762663
0.26350617 -0.050852071 0.87471378
0.26611665 -0.050762132 0.87316674
0.26871789 -0.050672513 0.87162519
0.27130997 -0.050583214 0.87008911
0.27422419 -0.050555296 0.86960894
0.27753633 -0.050600547 0.87038726
0.2808544 -0.050645877 0.871167
0.28417844 -0.050691288 0.87194812
0.28750846 -0.050736789 0.87273079
0.29084447 -0.050782371 0.87351483
0.29418644 -0.050828025 0.87430018
0.29753447 -0.050873768 0.87508696
0.30088845 -0.050919581 0.87587506
0.30424845 -0.050965481 0.87666452
0.30761454 -0.051011458 0.87745541
0.31098673 -0.051057521 0.87824774
0.31436494 -0.051103663 0.87904143
0.31774935 -0.051149894 0.87983668
0.32113984 -0.051196206 0.88063329
0.3245365 -0.051242605 0.8814314
0.3279393 -0.051289085 0.88223094
0.3313483 -0.051335651 0.8830319
0.23040895 -0.048589643 0.88971984
0.23312384 -0.048502274 0.88812006
0.23582897 -0.048415218 0.88652599
0.23852439 -0.048328474 0.88493758
0.24121021 -0.048242044 0.88335496
0.24388643 -0.048155919 0.88177794
0.24655312 -0.048070107 0.88020664
0.24921027 -0.047984585 0.87864071
0.25185803 -0.04789938 0.8770805
0.2544964 -0.047814474 0.87552577
0.25712544 -0.047729872 0.87397665
0.25974509 -0.04764555 0.87243265
0.26235536 -0.0475615 0.8708936
0.26495647 -0.047477752 0.86936009
0.26754844 -0.047394294 0.86783195
0.27054146 -0.047382966 0.86762452
0.27384275 -0.047425281 0.86839932
0.27714995 -0.047467671 0.86917555
0.28046307 -0.04751014 0.86995316
0.28378212 -0.047552679 0.87073213
0.28710714 -0.0475953 0.87151253
0.29043809 -0.047637995 0.87229431
0.29377505 -0.047680765 0.87307751
0.29711798 -0.04772361 0.87386203
0.3004669 -0.047766529 0.87464792
0.3038218 -0.047809526 0.87543517
0.30718279 -0.047852598 0.87622386
0.31054986 -0.047895748 0.87701398
0.31392297 -0.047938976 0.87780553
0.31730214 -0.047982275 0.87859839
0.32068747 -0.04802566 0.8793928
0.32407892 -0.048069123 0.88018864
0.32747653 -0.048112668 0.88098598
0.33088028 -0.048156284 0.88178468
0.33433232 -0.048206054 0.88269597
0.23150924 -0.046949428 0.9189747
0.22667114 -0.045334227 0.88735926
0.22938555 -0.04525293 0.885768
0.2320902 -0.04517192 0.88418227
0.23478523 -0.045091201 0.88260233
0.23747064 -0.045010775 0.88102812
0.24014646 -0.044930629 0.87945932
0.24281278 -0.04485077 0.87789619
0.24546963 -0.044771191 0.87633854
0.24811709 -0.044691898 0.8747865
0.25075516 -0.044612885 0.87323987
0.25338396 -0.044534151 0.8716988
0.25600347 -0.044455692 0.87016308
0.25861365 -0.044377487 0.86863232
0.26121458 -0.044299547 0.86710674
0.2638064 -0.044221882 0.86558652
0.26687551 -0.044225082 0.86564916
0.27016601 -0.044264488 0.86642051
0.27346238 -0.044303961 0.8671931
0.27676466 -0.044343509 0.86796719
0.28007281 -0.044383124 0.86874259
0.28338692 -0.044422813 0.86951947
0.28670692 -0.044462573 0.87029773
0.29003286 -0.044502396 0.87107724
0.29336479 -0.044542301 0.8718583
0.29670268 -0.044582266 0.87264061
0.30004653 -0.044622306 0.87342429
0.30339637 -0.044662409 0.87420928
0.30675226 -0.04470259 0.87499577
0.3101142 -0.044742845 0.87578368
0.31348217 -0.044783168 0.87657297
0.31685627 -0.044823568 0.87736374
0.32023641 -0.044864036 0.87815589
0.32362264 -0.044904578 0.8789494
0.32701504 -0.044945195 0.87974447
0.3305302 -0.045001764 0.88085169
0.33500791 -0.045187112 0.88447964
0.22260618 -0.042626716 0.89616787
0.22476828 -0.042438768 0.8922165
0.22691135 -0.042252459 0.88829964
0.22903569 -0.042067777 0.884417
0.23114154 -0.041884709 0.88056821
0.23375069 -0.041796479 0.87871331
0.23642612 -0.041722257 0.87715286
0.23909207 -0.041648295 0.87559795
0.24174857 -0.041574594 0.87404847
0.24439567 -0.041501153 0.87250447
0.24703343 -0.041427966 0.87096584
0.24966195 -0.041355047 0.86943281
0.25228119 -0.041282378 0.86790502
0.25489128 -0.04120997 0.86638272
0.25749201 -0.041137777 0.86486501
0.26008365 -0.041065838 0.8633526
0.26322618 -0.041081544 0.86368275
0.26650599 -0.041118067 0.86445057
0.2697916 -0.041154649 0.86521971
0.27308309 -0.041191302 0.86599028
0.27638039 -0.041228015 0.8667621
0.27968362 -0.041264798 0.86753541
0.28299278 -0.041301653 0.86831021
0.28630778 -0.041338559 0.86908615
0.28962877 -0.04137554 0.86986363
0.2929557 -0.041412588 0.87064248
0.29628852 -0.041449688 0.87142253
0.29962733 -0.041486863 0.87220401
0.30297214 -0.041524101 0.87298691
0.30632293 -0.041561402 0.87377113
0.30967975 -0.041598771 0.87455678
0.31304264 -0.041636214 0.87534392
0.31641155 -0.04167372 0.87613243
0.31978658 -0.041711293 0.87692237
0.32316768 -0.041748933 0.87771374
0.32674396 -0.041810837 0.87901515
0.33119646 -0.041982647 0.88262725
0.33568627 -0.042155948 0.88627064
0.22119324 -0.039782956 0.9032923
0.22337866 -0.039606143 0.89927769
0.22554488 -0.039430924 0.8952992
0.2276919 -0.039257225 0.89135528
0.2298201 -0.039085049 0.88744599
0.23192969 -0.038914379 0.88357079
0.23402095 -0.038745191 0.87972927
0.2360941 -0.038577467 0.87592107
0.2381494 -0.038411193 0.87214571
0.2406936 -0.038327005 0.87023419
0.24333106 -0.038259599 0.86870372
0.24595924 -0.038192429 0.86717856
0.24857821 -0.038125493 0.8656587
0.25118804 -0.038058791 0.86414427
0.25378865 -0.037992314 0.86263484
0.25638005 -0.037926044 0.86113018
0.25959343 -0.037952255 0.86172527
0.26286256 -0.037985917 0.86248964
0.26613748 -0.038019639 0.86325526
0.26941821 -0.038053419 0.86402231
0.27270481 -0.038087264 0.86479074
0.27599722 -0.038121164 0.86556047
0.27929553 -0.038155127 0.86633164
0.28259972 -0.038189154 0.86710417
0.2859098 -0.038223237 0.86787808
0.28922582 -0.038257387 0.86865342
0.2925477 -0.038291585 0.86942995
0.29587552 -0.038325846 0.87020785
0.2992093 -0.038360167 0.87098712
0.30254906 -0.038394552 0.87176782
0.30589482 -0.038428996 0.87254995
0.30924657 -0.038463503 0.87333345
0.31260431 -0.03849807 0.87411827
0.31596816 -0.0385327 0.87490463
0.31933802 -0.038567394 0.87569237
0.3229734 -0.038633183 0.87718612
0.3274011 -0.038791601 0.88078302
0.33186564 -0.038951367 0.88441062
0.33636737 -0.039112486 0.88806891
0.21975766 -0.036893621 0.91053098
0.22196694 -0.036728341 0.90645188
0.22415653 -0.03656454 0.90240926
0.2263269 -0.036402229 0.89840341
0.22847787 -0.036241315 0.89443213
0.23060991 -0.036081824 0.89049584
0.23272327 -0.035923723 0.886594
0.23481819 -0.035767008 0.88272625
0.23689491 -0.035611652 0.87889206
0.23895366 -0.035457641 0.87509108
0.24099469 -0.035304956 0.87132281
0.24301821 -0.035153579 0.86758685
0.24502446 -0.035003494 0.86388278
0.24750382 -0.034923851 0.8619172
0.25010422 -0.034863014 0.86041576
0.25272435 -0.034806345 0.85901719
0.25597709 -0.034837119 0.85977668
0.25923562 -0.03486795 0.86053753
0.2624999 -0.034898832 0.86129975
0.26576999 -0.034929771 0.86206329
0.26904589 -0.034960765 0.86282825
0.27232757 -0.034991812 0.86359447
0.27561513 -0.035022914 0.86436212
0.27890855 -0.03505408 0.86513126
0.28220779 -0.035085291 0.86590153
0.28551292 -0.035116564 0.86667335
0.28882396 -0.035147887 0.86744642
0.2921409 -0.035179269 0.86822093
0.29546368 -0.035210699 0.86899656
0.29879245 -0.035242185 0.86977369
0.30212715 -0.035273731 0.87055218
0.30546787 -0.035305332 0.87133211
0.30881456 -0.03533699 0.87211341
0.31216726 -0.035368703 0.87289613
0.31552595 -0.035400473 0.87368017
0.31921861 -0.035468735 0.8753649
0.32362169 -0.035613868 0.87894678
0.32806107 -0.035760213 0.88255852
0.33253759 -0.035907816 0.88620138
0.33705121 -0.036056641 0.8898744
0.21829891 -0.033957608 0.91788667
0.22053254 -0.033804256 0.91374153
0.22274609 -0.033652287 0.9096337
0.22493985 -0.033501681 0.90556276
0.22711432 -0.033352453 0.90152907
0.22926925 -0.033204511 0.8975302
0.23140515 -0.03305788 0.89356667
0.23352225 -0.032912534 0.88963789
0.23562086 -0.032768462 0.88574362
0.23770115 -0.032625645 0.88188326
0.23976338 -0.032484069 0.87805641
0.24180779 -0.032343715 0.87426257
0.2438346 -0.032204568 0.8705014
0.2458441 -0.032066621 0.86677259
0.24783643 -0.031929847 0.86307549
0.24981187 -0.031794239 0.85940999
0.25237709 -0.031736042 0.8578369
0.25562507 -0.03176406 0.8585943
0.2588788 -0.031792134 0.85935307
0.26213828 -0.031820253 0.86011314
0.26540351 -0.031848423 0.86087459
0.26867455 -0.031876642 0.86163735
0.27195141 -0.031904913 0.86240155
0.27523407 -0.031933233 0.86316711
0.27852255 -0.031961605 0.86393398
0.28181693 -0.031990029 0.86470228
0.28511712 -0.032018501 0.86547184
0.28842321 -0.032047022 0.86624283
0.29173517 -0.032075595 0.86701512
0.29505301 -0.032104213 0.86778873
0.2983768 -0.032132886 0.86856371
0.30170646 -0.032161601 0.86933994
0.30504212 -0.032190375 0.87011766
0.30838376 -0.032219198 0.87089682
0.3117314 -0.032248076 0.87167734
0.31547934 -0.032317396 0.87355113
0.31985793 -0.032449357 0.87711805
0.32427251 -0.032582406 0.88071442
0.32872391 -0.032716598 0.88434172
0.33321229 -0.032851916 0.88799936
0.33773789 -0.032988355 0.89168733
0.21681637 -0.030973766 0.92536205
0.21907486 -0.030832758 0.92114931
0.22131288 -0.030693028 0.91697478
0.22353071 -0.030554557 0.91283786
0.22572863 -0.030417332 0.9087382
0.22790724 -0.030281382 0.90467656
0.23006617 -0.030146601 0.90064991
0.2322059 -0.030013008 0.89665872
0.23432679 -0.029880598 0.89270288
0.23642904 -0.029749349 0.88878173
0.23851289 -0.029619249 0.88489491
0.24057862 -0.029490283 0.88104194
0.2426264 -0.029362431 0.8772223
0.24465653 -0.029235687 0.87343574
0.24666922 -0.029110031 0.86968172
0.24866465 -0.02898545 0.86595976
0.25064331 -0.028861957 0.8622703
0.25260493 -0.028739484 0.85861135
0.255274 -0.028699445 0.85741514
0.25852293 -0.028724769 0.85817176
0.26177761 -0.028750144 0.85892981
0.26503807 -0.028775563 0.85968924
0.26830429 -0.028801024 0.86044991
0.27157626 -0.028826531 0.86121196
0.27485406 -0.028852083 0.86197531
0.27813768 -0.028877683 0.86274016
0.28142715 -0.028903328 0.86350632
0.28472242 -0.028929016 0.86427373
0.28802359 -0.028954752 0.86504263
0.29133058 -0.028980529 0.86581272
0.29464343 -0.029006349 0.86658412
0.29796222 -0.029032217 0.86735696
0.30128694 -0.029058132 0.86813116
0.30461755 -0.029084088 0.86890662
0.30795416 -0.029110096 0.86968362
0.31175551 -0.029179085 0.87174475
0.3161099 -0.029297991 0.87529713
0.3204999 -0.029417867 0.87887847
0.32492617 -0.029538743 0.88248974
0.32938942 -0.029660659 0.88613206
0.33388966 -0.029783584 0.88980454
0.33842736 -0.029907536 0.89350766
0.21352381 -0.028138796 0.93956721
0.21530949 -0.027940925 0.93296021
0.21759336 -0.027812686 0.92867821
0.21985638 -0.027685618 0.92443538
0.22209877 -0.027559701 0.92023098
0.22432089 -0.027434928 0.91606474
0.2265237 -0.027311368 0.91193902
0.22870573 -0.027188795 0.90784621
0.23086861 -0.027067354 0.90379125
0.23301221 -0.02694699 0.89977229
0.23513685 -0.026827693 0.89578891
0.23724276 -0.02670945 0.8918407
0.2393302 -0.026592245 0.88792717
0.24139936 -0.026476059 0.88404769
0.24345057 -0.02636089 0.88020211
0.24548399 -0.026246715 0.8763898
0.24749988 -0.026133528 0.87261039
0.24949886 -0.026021354 0.86886483
0.25148034 -0.025910094 0.86514986
0.25344491 -0.025799781 0.86146641
0.25539282 -0.025690403 0.85781425
0.2581681 -0.025665833 0.85699385
0.26141798 -0.025688473 0.85774982
0.26467362 -0.025711151 0.85850704
0.26793501 -0.025733871 0.85926569
0.27120218 -0.025756631 0.86002564
0.27447513 -0.025779432 0.86078697
0.27775389 -0.025802273 0.86154968
0.28103843 -0.025825154 0.86231363
0.28432882 -0.025848076 0.86307901
0.28762504 -0.025871035 0.86384565
0.29092708 -0.025894033 0.86461353
0.29423502 -0.025917074 0.86538291
0.29754883 -0.025940154 0.86615354
0.30086854 -0.025963277 0.8669256
0.30419421 -0.025986439 0.86769903
0.30804709 -0.026053732 0.869946
0.31237733 -0.02615968 0.8734836
0.31674299 -0.026266491 0.8770501
0.32114446 -0.026374182 0.88064593
0.32558265 -0.026482798 0.88427269
0.33005768 -0.026592324 0.8879298
0.33456981 -0.026702756 0.89161718
0.33911964 -0.026814111 0.89533538
0.21144629 -0.024973972 0.9450779
0.21377765 -0.024857866 0.9406842
0.21608743 -0.024742836 0.93633115
0.21837594 -0.024628865 0.93201822
0.22064345 -0.024515938 0.92774481
0.22289027 -0.024404043 0.92351043
0.22511666 -0.024293164 0.91931444
0.22732416 -0.02418342 0.91516149
0.22950983 -0.024074458 0.91103804
0.23167664 -0.023966549 0.90695453
0.23382413 -0.023859605 0.90290749
0.23595257 -0.023753613 0.89889652
0.23806214 -0.023648556 0.89492089
0.24015312 -0.023544423 0.89098024
0.2422258 -0.023441207 0.88707423
0.24428037 -0.023338888 0.88320225
0.24631709 -0.023237461 0.87936401
0.24833678 -0.023136968 0.87556106
0.25033844 -0.023037279 0.87178862
0.25232294 -0.022938451 0.86804867
0.25429046 -0.022840463 0.86434054
0.25624126 -0.022743307 0.86066395
0.25817555 -0.022646977 0.85701859
0.26105931 -0.022635201 0.85657299
0.26431018 -0.022655157 0.85732818
0.26756677 -0.022675149 0.85808468
0.27082908 -0.022695174 0.85884249
0.2740972 -0.022715239 0.8596018
0.27737108 -0.022735335 0.86036229
0.28065079 -0.02275547 0.86112422
0.28393632 -0.022775641 0.86188751
0.28722763 -0.022795843 0.86265206
0.29052475 -0.022816081 0.86341786
0.29382771 -0.022836352 0.86418498
0.29713657 -0.02285666 0.86495352
0.30045134 -0.022877006 0.86572343
0.30435389 -0.022941247 0.86815453
0.30866024 -0.023034345 0.87167758
0.31300166 -0.023128202 0.87522936
0.31737861 -0.023222825 0.87881011
0.3217918 -0.023318246 0.88242108
0.32624173 -0.023414478 0.88606274
0.33072862 -0.023511512 0.8897348
0.33525279 -0.023609351 0.89343727
0.33981478 -0.023708008 0.89717066
0.20986201 -0.021825649 0.95300478
0.21222027 -0.021723334 0.94853723
0.2145565 -0.021621972 0.94411135
0.21687102 -0.021521552 0.93972653
0.21916416 -0.02142206 0.93538231
0.2214362 -0.021323487 0.93107814
0.22368743 -0.021225814 0.9268133
0.22591811 -0.021129033 0.92258739
0.22812937 -0.021033205 0.91840315
0.2303196 -0.020938147 0.91425246
0.23249041 -0.020843968 0.91014022
0.23464176 -0.020750633 0.90606475
0.23677394 -0.020658128 0.90202564
0.23888718 -0.020566445 0.89802235
0.24098173 -0.020475572 0.89405441
0.24305788 -0.0203855 0.89012146
0.24511583 -0.020296216 0.8862229
0.24715681 -0.020207789 0.88236183
0.24917889 -0.020120034 0.87853009
0.25118369 -0.020033054 0.87473214
0.25317121 -0.019946823 0.87096685
0.25514171 -0.019861329 0.86723387
0.25709537 -0.019776568 0.86353278
0.25903246 -0.019692525 0.8598631
0.2609531 -0.019609194 0.85622448
0.26394773 -0.019607544 0.85615247
0.26719949 -0.019624822 0.85690689
0.27045706 -0.019642133 0.85766274
0.27372038 -0.019659474 0.85841995
0.2769894 -0.019676844 0.85917836
0.28026423 -0.019694244 0.85993814
0.28354487 -0.019711675 0.8606993
0.28683129 -0.019729136 0.8614617
0.29012349 -0.019746626 0.86222535
0.29342157 -0.019764148 0.86299044
0.29672545 -0.019781698 0.86375678
0.3006759 -0.019841557 0.8663705
0.30495846 -0.01992191 0.86987907
0.30927584 -0.020002915 0.87341613
0.31362849 -0.020084582 0.87698209
0.3180168 -0.020166919 0.88057727
0.32244185 -0.02024997 0.88420367
0.32690352 -0.020333713 0.88786018
0.33140227 -0.020418148 0.89154708
0.33593848 -0.020503288 0.89526463
0.34051275 -0.020589143 0.89901346
0.34512547 -0.020675719 0.90279371
0.20825091 -0.018624065 0.96106565
0.21063663 -0.018536024 0.95652241
0.21299988 -0.018448809 0.95202184
0.21534102 -0.018362412 0.94756347
0.21766032 -0.01827682 0.94314665
0.2199581 -0.018192023 0.93877077
0.22223468 -0.01810801 0.93443549
0.2244903 -0.018024769 0.9301399
0.22672528 -0.017942289 0.92588365
0.22894076 -0.017860627 0.9216696
0.23113512 -0.017779624 0.91748959
0.23330989 -0.01769937 0.91334826
0.23546509 -0.017619837 0.90924406
0.23760104 -0.017541017 0.90517664
0.23971793 -0.017462896 0.90114534
0.24181607 -0.01738547 0.89714986
0.24389572 -0.017308729 0.89318979
0.2459572 -0.01723267 0.88926488
0.24800129 -0.017157322 0.88537669
0.25002676 -0.017082574 0.88151944
0.25203466 -0.017008474 0.87769562
0.25402522 -0.016935015 0.87390488
0.25599867 -0.016862188 0.87014675
0.25795519 -0.016789984 0.86642075
0.25989506 -0.016718395 0.86272657
0.26181841 -0.016647413 0.85906363
0.26372552 -0.016577033 0.8554318
0.26683328 -0.016582858 0.85573238
0.27008602 -0.016597465 0.85648614
0.27334452 -0.016612098 0.85724121
0.27660874 -0.016626755 0.8579976
0.27987874 -0.01664144 0.85875535
0.28315452 -0.016656147 0.85951436
0.28643602 -0.016670879 0.86027455
0.28972337 -0.016685639 0.86103618
0.29301652 -0.016700422 0.86179912
0.29701298 -0.016754579 0.86459374
0.30127192 -0.01682229 0.86808789
0.30556542 -0.01689055 0.87161034
0.30989391 -0.016959369 0.87516159
0.3142578 -0.017028747 0.8787418
0.31865788 -0.017098716 0.88235235
0.32309455 -0.017169274 0.88599348
0.32756799 -0.017240422 0.88966489
0.33207873 -0.01731216 0.89336687
0.33662704 -0.017384496 0.89709961
0.34121358 -0.017457439 0.90086377
0.34583881 -0.017531 0.90465975
0.20661233 -0.015367859 0.96926409
0.20902611 -0.015294594 0.96464318
0.21141699 -0.015222023 0.96006608
0.21378529 -0.015150138 0.95553225
0.21613131 -0.015078929 0.95104104
0.21845537 -0.015008384 0.94659173
0.22075781 -0.014938499 0.94218397
0.22303893 -0.014869262 0.9378171
0.22529896 -0.014800661 0.93349046
0.22753824 -0.014732692 0.92920357
0.22975777 -0.014665389 0.92495871
0.23195644 -0.014598656 0.92074984
0.23413517 -0.014532528 0.91657901
0.23629425 -0.014466995 0.91244584
0.23843396 -0.014402051 0.90834975
0.24055453 -0.014337687 0.90429026
0.24265625 -0.014273897 0.90026695
0.24474038 -0.014210732 0.89628309
0.24680519 -0.014148069 0.89233083
0.24885176 -0.014085948 0.88841289
0.25088042 -0.014024371 0.88452917
0.25289145 -0.013963331 0.88067931
0.25488502 -0.013902819 0.87686276
0.25686139 -0.013842829 0.87307912
0.25882077 -0.013783354 0.86932802
0.26076341 -0.013724389 0.86560905
0.26268947 -0.013665927 0.86192173
0.26459923 -0.01360796 0.85826576
0.26649284 -0.013550483 0.8546406
0.26971605 -0.013561142 0.85531288
0.27296972 -0.013573079 0.85606581
0.27622914 -0.013585039 0.85682011
0.27949429 -0.01359702 0.85757571
0.28276524 -0.013609022 0.85833269
0.28604186 -0.013621041 0.85909075
0.28932431 -0.013633084 0.85985029
0.29336509 -0.013680237 0.86282432
0.29760057 -0.013735411 0.86630416
0.30187032 -0.01379103 0.86981213
0.30617481 -0.013847102 0.87334865
0.31051448 -0.013903633 0.87691408
0.31488973 -0.013960629 0.88050884
0.31930155 -0.014018117 0.88413471
0.32374993 -0.014076083 0.88779068
0.32823515 -0.014134528 0.89147687
0.33275792 -0.014193465 0.89519405
0.33731845 -0.014252893 0.89894217
0.34191734 -0.01431282 0.90272182
0.20738854 -0.011997684 0.97290546
0.2098071 -0.011940241 0.96824735
0.21220315 -0.011883376 0.9636361
0.21457647 -0.01182705 0.95906854
0.21692742 -0.011771255 0.95454413
0.21925628 -0.011715985 0.95006216
0.22156335 -0.01166123 0.94562197
0.223849 -0.011606985 0.94122326
0.22611347 -0.011553244 0.93686527
0.22835705 -0.011499995 0.93254733
0.23058151 -0.011447309 0.92827493
0.23278359 -0.011395001 0.92403322
0.23496631 -0.011343201 0.91983271
0.23712926 -0.011291869 0.91567016
0.23927271 -0.011241 0.9115451
0.24139696 -0.011190588 0.90745711
0.24350335 -0.011140676 0.90340972
0.24558984 -0.011091154 0.89939392
0.24765822 -0.011042086 0.89541501
0.24970807 -0.010993437 0.89146996
0.25173992 -0.010945214 0.88755947
0.25375402 -0.010897412 0.8836832
0.25575063 -0.010850027 0.87984067
0.25772995 -0.010803051 0.8760314
0.25969219 -0.010756481 0.87225497
0.2616376 -0.010710311 0.86851096
0.26356634 -0.010664535 0.8647989
0.26547873 -0.01061915 0.86111856
0.26737487 -0.010574148 0.85746932
0.26934701 -0.010533123 0.85414261
0.27259591 -0.010542384 0.85489357
0.27585053 -0.01055166 0.85564578
0.27911091 -0.010560953 0.85639936
0.28237697 -0.010570262 0.85715419
0.28564879 -0.010579585 0.85791028
0.28973207 -0.010618453 0.86106211
0.29394424 -0.01066119 0.8645277
0.29819044 -0.010704272 0.86802125
0.3024711 -0.010747704 0.87154317
0.30678663 -0.01079149 0.87509382
0.3111375 -0.010835635 0.87867355
0.31552446 -0.010880154 0.88228369
0.31994787 -0.01092505 0.88592434
0.32440794 -0.010970317 0.88959509
0.32890508 -0.01101596 0.89329636
0.33343986 -0.011061985 0.89702863
0.3380127 -0.011108398 0.9007923
0.20817037 -0.0086020818 0.97657323
0.21059506 -0.0085607748 0.97188377
0.21299517 -0.0085198069 0.96723276
0.21537358 -0.0084792748 0.96263123
0.21772942 -0.0084391246 0.95807314
0.22006306 -0.0083993534 0.95355803
0.22237481 -0.0083599556 0.94908524
0.224665 -0.0083209258 0.94465435
0.22693388 -0.0082822591 0.94026452
0.22918475 -0.0082440553 0.93592739
0.23141065 -0.0082060518 0.93161291
0.23361668 -0.0081684152 0.92734015
0.23580338 -0.0081311511 0.92310965
0.2379702 -0.0080942251 0.91891748
0.24011742 -0.0080576316 0.91476315
0.24224567 -0.0080213798 0.91064757
0.24435593 -0.0079854885 0.90657288
0.2464457 -0.0079498617 0.90252829
0.24851716 -0.007914559 0.89852047
0.2505703 -0.0078795692 0.89454812
0.25260535 -0.0078448858 0.89061069
0.25462255 -0.0078105079 0.88670778
0.25662217 -0.0077764294 0.88283896
0.25860441 -0.0077426475 0.87900376
0.26056951 -0.0077091572 0.8752017
0.26251766 -0.0076759551 0.87143236
0.26444912 -0.0076430379 0.86769533
0.26636407 -0.0076104016 0.86399025
0.26826274 -0.0075780433 0.86031669
0.27014536 -0.0075459597 0.85667431
0.27222317 -0.0075199776 0.8537246
0.275473 -0.0075265849 0.85447472
0.27872857 -0.0075332043 0.85522622
0.28198981 -0.0075398344 0.85597891
0.28611386 -0.0075691496 0.85930699
0.29030287 -0.0075995517 0.86275846
0.29452568 -0.0076301987 0.86623776
0.29878268 -0.0076610944 0.86974525
0.30307427 -0.0076922402 0.87328118
0.30740094 -0.0077236416 0.87684608
0.31176317 -0.0077553024 0.88044047
0.31616178 -0.007787236 0.88406581
0.32059678 -0.0078194337 0.88772112
0.32506865 -0.0078518996 0.89140689
0.32957774 -0.0078846356 0.8951233
0.33412462 -0.0079176454 0.89887083
0.21138819 -0.0051558092 0.97554398
0.21379471 -0.0051310733 0.97086358
0.21617655 -0.0051065329 0.96622026
0.21853736 -0.0050822641 0.96162832
0.22087581 -0.0050582248 0.95707977
0.22319223 -0.0050344113 0.95257396
0.22548695 -0.0050108214 0.9481104
0.22776027 -0.0049874512 0.94368851
0.23001537 -0.0049643605 0.93931943
0.23224519 -0.0049413871 0.93497258
0.23445575 -0.0049186521 0.93067086
0.23664641 -0.0048961327 0.9264099
0.23881708 -0.0048738183 0.92218769
0.24096809 -0.0048517068 0.91800392
0.24310055 -0.0048298123 0.91386127
0.24521379 -0.0048081134 0.90975559
0.24730727 -0.004786592 0.90568346
0.24938208 -0.0047652624 0.90164763
0.25143847 -0.0047441223 0.89764762
0.25347674 -0.0047231689 0.89368296
0.25549704 -0.0047023995 0.88975316
0.25749964 -0.0046818117 0.88585764
0.2594848 -0.0046614036 0.88199621
0.26145273 -0.0046411729 0.87816828
0.26340365 -0.0046211169 0.87437344
0.2653378 -0.0046012336 0.87061125
0.26725537 -0.0045815208 0.86688137
0.26915658 -0.0045619761 0.86318326
0.27104163 -0.0045425976 0.85951656
0.27291074 -0.0045233825 0.85588086
0.27509651 -0.0045097787 0.85330689
0.2783775 -0.0045142295 0.85414904
0.2825104 -0.0045322524 0.85755914
0.28667641 -0.0045504193 0.86099654
0.29087594 -0.0045687323 0.8644616
0.29510942 -0.0045871935 0.86795467
0.29937726 -0.0046058041 0.87147605
0.30367988 -0.004624567 0.87502623
0.30801764 -0.0046434822 0.87860525
0.31239152 -0.0046625603 0.88221502
0.3168017 -0.0046817982 0.88585514
0.32124835 -0.0047011953 0.88952529
0.32573202 -0.004720754 0.89322603
0.33025315 -0.0047404757 0.89695764
0.21218728 -0.0017250999 0.97923177
0.21459918 -0.0017167934 0.97451675
0.2169877 -0.0017085646 0.96984571
0.21935219 -0.0017004046 0.96521378
0.22169457 -0.001692325 0.96062756
0.2240157 -0.0016843285 0.95608842
0.22631496 -0.0016764072 0.95159197
0.22859269 -0.0016685599 0.94713753
0.23085134 -0.001660801 0.94273335
0.23308587 -0.0016530913 0.938357
0.23530087 -0.0016454606 0.93402553
0.2374955 -0.0016378999 0.92973381
0.23967007 -0.0016304086 0.92548144
0.24182539 -0.0016229892 0.92126989
0.24396153 -0.0016156392 0.91709781
0.24607794 -0.0016083525 0.9129616
0.24817488 -0.0016011283 0.9088608
0.25025305 -0.0015939685 0.90479666
0.25231272 -0.0015868724 0.90076864
0.25435412 -0.0015798393 0.89677638
0.25637752 -0.0015728683 0.8928194
0.25838315 -0.0015659586 0.88889718
0.26037124 -0.0015591092 0.88500923
0.26234204 -0.0015523197 0.88115525
0.2642957 -0.001545589 0.87733459
0.26623252 -0.0015389163 0.87354696
0.26815268 -0.001532301 0.86979187
0.27005637 -0.0015257422 0.86606884
0.27194384 -0.0015192394 0.86237758
0.27381533 -0.001512792 0.8587178
0.27567109 -0.0015063994 0.85508913
0.27892151 -0.0015076839 0.85581827
0.28306469 -0.0015137149 0.85924172
0.28724113 -0.0015197943 0.86269259
0.29145125 -0.0015259228 0.86617136
0.29569548 -0.001532101 0.86967832
0.2999742 -0.0015383293 0.87321377
0.30428788 -0.0015446085 0.87677807
0.30863708 -0.0015509401 0.88037211
0.31302246 -0.0015573257 0.88399684
0.31744415 -0.0015637643 0.88765162
0.32190257 -0.0015702564 0.8913368
0.32639813 -0.0015768025 0.89505261
0.21299246 0.001731646 0.98294765
0.21540958 0.0017232767 0.97819686
0.21780346 0.0017149879 0.97349185
0.2201736 0.0017067721 0.96882826
0.22252035 0.0016986287 0.96420574
0.22484525 0.0016905658 0.95962894
0.22714907 0.0016825857 0.95509917
0.22943126 0.0016746806 0.95061195
0.23169369 0.0016668611 0.94617325
0.23393302 0.0016590995 0.94176745
0.23615211 0.0016514134 0.93740457
0.23835072 0.0016437981 0.93308181
0.24053089 0.0016362646 0.92880553
0.24269 0.0016287919 0.92456377
0.24482867 0.001621382 0.92035758
0.24694815 0.0016140402 0.91619015
0.24904856 0.0016067649 0.91206038
0.2511301 0.0015995548 0.90796769
0.25319305 0.0015924091 0.90391147
0.25523764 0.001585327 0.89989144
0.25726414 0.0015783076 0.89590698
0.25927278 0.0015713501 0.89195764
0.26126379 0.0015644537 0.88804299
0.26323736 0.0015576176 0.88416249
0.26519376 0.0015508407 0.88031572
0.26713324 0.0015441227 0.87650234
0.26905555 0.0015374603 0.87272048
0.27096221 0.0015308599 0.86897385
0.27285227 0.0015243144 0.8652584
0.27472627 0.0015178247 0.86157459
0.27658439 0.0015113901 0.85792208
0.2794677 0.0015106362 0.85749412
0.28362119 0.0015166908 0.86093098
0.28780812 0.0015227942 0.8643955
0.29202887 0.001528947 0.86788803
0.29628387 0.0015351496 0.87140888
0.30057356 0.0015414029 0.87495846
0.30489832 0.0015477072 0.87853706
0.30925912 0.001554066 0.88214648
0.31365597 0.0015604774 0.88578588
0.31808925 0.0015669422 0.8894555
0.32255942 0.0015734606 0.89315563
0.21380375 0.0052147256 0.98669171
0.21622613 0.0051894272 0.98190486
0.21862508 0.0051643718 0.97716415
0.22100097 0.0051395572 0.97246891
0.22335257 0.0051149442 0.96781182
0.22568208 0.0050905733 0.96320051
0.22798936 0.0050664302 0.95863235
0.23027596 0.0050425394 0.95411187
0.23254287 0.0050189109 0.94964111
0.23478635 0.0049954541 0.94520277
0.2370095 0.0049722274 0.94080794
0.23921423 0.00494926 0.93646222
0.24139702 0.0049264696 0.93215007
0.243559 0.0049038725 0.92787439
0.24570154 0.0048814872 0.92363882
0.24782459 0.0048593055 0.91944176
0.24992846 0.0048373248 0.91528273
0.25201336 0.0048155421 0.91116112
0.25407958 0.0047939541 0.90707642
0.25612733 0.0047725588 0.90302819
0.2581569 0.004751354 0.89901596
0.26016849 0.0047303364 0.89503914
0.26216239 0.0047095041 0.89109743
0.26413816 0.0046888432 0.88718808
0.26609841 0.0046683932 0.88331872
0.26804015 0.004648095 0.87947804
0.26996562 0.0046279822 0.87567246
0.27187452 0.0046080425 0.8718996
0.27376702 0.0045882743 0.86815923
0.27564335 0.0045686746 0.86445069
0.27750376 0.0045492421 0.8607738
0.28001598 0.0045407997 0.8591764
0.28417987 0.0045590349 0.86262679
0.28837731 0.0045774179 0.86610502
0.29260877 0.0045959493 0.86961144
0.29687461 0.0046146312 0.8731463
0.3011753 0.0046334662 0.87671006
0.30551147 0.0046524587 0.88030374
0.30988365 0.0046716128 0.88392788
0.31429204 0.0046909261 0.88758224
0.31873697 0.0047103986 0.8912667
0.21704887 0.0086819548 0.985641
0.2194529 0.0086398777 0.98086417
0.22183378 0.0085982084 0.97613353
0.22419178 0.0085569387 0.97144824
0.22652535 0.0085159913 0.96679956
0.22883721 0.0084754517 0.9621973
0.23112842 0.0084353443 0.95764393
0.23339821 0.0083956188 0.95313406
0.23564593 0.0083562387 0.94866329
0.23787558 0.0083173281 0.94424587
0.24008165 0.0082786772 0.93985796
0.2422681 0.008240412 0.93551373
0.24443448 0.0082024988 0.93120962
0.24658066 0.0081649227 0.92694366
0.24870726 0.0081276884 0.92271656
0.25081459 0.0080907932 0.9185279
0.25290281 0.0080542304 0.91437697
0.25497228 0.0080179963 0.91026342
0.25702316 0.0079820855 0.90618658
0.25905496 0.0079464708 0.90214336
0.26107156 0.0079112593 0.89814591
0.26306719 0.007876263 0.89417285
0.26504657 0.007841615 0.8902393
0.26700863 0.0078072697 0.8863402
0.26895356 0.0077732247 0.88247514
0.27088162 0.007739475 0.87864363
0.27279302 0.0077060177 0.87484527
0.27468792 0.0076728468 0.8710795
0.27656662 0.0076399618 0.86734611
0.27842924 0.0076073562 0.86364448
0.28056645 0.0075828768 0.86086541
0.28474075 0.0076133893 0.8643294
0.2889488 0.0076441481 0.8678214
0.29319099 0.0076751565 0.87134171
0.29746774 0.0077064182 0.87489074
0.30177945 0.0077379346 0.87846875
0.30612716 0.0077697248 0.88207781
0.31051075 0.0078017777 0.88571668
0.31493065 0.0078340955 0.8893857
0.21787788 0.012201161 0.98940563
0.22028704 0.012141805 0.98459244
0.22267289 0.012083025 0.97982585
0.22503574 0.012024811 0.97510517
0.22797209 0.01199853 0.97297412
0.23276174 0.012069127 0.97869885
0.23706457 0.012112788 0.98223937
0.24116451 0.012144975 0.98484945
0.23651356 0.011741808 0.95215619
0.23874363 0.011686751 0.94769156
0.24095586 0.011632352 0.94328028
0.24314648 0.011578403 0.93890554
0.24531627 0.011524925 0.93456894
0.24746607 0.011471936 0.93027204
0.24959624 0.011419436 0.92601466
0.25170621 0.011367378 0.92179322
0.25379741 0.011315809 0.91761142
0.25587216 0.011264812 0.91347605
0.25792572 0.011214162 0.90936881
0.2599611 0.011163974 0.90529901
0.26197886 0.011114255 0.90126717
0.26397869 0.011064976 0.8972711
0.2659609 0.011016131 0.89331031
0.26792568 0.010967718 0.88938433
0.26987326 0.010919727 0.88549274
0.27180389 0.010872155 0.88163507
0.27371773 0.010824994 0.87781078
0.27561504 0.010778241 0.8740195
0.27749604 0.010731891 0.87026089
0.27936092 0.010685937 0.86653447
0.28120992 0.010640375 0.86283982
0.28530386 0.010679823 0.86603868
0.28952256 0.010723057 0.86954457
0.2937755 0.010766642 0.87307888
0.29806319 0.010810582 0.87664205
0.30238634 0.010854894 0.88023537
0.30674532 0.01089958 0.88385898
0.31114042 0.010944637 0.88751274
0.21871327 0.015747355 0.99319923
0.22112577 0.015670329 0.98834115
0.22351643 0.01559417 0.98353773
0.22588401 0.015518748 0.97878081
0.22890115 0.015489551 0.97693932
0.23315023 0.015543349 0.98033237
0.23721221 0.015583283 0.98285109
0.24114801 0.0156139 0.9847821
0.24497978 0.015637007 0.98623949
0.2396232 0.01508118 0.95118302
0.24183697 0.015010571 0.9467296
0.24403085 0.014940664 0.94232053
0.24620299 0.014871322 0.93794703
0.24835648 0.014802704 0.93361926
0.25049219 0.014734834 0.92933863
0.2526069 0.014667497 0.92509162
0.25470063 0.014600673 0.92087698
0.25677678 0.014534534 0.91670555
0.25883418 0.014468991 0.91257173
0.26087311 0.014404037 0.90847498
0.26289383 0.014339663 0.90441489
0.26489657 0.014275864 0.90039098
0.26688156 0.014212627 0.8964026
0.26884905 0.01414995 0.8924495
0.27079922 0.01408782 0.88853097
0.27273238 0.014026236 0.88464677
0.2746487 0.013965189 0.88079643
0.27654842 0.013904668 0.87697941
0.27843174 0.013844673 0.87319541
0.28029889 0.013785192 0.86944389
0.28215006 0.01372622 0.86572444
0.28586921 0.013758411 0.86775482
0.29009858 0.013814217 0.87127459
0.2943624 0.013870479 0.87482303
0.29866114 0.013927204 0.87840068
0.30299571 0.013984417 0.88200921
0.30736601 0.014042103 0.88564748
0.22197334 0.019226037 0.9921295
0.22436789 0.019132147 0.98728436
0.22674032 0.019039264 0.98249131
0.22925009 0.018960534 0.9784286
0.23327468 0.019007567 0.98085564
0.23718162 0.019043779 0.98272437
0.24098827 0.019071015 0.98412979
0.24470262 0.019090274 0.98512369
0.24832597 0.019101998 0.98572862
0.24272233 0.018413419 0.95019555
0.24492201 0.018327497 0.94576174
0.24710082 0.018242342 0.94136745
0.24925643 0.018157754 0.93700236
0.25139332 0.01807403 0.93268198
0.25351113 0.017991113 0.92840314
0.25560957 0.017908951 0.92416334
0.25768897 0.017827539 0.91996217
0.25974953 0.017746862 0.91579896
0.26179153 0.017666914 0.91167331
0.26381522 0.01758768 0.90758467
0.26582083 0.017509155 0.90353251
0.26780859 0.017431328 0.89951628
0.26977876 0.017354188 0.89553571
0.27173159 0.017277731 0.89159018
0.27366728 0.017201943 0.88767928
0.27558607 0.017126817 0.88380253
0.27748817 0.017052345 0.87995952
0.27937379 0.016978517 0.87614977
0.28124318 0.016905326 0.87237287
0.28309649 0.016832763 0.86862838
0.2864368 0.016849222 0.86947769
0.29067686 0.016917702 0.87301141
0.29495156 0.016986739 0.87657404
0.29926169 0.017056366 0.88016701
0.30360752 0.017126579 0.88379019
0.22522694 0.022697289 0.99106443
0.2276042 0.022586677 0.98623461
0.22995602 0.022476904 0.98144144
0.2332316 0.022459339 0.98067451
0.23701167 0.022490159 0.9820202
0.2407047 0.02251195 0.98297173
0.24430785 0.022524836 0.9835344
0.24781466 0.022528606 0.98369896
0.25121424 0.022522656 0.98343921
0.24581893 0.02173909 0.94922519
0.24800014 0.021637596 0.94479358
0.25016108 0.021537049 0.94040316
0.25230205 0.021437429 0.93605334
0.25442329 0.021338727 0.93174362
0.25652507 0.021240931 0.92747337
0.25860769 0.021144025 0.92324203
0.26067141 0.021048 0.9190492
0.26271641 0.020952843 0.91489416
0.26474303 0.020858543 0.91077662
0.26675153 0.020765088 0.90669596
0.26874208 0.020672467 0.90265173
0.27071494 0.020580668 0.89864337
0.27267039 0.020489682 0.89467049
0.27460858 0.020399496 0.89073259
0.27652982 0.0203101 0.8868292
0.27843431 0.020221485 0.88295984
0.28032225 0.020133642 0.87912422
0.28219378 0.020046555 0.87532157
0.28404924 0.019960217 0.87155175
0.28700659 0.019952331 0.87120736
0.2912575 0.020033585 0.87475532
0.29554328 0.020115513 0.87833261
0.29986474 0.020198142 0.8819406
0.22847351 0.02616109 0.99000144
0.23083135 0.02603361 0.98517734
0.23316906 0.025907673 0.98041153
0.23672228 0.025918497 0.98082113
0.24030592 0.025932293 0.98134321
0.24379496 0.025935633 0.98146963
0.247177 0.025927657 0.98116779
0.25041965 0.025905481 0.98032856
0.24672429 0.02517595 0.95272124
0.24890906 0.025057958 0.94825619
0.25107241 0.024940969 0.943829
0.25321606 0.024825104 0.93944436
0.25534049 0.02471037 0.93510258
0.25744653 0.024596801 0.93080485
0.25953296 0.024484241 0.92654532
0.26159978 0.024372652 0.92232245
0.26364788 0.024262074 0.91813797
0.26567745 0.024152497 0.91399121
0.26768878 0.024043903 0.90988177
0.26968211 0.023936283 0.90580916
0.27165768 0.02382962 0.9017728
0.27361572 0.023723906 0.89777225
0.27555645 0.023619123 0.89380705
0.2774801 0.023515262 0.88987666
0.27938688 0.02341231 0.88598067
0.28127709 0.023310257 0.88211876
0.28315088 0.023209088 0.8782903
0.28500849 0.023108795 0.87449497
0.28757873 0.023067812 0.87294406
0.29184049 0.023161944 0.87650621
0.29613754 0.023256876 0.8800987
0.23171315 0.02961747 0.98894078
0.2340527 0.029473305 0.98412704
0.23637176 0.029330801 0.97936881
0.23979296 0.029327195 0.9792484
0.24315567 0.029316641 0.97889602
0.24638054 0.029289994 0.97800624
0.24941882 0.029242208 0.97641063
0.2521269 0.029157532 0.97358328
0.24982031 0.028502988 0.95172775
0.25198868 0.028369587 0.94727343
0.25413799 0.028237555 0.94286484
0.25626749 0.028106757 0.93849742
0.25837696 0.027977124 0.93416888
0.26046526 0.027848486 0.92987365
0.26253453 0.027721038 0.92561805
0.26458603 0.027594863 0.92140502
0.26661891 0.027469829 0.91723007
0.26863304 0.027345877 0.9130913
0.27062804 0.027222937 0.90898627
0.27260655 0.027101235 0.9049226
0.27456757 0.026980629 0.90089548
0.2765108 0.026861049 0.89690268
0.2784369 0.026742525 0.89294511
0.28034607 0.026625045 0.88902235
0.28223851 0.026508588 0.88513386
0.28411451 0.026393151 0.88127935
0.2859742 0.026278712 0.87745816
0.28815314 0.02619574 0.87468767
0.29242593 0.026302863 0.87826455
0.2326017 0.033228815 0.99273312
0.23494586 0.033066455 0.98788249
0.23726721 0.032905672 0.98307902
0.23956794 0.032746695 0.97832948
0.24235956 0.03265838 0.97569102
0.24537462 0.032602224 0.97401327
0.24804558 0.032502525 0.97103471
0.24854846 0.032125309 0.9597652
0.25074139 0.031973734 0.95523679
0.25291342 0.031823542 0.95074964
0.25506511 0.03167475 0.94630444
0.25719678 0.031527348 0.94190061
0.2593087 0.031381309 0.93753761
0.26140115 0.031236615 0.93321484
0.26347438 0.031093251 0.92893171
0.26552868 0.030951196 0.92468774
0.2675643 0.030810434 0.9204824
0.2695815 0.030670948 0.91631514
0.27158049 0.030532718 0.91218543
0.27356154 0.030395728 0.90809274
0.27552491 0.030259961 0.90403664
0.27747083 0.030125402 0.90001661
0.27939948 0.029992035 0.89603215
0.28131115 0.029859845 0.89208287
0.28320605 0.029728813 0.88816822
0.28508437 0.029598925 0.88428771
0.28694642 0.029470172 0.88044113
0.28879216 0.029342519 0.87662745
0.23584586 0.036687132 0.99166673
0.23817162 0.036508061 0.9868263
0.24047484 0.03633073 0.98203301
0.24275769 0.036155399 0.97729379
0.24502008 0.035981968 0.97260588
0.24725591 0.035809476 0.96794331
0.24947394 0.035639137 0.96333897
0.25166926 0.035470162 0.95877159
0.25384492 0.035302937 0.95425141
0.25600013 0.035137273 0.94977349
0.25813523 0.034973159 0.94533741
0.26025045 0.034810569 0.94094253
0.26234612 0.034649488 0.93658841
0.26442248 0.034489885 0.93227434
0.26647976 0.03433175 0.92799985
0.2685183 0.034175057 0.92376441
0.2705383 0.034019787 0.91956741
0.27254003 0.033865921 0.91540837
0.27452376 0.033713445 0.91128683
0.27648968 0.033562332 0.90720218
0.27843806 0.033412568 0.90315402
0.28036913 0.033264134 0.89914185
0.28228313 0.033117015 0.89516509
0.28418025 0.032971192 0.89122343
0.28606075 0.032826643 0.88731629
0.23908301 0.040138025 0.99060249
0.24139117 0.039942421 0.98577505
0.24367736 0.039748792 0.98099625
0.24594109 0.039556958 0.97626185
0.2481834 0.039367024 0.97157425
0.25040427 0.039178897 0.96693134
0.25260535 0.038992774 0.96233779
0.25478423 0.038808193 0.95778239
0.25694209 0.038625281 0.95326811
0.25908056 0.038444214 0.94879937
0.26119909 0.038264833 0.94437236
0.26329795 0.038087122 0.93998647
0.26537737 0.037911054 0.93564111
0.2674377 0.037736606 0.93133575
0.26947916 0.03756376 0.9270699
0.27150196 0.037392486 0.92284286
0.2735064 0.037222765 0.9186542
0.27549276 0.037054583 0.91450346
0.27746123 0.03688791 0.91039002
0.27941209 0.036722731 0.90631342
0.28134555 0.036559023 0.90227312
0.28326184 0.036396772 0.89826876
0.24231322 0.043581516 0.98954052
0.24460417 0.043369535 0.98472738
0.24687165 0.043159377 0.97995567
0.2491179 0.04295136 0.97523254
0.25134262 0.042745341 0.97055477
0.25354606 0.042541288 0.96592158
0.25572994 0.042339392 0.96133751
0.25789094 0.042139046 0.95678848
0.26003283 0.041940778 0.95228678
0.26215464 0.04174437 0.94782722
0.26425669 0.041549794 0.94340926
0.26633924 0.041357026 0.93903232
0.26840255 0.041166034 0.93469578
0.27044687 0.040976796 0.93039906
0.2724725 0.040789295 0.92614174
0.27447966 0.0406035 0.92192316
0.27646863 0.040419389 0.91774285
0.27843964 0.040236942 0.91360027
0.28039294 0.040056136 0.90949494
0.28232875 0.039876945 0.90542632
0.24553707 0.047017734 0.98848301
0.24780925 0.046789158 0.98367751
0.25005949 0.046562798 0.97891861
0.25228801 0.046338614 0.97420537
0.2544952 0.046116579 0.96953744
0.25668132 0.045896661 0.96491396
0.25884795 0.045679051 0.96033901
0.26099214 0.045463145 0.95579988
0.26311722 0.045249462 0.95130748
0.26522246 0.045037776 0.94685709
0.26730809 0.044828061 0.94244814
0.26937437 0.044620294 0.93808007
0.27142158 0.044414438 0.9337523
0.27344999 0.044210479 0.92946428
0.27545986 0.044008382 0.92521548
0.27745143 0.043808121 0.92100531
0.27942497 0.043609679 0.91683328
0.25324056 0.049959023 0.9778837
0.25545144 0.049718738 0.97318041
0.2576412 0.049480762 0.96852231
0.25981006 0.049245041 0.96390843
0.26195854 0.049011596 0.95933902
0.2640869 0.048780382 0.9548133
0.26619527 0.04855134 0.95033008
0.26828396 0.04832444 0.94588882
0.2703532 0.048099652 0.94148886
0.2724033 0.047876943 0.93712968
0.27443451 0.04765629 0.93281066
0.27644706 0.04743766 0.92853123
0.25860825 0.053091757 0.9721576
0.26078057 0.052837897 0.96750915
0.26293227 0.052586455 0.96290505
0.26506373 0.052337427 0.95834512
0.26717529 0.052090783 0.95382881
0.26926702 0.051846448 0.94935483
0.27133924 0.051604394 0.94492263
0.27339217 0.051364589 0.94053161
