# .PCD v0.7 - Point Cloud Data file format
VERSION 0.7
FIELDS x y z
SIZE 4 4 4
TYPE F F F
COUNT 1 1 1
WIDTH 1415
HEIGHT 1
VIEWPOINT 0 0 0 1 0 0 0
POINTS 1415
DATA ascii
-0.34966242 0.091260865 0.58205742
-0.34842861 0.09147536 0.58342546
-0.34718901 0.091690868 0.58479995
-0.34594354 0.091907389 0.58618093
-0.3446922 0.092124939 0.58756846
-0.34343493 0.092343532 0.58896261
-0.34217164 0.092563145 0.59036332
-0.34090233 0.092783809 0.59177071
-0.33962697 0.093005538 0.59318489
-0.33834553 0.093228333 0.59460586
-0.33705789 0.093452185 0.59603357
-0.33576408 0.093677118 0.5974682
-0.43721965 0.099219419 0.61890864
-0.42633897 0.097235203 0.60653156
-0.41589025 0.095330007 0.59464735
-0.40581915 0.093492515 0.58318549
-0.39611816 0.091722019 0.57214153
-0.38679352 0.090020999 0.56153095
-0.37780836 0.088381909 0.55130666
-0.3765136 0.088534206 0.55225664
-0.37540296 0.088731609 0.55348802
-0.37428734 0.088929892 0.55472487
-0.37316671 0.089129061 0.55596721
-0.37204111 0.089329131 0.55721521
-0.37091041 0.089530095 0.55846882
-0.36977464 0.089731976 0.55972809
-0.36863366 0.089934751 0.56099296
-0.36748758 0.090138465 0.56226367
-0.36633629 0.090343095 0.5635401
-0.36517975 0.090548657 0.56482238
-0.3640179 0.09075515 0.56611043
-0.36285079 0.090962589 0.56740439
-0.3616783 0.091170989 0.56870431
-0.36050045 0.091380335 0.57001019
-0.35931712 0.091590643 0.57132202
-0.3581284 0.091801934 0.57264
-0.35693419 0.092014194 0.57396406
-0.35573444 0.092227444 0.57529426
-0.35452911 0.092441685 0.57663065
-0.35331815 0.092656918 0.57797325
-0.35210159 0.092873171 0.57932216
-0.35087931 0.09309043 0.58067739
-0.34965131 0.09330871 0.58203894
-0.34841752 0.093528003 0.58340687
-0.34717792 0.093748346 0.58478129
-0.34593248 0.093969725 0.58616221
-0.34468114 0.094192147 0.58754963
-0.34342387 0.094415627 0.58894366
-0.34216058 0.094640158 0.59034425
-0.34089133 0.094865784 0.59175164
-0.33961594 0.095092468 0.59316564
-0.3383345 0.095320247 0.59458649
-0.33704689 0.095549121 0.59601414
-0.33575308 0.095779091 0.59744865
-0.33445302 0.096010171 0.59889007
-0.33314669 0.096242376 0.60033852
-0.44043225 0.10265714 0.62658137
-0.4293544 0.10057924 0.61389863
-0.41871846 0.098584346 0.60172254
-0.40850642 0.096669465 0.59003478
-0.39862439 0.094813474 0.5787065
-0.38914523 0.093034714 0.56784964
-0.38001758 0.091322057 0.55739617
-0.3753916 0.090679012 0.55347127
-0.37427601 0.090881646 0.55470806
-0.37315542 0.091085181 0.5559504
-0.37202978 0.091289632 0.55719829
-0.37089908 0.091495 0.55845177
-0.36976331 0.091701306 0.55971098
-0.36862242 0.091908537 0.56097585
-0.36747628 0.092116699 0.56224638
-0.36632499 0.092325814 0.56352276
-0.36516845 0.092535876 0.56480491
-0.3640067 0.092746906 0.56609297
-0.36283952 0.09295889 0.56738681
-0.3616671 0.09317185 0.56868666
-0.36048925 0.093385793 0.56999248
-0.35930595 0.093600713 0.57130426
-0.35811722 0.093816623 0.57262212
-0.35692298 0.094033532 0.57394606
-0.35572323 0.094251454 0.57527614
-0.35451794 0.094470389 0.57661247
-0.35330701 0.094690353 0.57795501
-0.35209042 0.094911329 0.5793038
-0.3508682 0.095133357 0.58065897
-0.34964022 0.09535642 0.58202046
-0.3484064 0.095580518 0.58338827
-0.34716687 0.09580569 0.58476263
-0.34592143 0.096031919 0.58614343
-0.34467009 0.096259214 0.58753079
-0.34341282 0.096487589 0.58892471
-0.34214956 0.096717052 0.59032524
-0.3408803 0.09694761 0.5917325
-0.33960497 0.097179264 0.59314644
-0.33832353 0.097412035 0.59456718
-0.33703592 0.097645916 0.59599471
-0.33574212 0.09788093 0.59742916
-0.33444208 0.098117083 0.59887052
-0.33313578 0.098354369 0.60031885
-0.33182308 0.098592803 0.60177416
-0.43244395 0.10400551 0.62144685
-0.42161644 0.10191745 0.60897046
-0.41122687 0.099914454 0.59700227
-0.40121508 0.097983122 0.58546227
-0.39155042 0.096117035 0.57431215
-0.38227603 0.094327852 0.56362158
-0.37426466 0.092833273 0.55469126
-0.37314412 0.093041182 0.55593354
-0.37201849 0.093250014 0.55718136
-0.37088776 0.093459778 0.55843472
-0.36975202 0.09367051 0.55969387
-0.3686111 0.093882181 0.56095862
-0.36746502 0.09409482 0.56222916
-0.36631373 0.094308414 0.56350541
-0.36515722 0.094522983 0.56478751
-0.36399543 0.094738536 0.56607544
-0.36282828 0.094955064 0.56736922
-0.36165586 0.095172599 0.56866902
-0.36047801 0.095391117 0.56997472
-0.35929474 0.095610648 0.57128644
-0.35810602 0.095831186 0.57260418
-0.35691181 0.096052751 0.57392806
-0.35571206 0.096275344 0.57525808
-0.35450676 0.096498974 0.57659429
-0.35329586 0.096723646 0.57793677
-0.3520793 0.096949376 0.5792855
-0.35085705 0.097176157 0.58064055
-0.34962907 0.097403996 0.58200192
-0.34839535 0.097632907 0.58336973
-0.34715575 0.097862892 0.58474392
-0.34591034 0.098093979 0.58612466
-0.344659 0.098326147 0.5875119
-0.34340176 0.098559417 0.58890575
-0.34213853 0.098793805 0.59030622
-0.34086928 0.099029303 0.59171337
-0.33959398 0.099265933 0.59312725
-0.33831254 0.099503689 0.59454787
-0.33702496 0.099742591 0.59597534
-0.33573118 0.099982634 0.59740967
-0.33443114 0.10022385 0.59885091
-0.33312482 0.10046621 0.60029912
-0.3318122 0.10070978 0.60175443
-0.33049318 0.1009545 0.60321671
-0.43561047 0.10751709 0.62918305
-0.42458558 0.10533197 0.61639589
-0.41401237 0.10323702 0.60413635
-0.40383548 0.10121974 0.59233141
-0.39403528 0.099276423 0.5809592
-0.38458559 0.097401574 0.56998771
-0.37550846 0.095601894 0.55945611
-0.37200716 0.095210277 0.55716437
-0.37087649 0.095424451 0.55841774
-0.36974072 0.095639601 0.55967677
-0.3685998 0.095855713 0.56094146
-0.36745375 0.096072815 0.56221193
-0.36630249 0.096290901 0.56348813
-0.36514595 0.096509971 0.5647701
-0.3639842 0.096730046 0.56605798
-0.36281708 0.09695112 0.5673517
-0.3616446 0.097173207 0.56865132
-0.36046678 0.097396314 0.56995696
-0.35928354 0.097620457 0.57126862
-0.35809487 0.097845636 0.57258636
-0.35690063 0.098071843 0.57391012
-0.35570088 0.098299108 0.57524002
-0.35449561 0.098527431 0.57657617
-0.35328472 0.09875682 0.57791853
-0.35206819 0.098987289 0.5792672
-0.35084593 0.099218823 0.58062214
-0.34961796 0.099451445 0.58198345
-0.34838423 0.099685162 0.58335114
-0.34714466 0.099919975 0.58472526
-0.34589928 0.10015591 0.58610594
-0.34464797 0.10039295 0.58749306
-0.34339076 0.10063113 0.58888686
-0.34212753 0.10087042 0.59028721
-0.34085825 0.10111086 0.59169424
-0.33958298 0.10135246 0.59310806
-0.33830157 0.10159521 0.59452862
-0.33701399 0.10183913 0.59595597
-0.33572021 0.1020842 0.59739017
-0.33442023 0.10233048 0.59883136
-0.33311391 0.10257793 0.60027945
-0.3318013 0.1028266 0.60173464
-0.3304823 0.10307647 0.60319686
-0.32915688 0.10332756 0.60466623
-0.32782498 0.10357988 0.60614276
-0.42762899 0.10883103 0.62400603
-0.41683951 0.10663336 0.61140525
-0.40651128 0.10453147 0.59935361
-0.39655882 0.10250476 0.58773303
-0.38694784 0.1005455 0.57649922
-0.37772483 0.098666906 0.56572789
-0.3708652 0.097389005 0.55840075
-0.36972943 0.097608566 0.55965966
-0.36858854 0.097829126 0.56092429
-0.36744246 0.098050684 0.56219465
-0.36629122 0.098273255 0.56347078
-0.36513472 0.098496832 0.5647527
-0.36397293 0.098721422 0.56604046
-0.36280584 0.098947048 0.56733412
-0.36163342 0.09917371 0.56863374
-0.36045557 0.099401399 0.56993926
-0.35927233 0.09963014 0.5712508
-0.35808364 0.099859945 0.57256842
-0.35688949 0.10009082 0.57389218
-0.3556897 0.10032274 0.57522196
-0.35448444 0.10055576 0.57655799
-0.35327354 0.10078986 0.57790029
-0.35205698 0.10102504 0.57924879
-0.35083482 0.10126135 0.58060372
-0.34960687 0.10149877 0.58196497
-0.34837312 0.10173728 0.58333254
-0.34713358 0.10197693 0.5847066
-0.3458882 0.10221771 0.58608717
-0.34463692 0.10245962 0.58747423
-0.34337971 0.10270269 0.5888679
-0.3421165 0.10294691 0.59026819
-0.34084728 0.10319229 0.59167516
-0.33957195 0.10343885 0.59308881
-0.3382906 0.10368659 0.5945093
-0.33700302 0.10393551 0.59593654
-0.33570927 0.10418563 0.59737068
-0.33440927 0.10443696 0.59881175
-0.333103 0.10468952 0.60025978
-0.33179039 0.10494329 0.60171485
-0.33047143 0.1051983 0.60317701
-0.329146 0.10545455 0.60464627
-0.3278141 0.10571204 0.60612267
-0.32647568 0.10597079 0.60760629
-0.43074846 0.11241756 0.63180643
-0.41976973 0.11012141 0.61890167
-0.40925124 0.10792265 0.60654426
-0.39912799 0.10580558 0.59464598
-0.38936955 0.10376339 0.58316845
-0.37999144 0.10180143 0.57214189
-0.3709659 0.099913478 0.56153131
-0.36857724 0.09980242 0.56090713
-0.36743122 0.10002844 0.56217742
-0.36627993 0.10025548 0.56345344
-0.36512345 0.10048357 0.56473529
-0.3639617 0.10071269 0.56602299
-0.36279458 0.10094285 0.56731653
-0.36162221 0.10117408 0.56861609
-0.3604444 0.10140636 0.56992155
-0.35926113 0.1016397 0.57123297
-0.35807246 0.10187414 0.57255054
-0.35687828 0.10210965 0.57387418
-0.35567856 0.10234625 0.5752039
-0.35447326 0.10258395 0.57653981
-0.35326239 0.10282277 0.57788205
-0.35204586 0.1030627 0.57923049
-0.35082367 0.10330377 0.5805853
-0.34959573 0.10354595 0.58194643
-0.34836203 0.10378927 0.58331394
-0.34712249 0.10403374 0.58468789
-0.34587714 0.10427938 0.58606839
-0.34462586 0.10452616 0.58745539
-0.34336865 0.10477412 0.58884895
-0.34210548 0.10502326 0.59024918
-0.34083626 0.10527358 0.59165603
-0.33956099 0.10552511 0.59306961
-0.3382796 0.10577783 0.59448999
-0.33699206 0.10603177 0.59591717
-0.33569834 0.10628694 0.59735125
-0.33439836 0.10654332 0.5987922
-0.33309209 0.10680095 0.60024011
-0.33177951 0.10705984 0.60169512
-0.33046055 0.10731999 0.60315716
-0.32913515 0.10758139 0.6046263
-0.32780328 0.10784408 0.60610265
-0.32646486 0.10810804 0.60758615
-0.32511994 0.10837331 0.60907704
-0.42277572 0.11369687 0.62658864
-0.41205776 0.11139619 0.61390954
-0.40175831 0.10918498 0.60172343
-0.3918598 0.10705984 0.59001172
-0.38231015 0.10500785 0.57870311
-0.37313947 0.10303851 0.56784999
-0.36741993 0.10200607 0.56216013
-0.36626866 0.1022376 0.56343609
-0.36511222 0.10247018 0.56471789
-0.36395046 0.10270383 0.56600553
-0.36278337 0.10293853 0.56729901
-0.36161098 0.10317432 0.56859845
-0.36043316 0.10341118 0.56990379
-0.35924995 0.10364915 0.57121521
-0.35806128 0.1038882 0.57253265
-0.3568671 0.10412836 0.57385617
-0.35566741 0.10436964 0.57518589
-0.35446212 0.10461203 0.57652169
-0.35325125 0.10485556 0.57786381
-0.35203475 0.10510023 0.57921219
-0.35081255 0.10534604 0.58056688
-0.34958464 0.10559301 0.58192796
-0.34835091 0.10584113 0.58329535
-0.3471114 0.10609043 0.58466923
-0.34586605 0.10634091 0.58604962
-0.34461477 0.10659256 0.5874365
-0.34335759 0.10684542 0.58882999
-0.34209442 0.10709947 0.59023011
-0.34082523 0.10735474 0.5916369
-0.33954999 0.10761122 0.59305042
-0.33826861 0.10786894 0.59447068
-0.33698112 0.10812789 0.59589779
-0.3356874 0.10838809 0.59733176
-0.33438745 0.10864954 0.59877264
-0.33308116 0.10891225 0.60022044
-0.3317686 0.10917625 0.60167533
-0.33044964 0.10944152 0.60313725
-0.32912427 0.10970809 0.60460633
-0.32779241 0.10997596 0.60608256
-0.32645404 0.11024513 0.607566
-0.32510912 0.11051564 0.60905677
-0.32375753 0.11078747 0.61055481
-0.42584577 0.11735907 0.63445181
-0.41493332 0.11495514 0.62145597
-0.40445206 0.1126458 0.60897148
-0.39438361 0.11042741 0.59697872
-0.38470405 0.1082947 0.58544916
-0.37536255 0.10623468 0.57431251
-0.36638948 0.10425717 0.56362194
-0.36510095 0.10445668 0.56470048
-0.36393923 0.10469485 0.56598806
-0.36277214 0.10493409 0.56728142
-0.36159971 0.10517444 0.56858075
-0.36042196 0.1054159 0.56988609
-0.35923874 0.10565846 0.57119739
-0.35805005 0.10590213 0.57251471
-0.35685593 0.10614695 0.57383823
-0.35565624 0.1063929 0.57516783
-0.35445097 0.10663997 0.57650357
-0.3532401 0.10688821 0.57784557
-0.35202363 0.10713762 0.57919389
-0.35080141 0.10738819 0.58054847
-0.34957349 0.10763993 0.58190942
-0.34833983 0.10789287 0.58327681
-0.34710032 0.10814699 0.58465058
-0.34585497 0.1084023 0.58603084
-0.34460372 0.10865884 0.58741766
-0.34334657 0.10891659 0.5888111
-0.34208339 0.10917556 0.59021109
-0.3408142 0.10943576 0.59161776
-0.33953896 0.1096972 0.59303117
-0.33825761 0.10995991 0.59445137
-0.33697012 0.11022387 0.59587836
-0.33567643 0.11048911 0.59731227
-0.33437648 0.11075561 0.59875304
-0.33307025 0.11102342 0.60020077
-0.33175769 0.11129252 0.60165554
-0.33043876 0.11156293 0.60311741
-0.32911339 0.11183465 0.60458636
-0.32778159 0.11210771 0.60606253
-0.3264432 0.11238209 0.60754585
-0.32509831 0.11265782 0.60903651
-0.32374677 0.11293492 0.61053449
-0.32238856 0.11321338 0.61203986
-0.32102364 0.1134932 0.61355263
-0.42899552 0.12111483 0.64251727
-0.41788039 0.11860266 0.62919015
-0.40721142 0.11619099 0.61639619
-0.39696768 0.11387544 0.60411215
-0.38712427 0.1116504 0.59230822
-0.37764463 0.10950671 0.5809359
-0.36851957 0.10744304 0.56998807
-0.36392796 0.10668574 0.56597054
-0.36276093 0.10692953 0.5672639
-0.36158854 0.10717444 0.56856316
-0.36041072 0.10742047 0.56986833
-0.35922757 0.10766765 0.57117963
-0.3580389 0.10791595 0.57249689
-0.35684475 0.10816541 0.57382023
-0.35564506 0.10841601 0.57514971
-0.35443982 0.1086678 0.57648546
-0.35322896 0.10892075 0.57782733
-0.35201249 0.10917489 0.57917559
-0.35079032 0.10943022 0.58053011
-0.34956241 0.10968673 0.58189094
-0.34832874 0.10994447 0.58325821
-0.34708926 0.11020342 0.58463192
-0.34584391 0.11046358 0.58601213
-0.34459269 0.11072498 0.58739883
-0.34333551 0.11098762 0.58879215
-0.3420724 0.1112515 0.59019208
-0.34080318 0.11151664 0.59159863
-0.33952796 0.11178306 0.59301198
-0.33824664 0.11205074 0.59443206
-0.33695915 0.11231972 0.59585899
-0.33566546 0.11258998 0.59729272
-0.33436555 0.11286155 0.59873343
-0.33305934 0.11313444 0.6001811
-0.33174679 0.11340864 0.60163575
-0.33042789 0.11368419 0.60309756
-0.32910252 0.11396107 0.6045664
-0.32777071 0.11423931 0.60604244
-0.32643238 0.1145189 0.60752571
-0.32508749 0.11479986 0.60901624
-0.32373595 0.11508222 0.6105141
-0.32237777 0.11536596 0.61201936
-0.32101288 0.1156511 0.61353207
-0.31964123 0.11593767 0.61505228
-0.42090178 0.12234212 0.63711929
-0.41003892 0.1198237 0.62400419
-0.39961424 0.11740688 0.61141813
-0.3896018 0.11508562 0.59932977
-0.37997758 0.11285438 0.58771014
-0.37069833 0.1107017 0.57649964
-0.3627497 0.10892484 0.56724632
-0.36157733 0.10917432 0.56854552
-0.36039951 0.10942493 0.56985062
-0.35921636 0.1096767 0.57116181
-0.35802773 0.10992964 0.57247901
-0.35683358 0.11018374 0.57380229
-0.35563391 0.11043902 0.57513171
-0.35442865 0.11069548 0.57646728
-0.35321781 0.11095314 0.5778091
-0.35200134 0.11121202 0.57915723
-0.35077921 0.11147211 0.58051169
-0.34955129 0.11173341 0.58187246
-0.34831762 0.11199594 0.58323961
-0.34707817 0.11225971 0.58461326
-0.34583285 0.11252472 0.58599335
-0.34458163 0.11279099 0.58737999
-0.34332448 0.11305851 0.58877319
-0.34206134 0.11332731 0.59017301
-0.34079221 0.1135974 0.59157956
-0.339517 0.11386877 0.59299278
-0.33823568 0.11414145 0.5944128
-0.33694819 0.11441542 0.59583956
-0.33565453 0.11469074 0.59727329
-0.33435461 0.11496736 0.59871387
-0.33304843 0.11524533 0.60016143
-0.33173591 0.11552464 0.60161602
-0.33041698 0.11580531 0.60307765
-0.32909167 0.11608735 0.60454643
-0.32775986 0.11637076 0.60602236
-0.32642153 0.11665557 0.6075055
-0.32507667 0.11694177 0.60899597
-0.32372516 0.11722938 0.61049378
-0.32236704 0.11751842 0.61199898
-0.32100222 0.11780889 0.61351168
-0.319801 0.11816376 0.61535972
-0.31978971 0.11896614 0.61953825
-0.42269668 0.12578909 0.64326698
-0.4129371 0.12354722 0.63180238
-0.40232566 0.12102479 0.61890304
-0.39213881 0.1186033 0.60651988
-0.38235167 0.11627681 0.59462255
-0.37294108 0.11403983 0.58318299
-0.36386475 0.11188085 0.5721423
-0.36038834 0.11142926 0.56983292
-0.35920516 0.11168563 0.57114398
-0.35801649 0.11194319 0.57246107
-0.35682243 0.11220195 0.57378435
-0.35562274 0.11246189 0.57511365
-0.3544175 0.11272305 0.57644916
-0.35320669 0.11298542 0.57779092
-0.35199022 0.11324903 0.57913893
-0.35076806 0.11351386 0.58049327
-0.3495402 0.11377995 0.58185399
-0.34830657 0.11404728 0.58322108
-0.34706709 0.11431587 0.58459461
-0.3458218 0.11458573 0.58597463
-0.34457058 0.11485686 0.58736116
-0.34331346 0.11512928 0.5887543
-0.34205031 0.11540299 0.59015399
-0.34078118 0.11567801 0.59156042
-0.339506 0.11595435 0.59297359
-0.33822468 0.11623202 0.59439349
-0.33693722 0.116511 0.59582019
-0.33564359 0.11679134 0.5972538
-0.33434367 0.11707302 0.59869426
-0.3330375 0.11735607 0.60014176
-0.331725 0.11764049 0.60159624
-0.3304061 0.1179263 0.6030578
-0.32908079 0.11821349 0.60452646
-0.32774901 0.11850209 0.60600233
-0.32641077 0.11879212 0.60748547
-0.32506594 0.11908356 0.60897589
-0.32371449 0.11937644 0.61047363
-0.32235643 0.11967078 0.61197883
-0.32099167 0.11996658 0.61349154
-0.32098839 0.12077868 0.61764449
-0.32098511 0.12160186 0.62185413
-0.32098177 0.12243634 0.62612152
-0.42411965 0.12780139 0.64199018
-0.41976982 0.12716888 0.63881284
-0.41546306 0.12654266 0.63566715
-0.4111985 0.12592258 0.63255227
-0.40510425 0.12473237 0.62657344
-0.39473748 0.1222064 0.61388463
-0.38478225 0.1197807 0.60169953
-0.37521452 0.11744943 0.58998871
-0.36599848 0.11520286 0.57870346
-0.35919398 0.11369445 0.57112622
-0.35800532 0.11395662 0.57244319
-0.35681123 0.11422002 0.57376635
-0.35561159 0.11448464 0.57509559
-0.35440639 0.11475049 0.57643104
-0.35319555 0.11501757 0.57777268
-0.35197911 0.11528591 0.57912064
-0.35075697 0.1155555 0.58047491
-0.34952909 0.11582636 0.58183551
-0.34829545 0.11609849 0.58320248
-0.34705603 0.1163719 0.58457595
-0.34581071 0.1166466 0.58595586
-0.34455952 0.1169226 0.58734232
-0.3433024 0.11719991 0.58873534
-0.34203929 0.11747854 0.59013498
-0.34077018 0.11775851 0.59154135
-0.339495 0.1180398 0.5929544
-0.33821371 0.11832244 0.59437418
-0.33692625 0.11860644 0.59580082
-0.33563262 0.11889181 0.59723431
-0.33433273 0.11917855 0.59867471
-0.33302659 0.11946668 0.60012209
-0.33171412 0.11975621 0.60157651
-0.33039531 0.12004717 0.60303807
-0.32907006 0.12033954 0.60450673
-0.32773834 0.12063333 0.6059826
-0.3264001 0.12092856 0.60746562
-0.32505527 0.12122524 0.60895592
-0.32370389 0.12152338 0.61045361
-0.32234582 0.121823 0.61195868
-0.32217976 0.12258019 0.61576229
-0.32218459 0.12341309 0.61994624
-0.32218948 0.12425738 0.62418741
-0.32219443 0.12511329 0.62848699
-0.32219946 0.12598111 0.6328463
-0.42553729 0.1298058 0.64071888
-0.42118868 0.12916453 0.63755357
-0.4168832 0.12852967 0.63441992
-0.41262004 0.12790109 0.63131726
-0.40839839 0.12727863 0.62824482
-0.40421763 0.12666219 0.62520212
-0.4000771 0.12605169 0.62218869
-0.39597636 0.12544706 0.61920422
-0.38727131 0.12336898 0.60894686
-0.3775416 0.12093952 0.59695506
-0.36818773 0.11860389 0.58542645
-0.35917461 0.11635234 0.57431287
-0.35680005 0.11623798 0.57374835
-0.35560042 0.11650725 0.57507753
-0.35439524 0.1167778 0.57641292
-0.3531844 0.11704958 0.57775444
-0.35196793 0.11732265 0.57910228
-0.3507458 0.11759699 0.58045644
-0.349518 0.11787264 0.58181703
-0.34828436 0.11814957 0.58318394
-0.34704494 0.1184278 0.58455729
-0.34579968 0.11870735 0.58593714
-0.34454849 0.11898822 0.58732349
-0.34329137 0.11927042 0.58871645
-0.34202826 0.11955395 0.59011596
-0.34075916 0.11983885 0.59152222
-0.33948401 0.12012511 0.5929352
-0.33820274 0.12041274 0.59435493
-0.33691531 0.12070175 0.59578145
-0.33562171 0.12099215 0.59721488
-0.33432189 0.12128397 0.59865528
-0.3330158 0.1215772 0.60010266
-0.33170336 0.12187184 0.60155702
-0.33038455 0.12216792 0.60301846
-0.32905933 0.12246545 0.60448706
-0.32772765 0.12276443 0.60596281
-0.3263894 0.12306486 0.60744572
-0.32504463 0.12336677 0.60893595
-0.32369322 0.12367017 0.61043352
-0.32336393 0.12437075 0.61389154
-0.32337674 0.12521322 0.61804998
-0.32338974 0.12606719 0.62226516
-0.32340294 0.12693289 0.62653828
-0.32341632 0.12781057 0.63087046
-0.32342985 0.12870046 0.63526297
-0.42694935 0.13180231 0.6394527
-0.42260236 0.13115245 0.63629985
-0.41829801 0.13050897 0.63317794
-0.41403604 0.12987189 0.63008708
-0.4098157 0.12924106 0.62702656
-0.40563613 0.12861633 0.6239956
-0.40149677 0.12799761 0.62099379
-0.39739704 0.12738481 0.61802071
-0.39333642 0.12677786 0.61507601
-0.38931429 0.12617666 0.61215925
-0.38533014 0.12558113 0.60926998
-0.37992439 0.12451304 0.60408801
-0.37041432 0.12208021 0.59228492
-0.36126795 0.11974037 0.58093292
-0.35558924 0.11852975 0.57505947
-0.35438409 0.11880498 0.5763948
-0.35317329 0.11908148 0.57773626
-0.35195681 0.11935927 0.57908398
-0.35073471 0.11963837 0.58043808
-0.34950686 0.11991878 0.58179849
-0.34827325 0.1202005 0.58316529
-0.34703383 0.12048355 0.58453858
-0.3457886 0.12076796 0.58591837
-0.34453741 0.12105368 0.58730459
-0.34328032 0.12134078 0.58869749
-0.34201723 0.12162923 0.59009695
-0.34074819 0.12191907 0.59150314
-0.33947307 0.1222103 0.59291607
-0.33819187 0.12250293 0.59433579
-0.3369045 0.12279696 0.59576231
-0.33561093 0.12309241 0.59719568
-0.33431116 0.12338929 0.59863603
-0.33300504 0.1236876 0.60008329
-0.33169264 0.12398735 0.60153759
-0.33037385 0.12428855 0.60299891
-0.32904863 0.12459123 0.60446739
-0.32771695 0.12489539 0.60594302
-0.32637873 0.12520103 0.60742587
-0.32503399 0.12550817 0.60891604
-0.32454094 0.12615046 0.61203218
-0.32456166 0.12700239 0.61616534
-0.32458267 0.1278659 0.62035477
-0.32460395 0.12874123 0.62460154
-0.32462558 0.12962864 0.62890691
-0.32464746 0.13052836 0.63327199
-0.32466969 0.13144067 0.63769817
-0.32469222 0.13236581 0.64218658
-0.42835581 0.13379093 0.6381914
-0.42401043 0.13313256 0.63505095
-0.4197076 0.13248065 0.63194132
-0.41544667 0.13183507 0.6288619
-0.41122746 0.13119589 0.62581295
-0.40704918 0.13056295 0.62279373
-0.40291095 0.12993605 0.61980343
-0.39881235 0.12931517 0.61684179
-0.39475265 0.12870018 0.61390823
-0.39073142 0.12809102 0.6110025
-0.38674805 0.12748758 0.60812408
-0.3828021 0.12688984 0.60527277
-0.37889293 0.12629765 0.60244799
-0.37502012 0.12571096 0.59964949
-0.37118307 0.1251297 0.5968768
-0.36339769 0.12320321 0.58768731
-0.35444877 0.12085789 0.5765
-0.35316214 0.12111324 0.57771802
-0.3519457 0.12139576 0.57906568
-0.35072359 0.12167961 0.58041966
-0.34949577 0.1219648 0.58178002
-0.34826216 0.12225132 0.58314675
-0.34702277 0.12253919 0.58451992
-0.34577751 0.12282843 0.58589959
-0.34452638 0.12311904 0.58728582
-0.34326935 0.12341104 0.58867866
-0.34200633 0.12370442 0.59007812
-0.34073728 0.1239992 0.59148425
-0.33946222 0.1242954 0.59289712
-0.33818105 0.12459301 0.59431678
-0.33689368 0.12489205 0.59574318
-0.33560014 0.12519252 0.59717649
-0.33430037 0.12549445 0.59861672
-0.33299428 0.12579784 0.60006386
-0.33168191 0.1261027 0.60151809
-0.33036312 0.12640904 0.60297936
-0.32903793 0.12671687 0.60444772
-0.32770625 0.1270262 0.60592324
-0.32636806 0.12733705 0.60740602
-0.32571086 0.12791945 0.61018407
-0.32573929 0.12878065 0.61429209
-0.32576823 0.12965357 0.61845601
-0.32579759 0.13053843 0.62267679
-0.32582733 0.13143544 0.62695557
-0.32585749 0.13234484 0.63129354
-0.32588804 0.13326694 0.63569194
-0.32591906 0.13420196 0.6401521
-0.32595047 0.13515021 0.64467525
-0.32598236 0.13611193 0.64926279
-0.42975676 0.13577172 0.63693511
-0.42541298 0.13510491 0.633807
-0.4211117 0.13444462 0.63070947
-0.41685227 0.13379078 0.6276421
-0.41263399 0.13314323 0.62460434
-0.40845677 0.13250206 0.62159646
-0.40431976 0.1318671 0.61861765
-0.40022221 0.13123818 0.61566728
-0.39616352 0.13061522 0.61274487
-0.39214322 0.12999816 0.60985011
-0.38816071 0.1293869 0.60698253
-0.38421547 0.12878136 0.60414183
-0.38030702 0.12818147 0.6013276
-0.37643477 0.12758714 0.59853947
-0.37259829 0.12699829 0.59577703
-0.36879706 0.12641487 0.59304005
-0.36503059 0.12583676 0.59032804
-0.36129844 0.12526393 0.58764076
-0.35648912 0.12430888 0.58316046
-0.35193458 0.12343213 0.57904738
-0.35071248 0.12372074 0.5804013
-0.34948465 0.12401069 0.58176154
-0.34825113 0.12430203 0.58312827
-0.34701177 0.12459474 0.58450145
-0.3457666 0.12488883 0.58588111
-0.3445155 0.12518431 0.58726728
-0.3432585 0.1254812 0.58866006
-0.34199548 0.12577949 0.5900594
-0.34072649 0.12607922 0.59146547
-0.3394514 0.12638037 0.59287822
-0.33817023 0.12668297 0.59429777
-0.33688289 0.12698701 0.59572411
-0.33558935 0.12729251 0.5971573
-0.33428961 0.12759951 0.59859747
-0.33298352 0.12790796 0.60004449
-0.33167115 0.12821792 0.6014986
-0.33035243 0.1285294 0.60295981
-0.32902724 0.12884237 0.60442805
-0.32769558 0.12915689 0.60590351
-0.32687372 0.12967777 0.60834706
-0.3269099 0.13054818 0.61243033
-0.32694659 0.13143036 0.61656886
-0.32698387 0.13232458 0.62076384
-0.32702163 0.13323103 0.62501621
-0.32705992 0.13415 0.6293273
-0.32709879 0.13508175 0.63369834
-0.32713813 0.13602652 0.63813043
-0.32717803 0.13698457 0.64262491
-0.32721853 0.13795625 0.64718324
-0.43115219 0.13774472 0.63568377
-0.42681006 0.13706955 0.63256788
-0.4225103 0.13640097 0.62948239
-0.41825232 0.13573888 0.62642694
-0.41403547 0.13508318 0.62340093
-0.40985912 0.13443379 0.62040401
-0.40572315 0.13379075 0.61743641
-0.40162671 0.13315387 0.61449724
-0.39756906 0.13252302 0.61158592
-0.39354968 0.13189812 0.60870206
-0.38956803 0.1312791 0.60584527
-0.3856236 0.13066585 0.60301518
-0.38171583 0.1300583 0.60021138
-0.37784424 0.12945639 0.59743357
-0.3740083 0.12886001 0.59468132
-0.37020758 0.12826911 0.59195435
-0.36644155 0.12768361 0.58925229
-0.36270973 0.1271034 0.58657473
-0.35901165 0.12652846 0.58392137
-0.35534692 0.1259587 0.58129197
-0.35192353 0.12546839 0.5790292
-0.35070148 0.12576175 0.58038306
-0.34947371 0.12605649 0.5817433
-0.34824017 0.12635262 0.58310992
-0.34700087 0.12665017 0.58448303
-0.34575567 0.1269491 0.58586258
-0.34450459 0.12724945 0.58724868
-0.34324762 0.12755123 0.58864141
-0.34198463 0.12785444 0.59004068
-0.34071562 0.12815909 0.59144664
-0.33944058 0.12846521 0.59285933
-0.33815941 0.12877278 0.59427875
-0.33687207 0.12908182 0.59570497
-0.33557856 0.12939236 0.59713811
-0.33427882 0.1297044 0.59857816
-0.33297276 0.13001794 0.60002512
-0.33166042 0.13033301 0.60147911
-0.33034167 0.1306496 0.6029402
-0.32901651 0.13096774 0.60440838
-0.32802957 0.13142553 0.60652107
-0.32807338 0.13230501 0.61057979
-0.32811776 0.13319632 0.61469316
-0.32816288 0.13409978 0.61886257
-0.3282086 0.13501558 0.6230889
-0.32825494 0.13594396 0.6273734
-0.32830191 0.13688521 0.63171715
-0.32834953 0.13783957 0.63612145
-0.32839784 0.13880733 0.64058763
-0.32844681 0.13978878 0.64511698
-0.43254215 0.13970999 0.63443732
-0.42820171 0.13902654 0.63133365
-0.42390352 0.13834971 0.62826014
-0.41964698 0.13767946 0.62521642
-0.4154315 0.13701567 0.6222021
-0.41125649 0.13635826 0.61921674
-0.40712133 0.13570711 0.61625981
-0.40302587 0.13506229 0.61333162
-0.39896932 0.13442363 0.61043137
-0.3949509 0.13379095 0.60755837
-0.39097011 0.13316421 0.60471225
-0.38702649 0.13254331 0.60189271
-0.38311946 0.13192819 0.59909934
-0.37924853 0.13131873 0.59633178
-0.37541318 0.13071489 0.59358966
-0.37161294 0.13011658 0.59087265
-0.36784732 0.12952371 0.58818036
-0.36411592 0.12893623 0.58551258
-0.36041817 0.12835404 0.58286881
-0.35675368 0.1277771 0.58024883
-0.353129 0.12720786 0.57766384
-0.35191253 0.12750453 0.57901108
-0.35069051 0.12780267 0.58036494
-0.34946278 0.1281022 0.58172512
-0.34822929 0.12840313 0.58309168
-0.34698996 0.12870547 0.58446467
-0.34574479 0.12900925 0.58584416
-0.34449372 0.12931447 0.58723015
-0.34323674 0.12962113 0.58862275
-0.34197378 0.12992924 0.59002197
-0.34070477 0.13023883 0.5914278
-0.33942974 0.13054989 0.59284037
-0.33814859 0.13086246 0.59425974
-0.33686128 0.13117652 0.5956859
-0.33556777 0.13149208 0.59711891
-0.33426806 0.13180918 0.5985589
-0.33296204 0.13212779 0.60000575
-0.33164969 0.13244796 0.60145968
-0.33033097 0.13276967 0.60292065
-0.32917854 0.13316284 0.60470605
-0.32922986 0.13405125 0.60874039
-0.3292819 0.13495161 0.61282897
-0.32933471 0.13586415 0.61697298
-0.32938826 0.13678914 0.62117344
-0.32944253 0.13772681 0.62543148
-0.32949755 0.13867742 0.62974828
-0.32955334 0.13964124 0.63412511
-0.32960993 0.14061858 0.63856328
-0.3296673 0.14160965 0.6430639
-0.3297255 0.14261483 0.64762849
-0.43392667 0.14166757 0.63319576
-0.42958793 0.14097588 0.63010418
-0.42529136 0.14029092 0.62704265
-0.42103633 0.13961257 0.62401074
-0.41682225 0.13894075 0.62100798
-0.4126485 0.13827536 0.61803395
-0.40851456 0.13761631 0.61508828
-0.4044199 0.13696353 0.61217064
-0.40036425 0.13631704 0.60928112
-0.39634684 0.13567668 0.60641891
-0.39236698 0.13504229 0.60358346
-0.38842416 0.13441381 0.60077441
-0.38451785 0.13379115 0.59799135
-0.38064763 0.13317424 0.59523404
-0.37681285 0.13256298 0.59250194
-0.37301317 0.13195731 0.58979487
-0.36924806 0.13135715 0.58711243
-0.36551702 0.13076243 0.58445424
-0.3618196 0.13017306 0.58182001
-0.3581554 0.12958899 0.57920945
-0.3545239 0.12901013 0.57662219
-0.353118 0.12923916 0.57764584
-0.35190153 0.12954056 0.57899302
-0.35067955 0.12984344 0.58034676
-0.34945184 0.13014776 0.58170688
-0.34821832 0.13045347 0.58307332
-0.34697902 0.13076064 0.58444625
-0.34573388 0.13106927 0.58582568
-0.34448281 0.13137934 0.58721155
-0.34322587 0.13169089 0.58860409
-0.3419629 0.13200392 0.59000319
-0.34069392 0.13231844 0.59140897
-0.33941892 0.13263446 0.59282148
-0.33813778 0.132952 0.59424073
-0.33685049 0.13327107 0.59566683
-0.33555698 0.13359165 0.59709972
-0.33425727 0.1339138 0.59853959
-0.33295128 0.1342375 0.59998637
-0.33163893 0.13456276 0.60144019
-0.33032066 0.13488978 0.60290182
-0.33037943 0.13578701 0.60691208
-0.330439 0.13669626 0.61097604
-0.33049938 0.13761778 0.61509484
-0.33056065 0.13855183 0.61926967
-0.33062276 0.13949865 0.62350154
-0.33068576 0.14045849 0.6277917
-0.3307496 0.14143166 0.63214129
-0.33081439 0.1424184 0.63655162
-0.33088005 0.143419 0.64102387
-0.33094662 0.14443375 0.64555943
-0.43530577 0.1436175 0.63195902
-0.43096873 0.14291765 0.62887949
-0.42667377 0.14222459 0.62582982
-0.42242029 0.14153822 0.62280959
-0.41820765 0.14085846 0.61981839
-0.41403526 0.14018516 0.61685574
-0.40990257 0.13951829 0.61392128
-0.40580902 0.13885772 0.6110146
-0.40175405 0.13820338 0.60813534
-0.39773753 0.13755535 0.60528374
-0.39375857 0.13691336 0.60245883
-0.38981661 0.13627735 0.59966022
-0.38591114 0.13564724 0.59688753
-0.38204154 0.13502291 0.59414029
-0.37820742 0.13440429 0.59141821
-0.37440833 0.13379134 0.58872104
-0.37064368 0.13318394 0.58604831
-0.36691305 0.13258202 0.58339971
-0.36321601 0.13198553 0.58077496
-0.35955209 0.13139439 0.57817376
-0.35592085 0.13080852 0.57559574
-0.35431778 0.13096561 0.57628697
-0.35310701 0.13127032 0.57762784
-0.35189059 0.13157648 0.57897502
-0.35066864 0.13188411 0.5803287
-0.3494409 0.13219319 0.5816887
-0.34820741 0.1325037 0.58305508
-0.34696811 0.13281569 0.58442789
-0.34572297 0.13312915 0.5858072
-0.34447193 0.13344409 0.58719301
-0.34321499 0.13376053 0.58858544
-0.34195206 0.13407847 0.58998448
-0.34068307 0.13439791 0.59139013
-0.3394081 0.13471891 0.59280258
-0.33812699 0.13504143 0.59422177
-0.33683968 0.13536547 0.59564769
-0.3355462 0.13569109 0.59708053
-0.33424655 0.13601831 0.59852034
-0.33294052 0.13634707 0.599967
-0.33162823 0.13667744 0.60142076
-0.33152211 0.13751239 0.60509473
-0.3315891 0.1384304 0.60913426
-0.33165702 0.13936077 0.61322814
-0.3317259 0.14030375 0.61737752
-0.33179578 0.1412596 0.62158352
-0.33186662 0.14222854 0.62584722
-0.33193842 0.14321089 0.63016981
-0.33201125 0.14420691 0.6345526
-0.3320851 0.14521687 0.63899672
-0.33215994 0.14624107 0.64350349
-0.43667948 0.14555983 0.63072711
-0.4323442 0.14485189 0.62765956
-0.42805088 0.14415081 0.62462169
-0.42379892 0.14345649 0.62161309
-0.4195877 0.1427688 0.61863327
-0.41541669 0.14208768 0.61568195
-0.41128528 0.14141305 0.61275864
-0.40719289 0.14074478 0.60986292
-0.40313902 0.14008279 0.60699451
-0.39912313 0.13942701 0.60415292
-0.39514506 0.13877748 0.60133845
-0.39120394 0.138134 0.5985502
-0.38729924 0.13749647 0.5957877
-0.38343042 0.13686481 0.5930506
-0.37959692 0.1362389 0.59033847
-0.37579837 0.1356187 0.58765107
-0.37203425 0.13500412 0.58498806
-0.3683041 0.13439509 0.58234906
-0.36460739 0.13379151 0.57973367
-0.36094379 0.13319334 0.57714176
-0.35731283 0.1326005 0.57457292
-0.35551199 0.13268396 0.57493454
-0.35430682 0.13299195 0.57626909
-0.35309604 0.13330138 0.5776099
-0.35187963 0.13361226 0.57895696
-0.35065764 0.13392463 0.58031052
-0.34942997 0.13423848 0.58167046
-0.34819645 0.13455379 0.58303672
-0.34695718 0.1348706 0.58440948
-0.34571207 0.13518891 0.58578873
-0.34446105 0.1355087 0.58717448
-0.34320411 0.13583003 0.58856678
-0.34194118 0.13615286 0.5899657
-0.34067222 0.13647725 0.5913713
-0.33939722 0.13680319 0.59278363
-0.33811611 0.13713069 0.5942027
-0.33682889 0.13745977 0.59562862
-0.33553541 0.13779041 0.59706134
-0.33423576 0.13812266 0.59850103
-0.33292976 0.13845651 0.59994763
-0.3326579 0.13922743 0.60328811
-0.33273229 0.14015412 0.60730356
-0.33280766 0.14109321 0.61137277
-0.3328841 0.14204501 0.61549699
-0.33296162 0.14300974 0.61967731
-0.33304018 0.14398767 0.62391478
-0.33311987 0.14497907 0.62821066
-0.33320063 0.14598423 0.63256609
-0.33328253 0.14700341 0.63698232
-0.33336559 0.14803693 0.64146066
-0.43804792 0.14749461 0.62950009
-0.43371439 0.14677866 0.6264444
-0.42942268 0.1460696 0.62341821
-0.4251723 0.14536738 0.62042117
-0.42096251 0.14467187 0.61745274
-0.41679287 0.14398299 0.61451262
-0.41266274 0.14330064 0.6116004
-0.40857157 0.14262472 0.60871559
-0.40451881 0.14195515 0.60585791
-0.40050393 0.14129184 0.60302693
-0.39652643 0.1406347 0.60022229
-0.39258617 0.1399838 0.5974443
-0.38868225 0.13933891 0.59469193
-0.38481414 0.13869995 0.59196484
-0.38098136 0.13806681 0.58926266
-0.37718341 0.13743943 0.58658504
-0.37341982 0.13681772 0.58393162
-0.36969012 0.13620162 0.58130211
-0.36599383 0.13559103 0.57869613
-0.36233059 0.13498589 0.57611346
-0.35869986 0.13438615 0.57355374
-0.35670054 0.13439426 0.57358837
-0.35550097 0.1347055 0.57491672
-0.35429582 0.13501817 0.57625121
-0.35308504 0.1353323 0.5775919
-0.35186869 0.13564792 0.57893896
-0.3506467 0.13596505 0.5802924
-0.34941903 0.13628367 0.58165228
-0.34818557 0.13660377 0.58301848
-0.3469463 0.13692538 0.58439112
-0.34570119 0.13724853 0.58577025
-0.34445021 0.1375732 0.58715594
-0.34319326 0.13789941 0.58854818
-0.34193033 0.13822715 0.58994699
-0.34066141 0.13855648 0.59135252
-0.3393864 0.13888736 0.59276474
-0.33810535 0.13921985 0.59418374
-0.3368181 0.13955392 0.59560955
-0.33552468 0.1398896 0.5970422
-0.334225 0.14022689 0.59848177
-0.33378699 0.14093228 0.60149235
-0.33386865 0.1418675 0.60548383
-0.33395138 0.14281523 0.60952866
-0.33403522 0.14377567 0.61362779
-0.3341203 0.14474918 0.61778271
-0.33420655 0.14573596 0.62199426
-0.33429396 0.14673629 0.62626362
-0.33438262 0.14775045 0.63059199
-0.33447248 0.14877874 0.63498062
-0.33456361 0.14982142 0.63943076
-0.43941098 0.14942187 0.62827772
-0.43507922 0.14869796 0.62523389
-0.43078923 0.14798103 0.62221938
-0.42654037 0.14727098 0.61923379
-0.42233214 0.1465677 0.61627674
-0.41816387 0.14587112 0.61334777
-0.41403502 0.14518112 0.61044651
-0.40994507 0.1444976 0.60757256
-0.40589347 0.14382052 0.6047256
-0.40187967 0.14314975 0.60190517
-0.39790308 0.14248519 0.5991109
-0.39396328 0.14182678 0.59634244
-0.39006019 0.1411746 0.59360021
-0.38619286 0.1405284 0.59088314
-0.38236073 0.13988808 0.58819073
-0.3785634 0.13925357 0.58552283
-0.37480038 0.1386248 0.58287901
-0.37107119 0.13800168 0.58025897
-0.36737531 0.13738412 0.57766229
-0.3637124 0.13677207 0.5750888
-0.360082 0.13616547 0.5725382
-0.35788357 0.13609657 0.57224852
-0.35668954 0.13641101 0.57357067
-0.35548994 0.1367269 0.5748989
-0.35428482 0.13704427 0.57623333
-0.35307401 0.13736309 0.5775739
-0.35185769 0.13768345 0.5789209
-0.35063574 0.13800532 0.58027428
-0.34940806 0.13832872 0.58163404
-0.34817463 0.13865362 0.58300018
-0.34693539 0.13898005 0.58437276
-0.34569028 0.13930802 0.58575177
-0.34443927 0.13963754 0.58713734
-0.34318238 0.13996865 0.58852953
-0.34191948 0.1403013 0.58992827
-0.34065056 0.14063555 0.59133369
-0.33937559 0.14097141 0.59274584
-0.33809453 0.14130886 0.59416473
-0.33680728 0.14164792 0.59559041
-0.33551386 0.14198862 0.59702295
-0.33490938 0.14262702 0.59970725
-0.33499819 0.14357065 0.60367495
-0.33508819 0.14452685 0.60769552
-0.33517942 0.14549588 0.61177003
-0.33527192 0.14647803 0.61589968
-0.33536571 0.14747353 0.62008548
-0.33546081 0.14848265 0.62432855
-0.33555722 0.14950569 0.62863016
-0.33565494 0.15054291 0.63299143
-0.33575407 0.15159464 0.63741362
-0.44076881 0.15134168 0.62706017
-0.4364388 0.15060987 0.62402803
-0.43215051 0.1498851 0.62102515
-0.42790326 0.1491673 0.61805099
-0.42369649 0.14845632 0.61510515
-0.41952968 0.14775209 0.61218733
-0.41540217 0.14705452 0.60929704
-0.41131344 0.14636348 0.60643387
-0.40726295 0.14567892 0.60359746
-0.40325022 0.14500074 0.60078752
-0.39927468 0.14432885 0.59800363
-0.39533576 0.14366312 0.59524536
-0.39143306 0.14300355 0.59251249
-0.38756651 0.14235017 0.58980531
-0.38373512 0.14170273 0.58712274
-0.37993845 0.14106116 0.58446449
-0.37617597 0.14042537 0.5818302
-0.37244728 0.13979527 0.57921952
-0.36875185 0.13917081 0.57663214
-0.36508933 0.13855191 0.57406783
-0.36145926 0.13793848 0.57152623
-0.35906109 0.13779095 0.57091492
-0.35787255 0.13810855 0.57223088
-0.35667849 0.13842763 0.57355291
-0.35547894 0.13874818 0.57488108
-0.3542738 0.13907023 0.57621539
-0.35306302 0.13939376 0.57755589
-0.35184672 0.13971885 0.57890284
-0.3506248 0.14004546 0.58025616
-0.34939715 0.14037363 0.58161587
-0.34816369 0.14070332 0.58298188
-0.34692448 0.14103459 0.5843544
-0.3456794 0.14136739 0.58573335
-0.34442842 0.14170177 0.5871188
-0.34317151 0.14203775 0.58851087
-0.34190863 0.14237532 0.58990955
-0.34063971 0.1427145 0.59131485
-0.33936477 0.1430553 0.59272695
-0.33808368 0.14339773 0.59414572
-0.33679649 0.1437418 0.59557134
-0.33602509 0.14431173 0.5979327
-0.33612102 0.14526366 0.60187691
-0.33621824 0.14622825 0.60587353
-0.3363167 0.14720571 0.60992348
-0.33641651 0.14819634 0.61402798
-0.33651781 0.14920045 0.61818838
-0.33662045 0.15021825 0.62240547
-0.33672452 0.15125003 0.62668049
-0.33683002 0.15229608 0.63101465
-0.33693701 0.15335672 0.63540918
-0.33704549 0.15443221 0.63986534
-0.4421213 0.15325402 0.62584722
-0.43779314 0.1525144 0.62282681
-0.43350652 0.15178189 0.61983544
-0.42926094 0.15105638 0.61687267
-0.42505568 0.15033776 0.61393803
-0.4208903 0.14962596 0.61103123
-0.41676414 0.14892086 0.60815179
-0.41267672 0.14822239 0.60529941
-0.40862742 0.14753042 0.60247362
-0.40461573 0.14684488 0.59967405
-0.40064123 0.1461657 0.59690046
-0.39670324 0.14549275 0.59415233
-0.39280137 0.14482598 0.59142941
-0.38893521 0.14416532 0.58873147
-0.38510448 0.14351079 0.58605856
-0.38130847 0.1428622 0.58340991
-0.37754661 0.14221945 0.5807851
-0.37381846 0.14158247 0.57818383
-0.37012348 0.14095113 0.57560563
-0.36646137 0.14032543 0.57305044
-0.36283165 0.13970526 0.57051784
-0.36023313 0.13947745 0.56958753
-0.35905007 0.13979821 0.5708974
-0.35786152 0.14012042 0.57221323
-0.35666746 0.14044413 0.57353514
-0.35546792 0.14076935 0.57486326
-0.3542628 0.14109607 0.5761975
-0.35305205 0.14142431 0.57753795
-0.35183576 0.14175412 0.57888478
-0.35061383 0.14208549 0.58023804
-0.34938619 0.14241841 0.58159763
-0.34815279 0.14275292 0.58296359
-0.34691355 0.14308897 0.58433598
-0.34566849 0.14342663 0.58571488
-0.34441748 0.14376587 0.58710021
-0.34316063 0.14410673 0.58849221
-0.34189776 0.1444492 0.58989078
-0.34062886 0.1447933 0.59129602
-0.33935392 0.14513907 0.59270799
-0.33807287 0.14548647 0.5941267
-0.33713427 0.14598648 0.59616864
-0.33723718 0.14694661 0.60008949
-0.33734149 0.14791945 0.60406232
-0.33744714 0.14890525 0.60808802
-0.33755425 0.14990428 0.61216784
-0.33766291 0.15091686 0.61630291
-0.337773 0.15194319 0.62049419
-0.33788463 0.15298361 0.62474293
-0.33799779 0.15403834 0.6290502
-0.33811256 0.15510774 0.63341731
-0.33822891 0.15619209 0.63784552
-0.43914229 0.15441163 0.62163025
-0.4348574 0.15367141 0.61865032
-0.43061343 0.15293826 0.61569881
-0.42640972 0.15221208 0.61277533
-0.42224577 0.15149276 0.60987949
-0.41812101 0.15078022 0.6070109
-0.41403481 0.15007432 0.60416913
-0.40998676 0.14937502 0.60135388
-0.40597624 0.14868221 0.59856474
-0.40200272 0.14799578 0.59580135
-0.39806575 0.14731567 0.59306335
-0.39416477 0.14664178 0.59035039
-0.39029935 0.14597403 0.58766216
-0.38646892 0.14531231 0.58499825
-0.38267359 0.14465678 0.58235919
-0.37891236 0.14400712 0.5797438
-0.37518471 0.14336327 0.57715178
-0.37149027 0.14272514 0.57458282
-0.36782855 0.14209267 0.57203662
-0.36419919 0.1414658 0.56951296
-0.36139977 0.14115614 0.56826633
-0.36022204 0.14147997 0.56957
-0.35903901 0.14180532 0.57087982
-0.35785046 0.14213216 0.57219559
-0.35665643 0.14246051 0.57351744
-0.35545689 0.14279038 0.57484543
-0.3542518 0.14312178 0.57617962
-0.35304105 0.14345472 0.57751995
-0.35182482 0.14378928 0.57886678
-0.3506029 0.14412539 0.58021992
-0.34937528 0.14446309 0.58157945
-0.34814185 0.14480236 0.58294529
-0.34690267 0.14514324 0.58431762
-0.34565759 0.14548573 0.5856964
-0.34440666 0.14582984 0.58708173
-0.34314978 0.14617559 0.58847362
-0.34188691 0.14652295 0.58987206
-0.34061804 0.146872 0.59127724
-0.3393431 0.1472227 0.5926891
-0.3382369 0.1476514 0.59441495
-0.33834672 0.14861959 0.59831268
-0.33845803 0.14960057 0.6022619
-0.3385708 0.15059459 0.60626364
-0.33868513 0.15160191 0.6103189
-0.33880097 0.1526228 0.61442882
-0.33891848 0.15365757 0.61859459
-0.3390376 0.15470648 0.62281728
-0.33915836 0.1557698 0.62709796
-0.33928075 0.15684782 0.6314379
-0.33940488 0.15794088 0.63583833
-0.42775866 0.15407932 0.61161703
-0.42359617 0.15335254 0.6087321
-0.41947278 0.15263259 0.60587424
-0.4153879 0.15191935 0.60304308
-0.41134101 0.15121277 0.60023826
-0.40733162 0.15051273 0.59745944
-0.4033592 0.14981914 0.59470624
-0.39942318 0.14913189 0.59197825
-0.39552316 0.14845094 0.58927524
-0.39165851 0.14777617 0.58659673
-0.38782892 0.14710753 0.58394253
-0.38403383 0.1464449 0.58131224
-0.38027319 0.14578839 0.5787062
-0.37654611 0.14513773 0.57612342
-0.37285218 0.14449285 0.57356358
-0.36919093 0.14385369 0.57102644
-0.36556196 0.14322016 0.56851166
-0.36256093 0.14282703 0.56695116
-0.36138865 0.14315395 0.56824887
-0.36021101 0.14348237 0.56955254
-0.35902795 0.14381231 0.57086223
-0.35783944 0.14414378 0.57217795
-0.35664544 0.14447676 0.57349974
-0.35544586 0.14481129 0.57482761
-0.35424078 0.14514737 0.57616168
-0.35303006 0.145485 0.57750195
-0.35181382 0.14582428 0.57884872
-0.35059196 0.14616516 0.5802018
-0.34936431 0.14650762 0.58156121
-0.34813091 0.14685169 0.58292699
-0.34689173 0.14719738 0.58429921
-0.34564668 0.14754471 0.58567792
-0.34439576 0.14789367 0.58706313
-0.3431389 0.14824431 0.58845496
-0.34187606 0.14859658 0.58985335
-0.3406072 0.14895055 0.59125841
-0.339333 0.14930652 0.59267145
-0.33944973 0.1502827 0.59654635
-0.33956793 0.1512717 0.60047221
-0.33968776 0.15227383 0.60445017
-0.33980915 0.1532893 0.60848105
-0.33993217 0.15431841 0.61256611
-0.34005696 0.15536149 0.61670661
-0.3401835 0.15641877 0.62090349
-0.34031165 0.15749051 0.62515771
-0.34044164 0.15857705 0.62947077
-0.34057346 0.15967871 0.63384378
-0.42101607 0.15455021 0.60502434
-0.41673595 0.15375754 0.60192126
-0.41269028 0.15304372 0.59912682
-0.40868208 0.15233651 0.5963583
-0.40471071 0.1516358 0.59361517
-0.40077573 0.15094151 0.5908972
-0.39687657 0.15025353 0.58820397
-0.39301285 0.14957182 0.58553523
-0.38918397 0.14889623 0.58289051
-0.3853896 0.14822677 0.58026969
-0.38162917 0.14756328 0.5776723
-0.37790269 0.14690587 0.57509875
-0.37420925 0.14625429 0.57254797
-0.37054849 0.14560848 0.57001978
-0.36691988 0.14496835 0.56751382
-0.36371678 0.14449023 0.56564212
-0.36254984 0.14482018 0.56693381
-0.3613776 0.14515166 0.56823146
-0.36019996 0.14548467 0.56953508
-0.3590169 0.14581919 0.57084465
-0.35782841 0.14615527 0.5721603
-0.35663438 0.14649288 0.57348198
-0.35543486 0.14683206 0.57480979
-0.35422978 0.14717282 0.5761438
-0.35301909 0.14751518 0.57748401
-0.35180289 0.14785919 0.57883072
-0.35058099 0.14820479 0.58018368
-0.3493534 0.14855203 0.58154303
-0.34812003 0.1489009 0.58290875
-0.34688082 0.14925139 0.58428085
-0.34563583 0.14960356 0.5856595
-0.34438488 0.14995737 0.5870446
-0.34312803 0.15031289 0.58843631
-0.34186521 0.15067008 0.58983463
-0.34059638 0.15102898 0.59123963
-0.34054625 0.15193601 0.59479046
-0.34067133 0.15293294 0.59869319
-0.34079802 0.15394303 0.60264742
-0.34092644 0.15496656 0.60665429
-0.34105659 0.1560038 0.61071479
-0.34118855 0.15705505 0.61483014
-0.3413223 0.15812056 0.61900133
-0.3414579 0.15920064 0.62322956
-0.34159538 0.16029558 0.62751597
-0.34173474 0.16140567 0.63186169
-0.41002756 0.15415359 0.59526116
-0.40605733 0.15344582 0.59252816
-0.40212327 0.1527445 0.58982003
-0.3982251 0.15204959 0.58713663
-0.39436221 0.15136096 0.58447748
-0.39053419 0.15067855 0.58184236
-0.38674048 0.15000224 0.57923084
-0.3829807 0.149332 0.57664269
-0.37925446 0.14866775 0.57407773
-0.37556159 0.14800952 0.571536
-0.37190127 0.14735711 0.5690167
-0.36827308 0.14671041 0.5665195
-0.3648673 0.14614576 0.5643391
-0.36370569 0.14647874 0.56562489
-0.36253878 0.14681323 0.56691653
-0.36136651 0.14714925 0.56821406
-0.36018893 0.14748682 0.56951761
-0.35900587 0.14782596 0.57082713
-0.35781732 0.14816661 0.5721426
-0.35662335 0.14850888 0.57346421
-0.35542384 0.14885272 0.57479197
-0.35421878 0.14919817 0.57612592
-0.35300812 0.14954522 0.57746607
-0.35179192 0.14989394 0.57881266
-0.35057005 0.15024431 0.58016557
-0.34934244 0.15059631 0.58152479
-0.34810907 0.15094995 0.58289039
-0.34686992 0.15130527 0.58426249
-0.34562492 0.15166228 0.58564103
-0.344374 0.15202096 0.58702606
-0.34311715 0.15238133 0.58841765
-0.34185436 0.15274344 0.58981591
-0.3416363 0.15357962 0.59304482
-0.34176815 0.15458436 0.5969246
-0.34190172 0.15560234 0.60085547
-0.34203708 0.15663381 0.60483849
-0.34217423 0.15767904 0.60887462
-0.34231317 0.15873829 0.61296493
-0.3424542 0.15981196 0.61711085
-0.3425971 0.16090024 0.62131321
-0.34274194 0.16200341 0.62557316
-0.3428888 0.16312186 0.62989199
-0.42442635 0.16256948 0.61933267
-0.39956877 0.15383914 0.58607316
-0.39570677 0.15314366 0.58342361
-0.39187956 0.15245445 0.58079797
-0.38808662 0.1517714 0.57819581
-0.38432753 0.15109447 0.5756169
-0.38060179 0.15042353 0.57306087
-0.37690911 0.14975855 0.57052755
-0.37324929 0.14909959 0.56801713
-0.36962155 0.1484464 0.56552869
-0.36602545 0.1477989 0.56306195
-0.36485621 0.14812963 0.56432194
-0.36369464 0.14846712 0.56560767
-0.3625277 0.14880614 0.56689918
-0.36135548 0.14914672 0.56819671
-0.36017784 0.14948885 0.56950009
-0.35899481 0.14983258 0.57080954
-0.3578063 0.15017785 0.57212496
-0.35661232 0.15052475 0.57344651
-0.35541284 0.15087326 0.57477421
-0.35420778 0.15122338 0.57610804
-0.35299715 0.15157515 0.57744813
-0.35178098 0.15192859 0.57879466
-0.35055909 0.15228368 0.58014745
-0.34933153 0.15264046 0.58150661
-0.34809816 0.15299889 0.58287215
-0.34685904 0.15335904 0.58424413
-0.34561402 0.15372086 0.58562255
-0.34436312 0.1540844 0.58700752
-0.3431063 0.15444967 0.58839905
-0.34272 0.15521361 0.59130943
-0.34285849 0.15622605 0.59516644
-0.34299886 0.15725178 0.59907413
-0.34314102 0.15829106 0.60303342
-0.34328514 0.1593442 0.60704547
-0.34343114 0.16041142 0.61111122
-0.34357917 0.16149305 0.61523187
-0.34372929 0.1625894 0.61940861
-0.34388146 0.16370074 0.62364244
-0.34403569 0.16482738 0.62793452
-0.40123332 0.15736683 0.59157187
-0.38942793 0.15353425 0.57716447
-0.38566953 0.15285064 0.57459468
-0.38194442 0.1521731 0.57204765
-0.37825224 0.15150157 0.56952322
-0.3745926 0.15083596 0.56702107
-0.37096533 0.15017632 0.56454134
-0.36736962 0.14952241 0.56208318
-0.36600143 0.14977294 0.563025
-0.3648451 0.15011337 0.56430477
-0.36368352 0.15045537 0.56559038
-0.36251664 0.15079893 0.5668819
-0.3613444 0.15114404 0.56817925
-0.36016679 0.15149076 0.56948262
-0.35898376 0.15183906 0.57079196
-0.35779527 0.15218897 0.57210732
-0.35660133 0.1525405 0.57342881
-0.35540184 0.15289366 0.57475638
-0.35419679 0.15324847 0.57609016
-0.35298619 0.15360494 0.57743019
-0.35177004 0.15396312 0.57877666
