# .PCD v0.7 - Point Cloud Data file format
VERSION 0.7
FIELDS x y z
SIZE 4 4 4
TYPE F F F
COUNT 1 1 1
WIDTH 1378
HEIGHT 1
VIEWPOINT 0 0 0 1 0 0 0
POINTS 1378
DATA ascii
0.22984581 -0.05483631 0.66227996
0.23246755 -0.054904394 0.66310227
0.23509577 -0.054972645 0.66392654
0.23773058 -0.055041071 0.66475296
0.24037194 -0.055109665 0.66558141
0.24301991 -0.055178434 0.66641194
0.24567446 -0.05524737 0.66724449
0.24833567 -0.055316478 0.66807914
0.18365584 -0.054731872 0.69039726
0.18542658 -0.054537229 0.68794197
0.18718474 -0.054343957 0.68550402
0.18893051 -0.054152057 0.68308336
0.19066399 -0.053961508 0.68067974
0.19238533 -0.053772297 0.67829299
0.19409461 -0.053584404 0.67592287
0.195792 -0.053397819 0.67356926
0.19747762 -0.053212535 0.67123204
0.19915156 -0.053028524 0.66891092
0.20081398 -0.052845787 0.66660583
0.202465 -0.052664306 0.66431659
0.20410471 -0.052484065 0.66204304
0.20573319 -0.05230505 0.65978491
0.20735064 -0.052127257 0.65754217
0.20895712 -0.051950663 0.65531462
0.21055277 -0.051775269 0.65310216
0.21292762 -0.051793206 0.65332842
0.21549302 -0.051856611 0.65412819
0.21806471 -0.051920168 0.65492994
0.2206427 -0.051983882 0.65573364
0.22322704 -0.052047756 0.65653932
0.22581775 -0.05211179 0.65734708
0.22841498 -0.05217601 0.65815717
0.23101862 -0.05224039 0.65896928
0.23362868 -0.052304927 0.65978336
0.23624519 -0.052369621 0.66059941
0.23886819 -0.052434478 0.66141754
0.24149767 -0.052499495 0.66223764
0.24413371 -0.052564673 0.66305983
0.24677628 -0.052630015 0.66388404
0.24942546 -0.05269552 0.66471034
0.18114413 -0.052276496 0.6900956
0.18292302 -0.052090663 0.68764246
0.1846893 -0.051906142 0.68520665
0.18644312 -0.051722929 0.68278807
0.1881846 -0.051541008 0.68038654
0.18991388 -0.051360361 0.67800182
0.19163109 -0.051180974 0.67563379
0.19333634 -0.051002838 0.67328221
0.19502974 -0.050825931 0.6709469
0.19671145 -0.050650254 0.6686278
0.19838156 -0.05047578 0.66632462
0.20004022 -0.050302509 0.66403729
0.20168753 -0.050130427 0.66176564
0.20332362 -0.049959518 0.65950948
0.20494854 -0.04978976 0.65726852
0.2065625 -0.049621161 0.65504289
0.20816557 -0.049453698 0.65283221
0.20975785 -0.04928736 0.65063643
0.21162009 -0.049187373 0.64931649
0.21416813 -0.049247216 0.65010649
0.21672237 -0.049307205 0.6508984
0.21928285 -0.049367346 0.65169227
0.22184958 -0.049427629 0.65248805
0.22442259 -0.049488056 0.6532858
0.22700188 -0.049548633 0.65408546
0.22958764 -0.049609389 0.6548875
0.23217976 -0.049670298 0.6556915
0.23477824 -0.049731351 0.65649748
0.23738313 -0.049792558 0.65730548
0.23999441 -0.04985391 0.65811539
0.24261217 -0.049915422 0.65892738
0.24523638 -0.049977083 0.65974134
0.24786708 -0.050038897 0.66055733
0.17683481 -0.050001565 0.69226283
0.17863461 -0.049823258 0.68979418
0.18042167 -0.049646229 0.68734324
0.18219604 -0.049470447 0.68490958
0.18395787 -0.049295902 0.68249303
0.18570736 -0.049122591 0.68009359
0.18744457 -0.048950493 0.67771089
0.18916966 -0.048779596 0.67534488
0.19088274 -0.04860989 0.67299533
0.19258395 -0.048441358 0.67066205
0.19427338 -0.048273992 0.66834486
0.19595118 -0.048107777 0.66604364
0.1976175 -0.047942705 0.66375828
0.19927239 -0.047778759 0.66148847
0.20091604 -0.047615938 0.65923423
0.20254846 -0.047454208 0.65699512
0.20416987 -0.047293585 0.65477133
0.20578034 -0.047134046 0.6525625
0.20737998 -0.046975575 0.65036851
0.20896889 -0.046818167 0.64818925
0.21054719 -0.046661813 0.64602453
0.21285944 -0.046669718 0.64613396
0.21539646 -0.046726219 0.64691621
0.21793963 -0.046782851 0.64770031
0.220489 -0.046839628 0.64848638
0.22304454 -0.046896543 0.64927435
0.22560632 -0.0469536 0.65006429
0.22817433 -0.047010791 0.65085608
0.23074868 -0.047068141 0.65165007
0.23332939 -0.047125641 0.65244615
0.23591642 -0.047183283 0.6532442
0.23850976 -0.047241062 0.65404415
0.24110948 -0.04729899 0.65484613
0.24371557 -0.047357053 0.65565002
0.24632809 -0.047415264 0.65645593
0.24894701 -0.047473617 0.65726382
0.17624032 -0.047402568 0.68993556
0.17792252 -0.047203932 0.68704444
0.17970495 -0.047036864 0.68461281
0.1814748 -0.046870977 0.68219835
0.18323223 -0.046706256 0.67980087
0.18497738 -0.046542697 0.67742026
0.18671033 -0.04638027 0.67505622
0.18843123 -0.046218984 0.67270869
0.1901402 -0.046058808 0.67037737
0.19183737 -0.045899738 0.66806215
0.19352286 -0.045741767 0.6657629
0.19519679 -0.04558488 0.66347945
0.19685927 -0.045429062 0.66121155
0.19851044 -0.04527431 0.65895915
0.20015037 -0.045120604 0.65672201
0.20177922 -0.044967942 0.65450001
0.2033971 -0.044816308 0.65229303
0.20500407 -0.044665691 0.65010083
0.20660029 -0.044516087 0.64792335
0.20818587 -0.044367481 0.64576042
0.20976087 -0.044219863 0.64361185
0.21156663 -0.044123523 0.64220965
0.21408668 -0.044176616 0.64298242
0.21661282 -0.044229843 0.6437571
0.21914501 -0.044283189 0.64453357
0.22168337 -0.044336673 0.64531201
0.22422782 -0.04439028 0.64609224
0.22677843 -0.044444017 0.64687437
0.22933525 -0.044497885 0.64765841
0.23189832 -0.044551894 0.64844453
0.2344677 -0.044606049 0.64923275
0.23704337 -0.044660345 0.65002298
0.23962528 -0.044714764 0.65081507
0.2422135 -0.044769321 0.65160912
0.24480806 -0.044824012 0.65240514
0.24740896 -0.044878833 0.65320307
0.25001621 -0.044933792 0.65400296
0.17537141 -0.04537582 0.69613588
0.1760114 -0.044913255 0.68903941
0.1772161 -0.044605412 0.68431664
0.17899397 -0.044448167 0.68190426
0.18075934 -0.044292022 0.67950875
0.18251234 -0.044136975 0.67713004
0.18425314 -0.043983009 0.67476797
0.18598182 -0.043830112 0.67242229
0.18769856 -0.04367828 0.670093
0.18940346 -0.043527503 0.6677798
0.19109659 -0.043377753 0.6654824
0.19277813 -0.043229036 0.66320086
0.19444817 -0.043081332 0.66093487
0.19610687 -0.042934641 0.65868437
0.19775428 -0.042788938 0.65644908
0.19939056 -0.042644221 0.65422893
0.2010158 -0.042500485 0.65202373
0.20263013 -0.042357709 0.64983338
0.20423365 -0.042215895 0.64765769
0.20582648 -0.042075027 0.64549655
0.20740868 -0.04193509 0.64334971
0.20898041 -0.041796081 0.64121711
0.21054175 -0.041657995 0.63909864
0.21279272 -0.041657835 0.6390962
0.21530202 -0.041707721 0.63986152
0.21781731 -0.041757721 0.64062864
0.22033864 -0.041807845 0.6413976
0.22286606 -0.041858092 0.64216846
0.22539955 -0.041908462 0.64294118
0.22793911 -0.041958939 0.64371562
0.23048481 -0.042009547 0.64449203
0.2330367 -0.042060282 0.64527035
0.23559487 -0.042111162 0.64605093
0.23815924 -0.042162161 0.64683336
0.24072982 -0.042213287 0.6476177
0.24330668 -0.04226454 0.648404
0.24588977 -0.042315915 0.64919215
0.24847917 -0.042367417 0.64998227
0.17514157 -0.042866819 0.69522357
0.17578307 -0.042430393 0.68814552
0.17651527 -0.042027447 0.68161041
0.17828861 -0.041879874 0.67921704
0.18004949 -0.041733325 0.67684031
0.18179813 -0.041587807 0.67448026
0.18353459 -0.041443296 0.67213655
0.18525906 -0.04129979 0.6698091
0.1869716 -0.041157272 0.66749775
0.18867236 -0.041015733 0.6652022
0.1903615 -0.040875167 0.6629225
0.1920391 -0.040735565 0.66065842
0.19370529 -0.040596917 0.65840977
0.19536018 -0.040459208 0.65617639
0.19700387 -0.04032243 0.65395808
0.19863647 -0.040186569 0.65175468
0.20025812 -0.040051624 0.64956611
0.20186892 -0.039917585 0.64739221
0.20346899 -0.039784439 0.64523286
0.20505841 -0.03965218 0.6430878
0.20663726 -0.039520789 0.64095688
0.20820573 -0.039390273 0.63884014
0.20976385 -0.039260615 0.63673735
0.21151434 -0.039169323 0.63525671
0.21400701 -0.039215945 0.63601285
0.21650562 -0.039262678 0.63677078
0.21901017 -0.039309517 0.63753045
0.22152074 -0.039356474 0.63829201
0.2240373 -0.039403547 0.63905543
0.22655989 -0.039450727 0.63982064
0.22908852 -0.03949802 0.64058763
0.23162323 -0.039545432 0.64135653
0.23416401 -0.039592952 0.64212722
0.23671104 -0.039640605 0.64290011
0.23926423 -0.039688379 0.64367491
0.24182361 -0.039736275 0.64445168
0.24438915 -0.039784279 0.64523023
0.24696089 -0.039832402 0.6460107
0.24953885 -0.039880637 0.64679301
0.17491235 -0.040364388 0.69431365
0.17555532 -0.039953969 0.68725395
0.17618506 -0.039551746 0.68033528
0.17758876 -0.039331738 0.67655087
0.17934521 -0.039194647 0.67419279
0.18108948 -0.039058514 0.6718511
0.18282166 -0.038923319 0.66952562
0.1845419 -0.03878906 0.66721618
0.18625028 -0.038655721 0.6649226
0.18794699 -0.038523294 0.66264474
0.1896321 -0.038391776 0.66038245
0.19130577 -0.038261153 0.65813559
0.19296806 -0.038131412 0.65590388
0.19461915 -0.038002554 0.65368742
0.19625911 -0.037874568 0.65148586
0.19788808 -0.037747435 0.64929909
0.19950615 -0.037621159 0.64712697
0.20111343 -0.037495725 0.64496934
0.20271003 -0.037371125 0.64282608
0.20429605 -0.037247345 0.64069694
0.20587158 -0.037124384 0.63858187
0.20743677 -0.037002236 0.63648075
0.20899168 -0.036880884 0.63439339
0.21053642 -0.03676033 0.63231969
0.21272746 -0.03675396 0.63221014
0.21520962 -0.036797497 0.63295907
0.21769764 -0.036841139 0.63370973
0.22019158 -0.036884885 0.63446218
0.22269142 -0.036928728 0.63521636
0.22519724 -0.036972679 0.63597238
0.22770901 -0.037016734 0.63673019
0.2302268 -0.037060898 0.63748986
0.23275059 -0.037105165 0.6382513
0.23528042 -0.037149541 0.6390146
0.23781638 -0.037194032 0.63977987
0.2403585 -0.037238643 0.64054722
0.2429067 -0.037283357 0.64131635
0.24546106 -0.03732818 0.6420874
0.24802154 -0.037373111 0.64286023
0.17402565 -0.038260959 0.7005924
0.1746837 -0.037868496 0.69340605
0.17532818 -0.037483957 0.68636477
0.17595938 -0.03710708 0.67946386
0.17689438 -0.036803529 0.67390555
0.17864642 -0.036675755 0.67156589
0.1803863 -0.03654886 0.66924232
0.18211421 -0.036422841 0.66693485
0.18383025 -0.036297694 0.66464323
0.18553452 -0.0361734 0.66236728
0.18722717 -0.036049955 0.6601069
0.18890831 -0.035927348 0.65786189
0.19057803 -0.035805568 0.65563202
0.19223651 -0.035684623 0.65341735
0.19388379 -0.035564482 0.65121752
0.19552 -0.035445146 0.64903235
0.19714531 -0.035326619 0.64686197
0.19875979 -0.035208877 0.64470607
0.20036356 -0.035091925 0.64256454
0.20195672 -0.034975745 0.64043719
0.20353933 -0.034860328 0.63832378
0.20511156 -0.034745675 0.63622439
0.20667347 -0.03463177 0.6341387
0.20822518 -0.034518611 0.63206667
0.20976676 -0.034406189 0.6300081
0.21146315 -0.034321245 0.62845272
0.21392901 -0.034361657 0.62919265
0.21640071 -0.034402166 0.62993443
0.21887825 -0.034442771 0.63067794
0.22136162 -0.03448347 0.63142318
0.22385089 -0.034524266 0.6321702
0.22634605 -0.034565162 0.63291901
0.22884712 -0.034606148 0.63366956
0.23135412 -0.034647234 0.63442189
0.23386711 -0.034688424 0.63517606
0.23638606 -0.034729704 0.63593197
0.23891105 -0.034771092 0.63668978
0.24144216 -0.034812592 0.63744968
0.24397933 -0.034854192 0.63821143
0.24652261 -0.034895893 0.63897502
0.24907194 -0.034937691 0.63974041
0.17379612 -0.0357453 0.69966835
0.17445567 -0.035379123 0.69250089
0.17510161 -0.035020322 0.68547779
0.17573428 -0.034668669 0.67859465
0.17635439 -0.034324009 0.67184836
0.17795303 -0.034176409 0.66895932
0.1796886 -0.034058623 0.66665381
0.18141225 -0.033941645 0.6643641
0.18312408 -0.033825468 0.66209006
0.18482426 -0.033710085 0.65983158
0.18651286 -0.033595484 0.65758842
0.18819 -0.033481658 0.6553604
0.18985584 -0.033368602 0.65314752
0.19151047 -0.033256311 0.65094954
0.19315398 -0.033144768 0.64876622
0.19478653 -0.033033971 0.64659756
0.19640818 -0.032923914 0.64444333
0.19801907 -0.032814588 0.64230341
0.19961928 -0.032705985 0.64017761
0.20120898 -0.032598104 0.63806599
0.20278822 -0.032490931 0.63596821
0.2043571 -0.032384459 0.63388419
0.20591576 -0.032278687 0.63181382
0.20746426 -0.032173604 0.62975693
0.20900272 -0.032069199 0.62771338
0.2105312 -0.031965472 0.62568301
0.21266359 -0.031954631 0.62547088
0.21511917 -0.031992082 0.62620389
0.2175805 -0.032029618 0.62693858
0.22004762 -0.032067243 0.62767506
0.22252053 -0.032104954 0.6284132
0.22499928 -0.032142755 0.62915313
0.22748387 -0.032180645 0.62989479
0.22997431 -0.032218624 0.63063818
0.23247065 -0.032256693 0.6313833
0.23497289 -0.032294855 0.63213027
0.23748107 -0.032333102 0.63287896
0.2399952 -0.032371446 0.63362944
0.24251539 -0.032409891 0.63438195
0.24504162 -0.032448433 0.63513643
0.24757387 -0.032487068 0.63589263
0.25011218 -0.032525796 0.63665068
0.17356719 -0.033236273 0.69874674
0.17422824 -0.032896239 0.69159806
0.17487563 -0.032563049 0.68459314
0.17550977 -0.032236487 0.67772764
0.17613131 -0.031916413 0.67099851
0.17726502 -0.031696394 0.66637295
0.17899626 -0.031587578 0.66408521
0.18071567 -0.0314795 0.66181308
0.18242332 -0.031372163 0.65955645
0.18411937 -0.031265553 0.65731514
0.18580395 -0.031159667 0.65508902
0.18747714 -0.031054497 0.65287793
0.1891391 -0.030950034 0.65068173
0.19078988 -0.030846268 0.6485002
0.19242966 -0.030743198 0.64633334
0.19405851 -0.030640816 0.64418089
0.19567654 -0.030539112 0.6420427
0.19728386 -0.030438082 0.63991868
0.1988806 -0.030337719 0.63780868
0.20046681 -0.03023801 0.63571244
0.20204265 -0.03013896 0.63363004
0.20360821 -0.030040555 0.63156122
0.2051636 -0.029942794 0.62950593
0.20670891 -0.029845672 0.62746406
0.2082442 -0.029749172 0.62543529
0.20976962 -0.029653296 0.62341964
0.21141304 -0.029575918 0.62179285
0.21385269 -0.029610373 0.62251723
0.21629804 -0.02964491 0.62324333
0.21874914 -0.029679529 0.62397116
0.22120591 -0.029714227 0.62470061
0.22366844 -0.029749004 0.62543178
0.22613676 -0.029783865 0.62616467
0.22861087 -0.029818809 0.6268993
0.23109078 -0.029853834 0.62763566
0.23357654 -0.029888941 0.62837374
0.23606814 -0.02992413 0.62911355
0.23856561 -0.029959403 0.6298551
0.24106899 -0.02999476 0.63059843
0.24357834 -0.030030208 0.63134366
0.24609374 -0.030065751 0.63209093
0.24861509 -0.030101378 0.63283992
0.17266254 -0.031054415 0.70510632
0.17333888 -0.030733844 0.69782758
0.1740014 -0.030419825 0.69069761
0.17465022 -0.030112108 0.68371075
0.17528582 -0.029810512 0.6768629
0.1759088 -0.029514899 0.67015082
0.17658231 -0.02923548 0.6638065
0.17830925 -0.029135499 0.66153634
0.1800244 -0.029036192 0.65928155
0.1817279 -0.028937565 0.65704215
0.18341987 -0.028839603 0.65481788
0.18510041 -0.0287423 0.65260857
0.18676968 -0.028645657 0.65041423
0.18842775 -0.028549658 0.64823455
0.19007473 -0.028454302 0.64606941
0.19171076 -0.028359579 0.64391869
0.19333591 -0.028265484 0.64178222
0.19495033 -0.028172012 0.63965988
0.19655411 -0.02807916 0.63755161
0.19814734 -0.027986912 0.6354571
0.19973014 -0.027895272 0.63337636
0.20130263 -0.027804229 0.63130921
0.20286484 -0.027713776 0.62925541
0.20441698 -0.027623916 0.62721509
0.20595904 -0.02753463 0.62518781
0.20749119 -0.027445925 0.62317371
0.20901351 -0.027357789 0.62117255
0.21052611 -0.02727022 0.61918426
0.21260107 -0.027256547 0.61887378
0.21503064 -0.027288154 0.61959141
0.21746585 -0.02731983 0.62031066
0.21990673 -0.027351584 0.62103164
0.22235326 -0.027383408 0.62175423
0.22480553 -0.027415309 0.62247854
0.22726348 -0.02744728 0.62320447
0.22972719 -0.02747933 0.62393218
0.23219666 -0.027511453 0.62466156
0.23467192 -0.027543653 0.62539268
0.23715299 -0.027575929 0.62612551
0.23963988 -0.027608281 0.62686008
0.24213259 -0.027640706 0.62759632
0.24463119 -0.027673211 0.62833434
0.24713579 -0.027705807 0.62907445
0.24964631 -0.027738478 0.62981629
0.17243335 -0.028532138 0.70417035
0.17311116 -0.028237989 0.6969108
0.17377512 -0.027949845 0.68979943
0.17442541 -0.027667478 0.68283063
0.17506243 -0.02739072 0.6760003
0.17568685 -0.027119447 0.66930526
0.17629899 -0.026853489 0.66274148
0.17762747 -0.026702169 0.65900689
0.17933841 -0.026611505 0.65676934
0.18103777 -0.026521455 0.65454692
0.18272565 -0.026432011 0.65233946
0.18440221 -0.026343172 0.6501469
0.18606752 -0.026254926 0.64796901
0.1877217 -0.026167268 0.6458056
0.1893649 -0.026080197 0.64365667
0.1909972 -0.025993701 0.64152199
0.19261868 -0.025907777 0.63940138
0.19422948 -0.025822416 0.63729471
0.19582973 -0.025737623 0.63520199
0.19741948 -0.025653379 0.63312286
0.19899885 -0.025569685 0.63105732
0.20056796 -0.025486536 0.62900519
0.20212692 -0.02540393 0.62696648
0.20367578 -0.025321854 0.62494087
0.20521466 -0.025240306 0.62292826
0.20674367 -0.025159284 0.62092865
0.20826291 -0.025078779 0.61894178
0.20977244 -0.024998788 0.61696762
0.21136399 -0.024930112 0.6152727
0.21377799 -0.024958851 0.615982
0.21619757 -0.024987658 0.61669296
0.21862271 -0.025016529 0.61740547
0.22105347 -0.025045468 0.61811966
0.22348987 -0.025074473 0.61883551
0.22593191 -0.025103545 0.61955303
0.22837962 -0.025132686 0.62027222
0.23083302 -0.025161894 0.62099308
0.23329212 -0.025191167 0.62171555
0.23575698 -0.025220513 0.6224398
0.23822758 -0.025249928 0.62316573
0.24070394 -0.025279408 0.62389332
0.24318607 -0.025308957 0.62462258
0.24567404 -0.025338579 0.62535363
0.24816798 -0.025368283 0.62608671
0.17151122 -0.02629004 0.71062946
0.17220476 -0.026016548 0.70323688
0.17288403 -0.025748685 0.69599646
0.17354946 -0.025486283 0.68890363
0.17420118 -0.025229136 0.68195283
0.17483963 -0.02497709 0.67513996
0.17546546 -0.02473003 0.66846186
0.17607903 -0.024487812 0.66191459
0.17695089 -0.024287377 0.65649676
0.17865762 -0.024205226 0.65427619
0.18035285 -0.02412363 0.65207058
0.18203668 -0.02404258 0.64987981
0.18370923 -0.023962075 0.64770371
0.18537062 -0.023882104 0.64554209
0.18702096 -0.023802668 0.64339489
0.18866035 -0.023723757 0.64126188
0.1902889 -0.023645367 0.63914299
0.19190675 -0.023567496 0.63703811
0.19351397 -0.023490135 0.634947
0.19511065 -0.023413278 0.63286954
0.19669694 -0.023336925 0.63080567
0.19827293 -0.023261068 0.62875527
0.19983867 -0.0231857 0.62671804
0.2013943 -0.023110822 0.62469405
0.20293996 -0.023036428 0.62268311
0.20447566 -0.022962507 0.62068504
0.20600154 -0.022889061 0.61869973
0.2075177 -0.022816082 0.61672711
0.20931116 -0.022774789 0.61561096
0.21148543 -0.022775354 0.61562622
0.21365985 -0.022775924 0.61564159
0.21583435 -0.02277649 0.61565691
0.218009 -0.022777058 0.61567229
0.22018373 -0.022777628 0.61568767
0.22235858 -0.022778196 0.61570305
0.22461584 -0.022787115 0.61594409
0.22704774 -0.02281341 0.61665487
0.2294853 -0.02283977 0.61736739
0.23192847 -0.022866186 0.61808145
0.23437731 -0.022892667 0.61879724
0.23683184 -0.02291921 0.6195147
0.23929204 -0.022945812 0.62023377
0.24175797 -0.022972478 0.62095451
0.24422964 -0.022999205 0.62167698
0.24670707 -0.023025993 0.62240106
0.24919039 -0.023052854 0.62312716
0.17197679 -0.023507617 0.70230585
0.1726575 -0.023265906 0.69508451
0.17332436 -0.023029111 0.68801016
0.17397751 -0.022797054 0.68107724
0.17461739 -0.022569595 0.67428178
0.17524461 -0.022346629 0.66762054
0.17585959 -0.022128027 0.66108966
0.17646262 -0.021913659 0.65468526
0.177982 -0.021817148 0.65180194
0.17967309 -0.021743877 0.6496129
0.18135287 -0.021671098 0.64743859
0.18302144 -0.021598805 0.64527875
0.18467893 -0.02152699 0.64313328
0.18632542 -0.021455655 0.64100206
0.18796103 -0.021384787 0.63888484
0.18958588 -0.021314388 0.63678163
0.19120006 -0.021244451 0.63469225
0.19280368 -0.021174971 0.63261646
0.19439687 -0.021105945 0.63055426
0.19597967 -0.021037366 0.62850541
0.19755223 -0.020969231 0.62646985
0.19911465 -0.020901538 0.62444746
0.20066701 -0.02083428 0.62243807
0.2022094 -0.020767452 0.62044156
0.20374192 -0.020701051 0.61845779
0.20546871 -0.020655585 0.61709946
0.20764808 -0.020656092 0.6171146
0.20982757 -0.020656601 0.6171298
0.2120073 -0.020657122 0.61714536
0.21418709 -0.020657638 0.6171608
0.21636699 -0.020658156 0.61717623
0.218547 -0.020658672 0.61719167
0.22072712 -0.020659188 0.61720711
0.22290735 -0.020659706 0.61722255
0.22508769 -0.020660222 0.61723799
0.22726813 -0.020660739 0.61725342
0.22944868 -0.020661255 0.61726886
0.23162934 -0.020661771 0.6172843
0.23381014 -0.020662291 0.6172998
0.23599102 -0.020662807 0.61731523
0.23817202 -0.020663327 0.61733073
0.24035312 -0.020663843 0.61734617
0.24280214 -0.020687178 0.6180433
0.24526341 -0.020711133 0.61875898
0.2477304 -0.020735143 0.61947632
0.25020316 -0.020759214 0.62019545
0.1717494 -0.021005323 0.70137727
0.17243157 -0.020789621 0.69417495
0.17309986 -0.020578304 0.68711895
0.17375442 -0.020371208 0.68020391
0.17439573 -0.020168213 0.67342579
0.17502435 -0.019969221 0.66678137
0.17564069 -0.019774117 0.66026676
0.17624511 -0.019582789 0.65387827
0.17731144 -0.019447062 0.64934623
0.17899844 -0.019381996 0.6471737
0.1806742 -0.019317366 0.64501566
0.18233879 -0.019253165 0.64287192
0.18399237 -0.019189389 0.64074242
0.18563505 -0.019126033 0.63862699
0.18726687 -0.019063095 0.63652539
0.18888801 -0.019000569 0.63443768
0.19049856 -0.018938452 0.63236356
0.1920986 -0.018876741 0.63030297
0.19368827 -0.018815432 0.62825584
0.19526762 -0.018754516 0.62622184
0.19683678 -0.018693997 0.62420106
0.19839586 -0.018633867 0.62219328
0.19994493 -0.01857412 0.62019831
0.20160763 -0.018526107 0.61859512
0.20379221 -0.018526565 0.61861044
0.20597687 -0.01852702 0.61862564
0.20816165 -0.018527478 0.6186409
0.21034656 -0.018527936 0.61865622
0.21253173 -0.018528407 0.61867195
0.21471694 -0.018528873 0.61868751
0.21690224 -0.018529337 0.61870301
0.21908765 -0.018529801 0.6187185
0.2212732 -0.018530268 0.61873406
0.22345884 -0.018530734 0.61874962
0.22564457 -0.018531198 0.61876512
0.22783042 -0.018531661 0.61878061
0.23001641 -0.018532127 0.61879617
0.23220247 -0.018532591 0.61881167
0.23438866 -0.018533057 0.61882722
0.23657495 -0.018533522 0.61884272
0.23876135 -0.018533986 0.61885822
0.24094787 -0.018534452 0.61887378
0.2431345 -0.018534917 0.61888933
0.24532124 -0.018535383 0.61890489
0.24750808 -0.018535847 0.61892039
0.24969505 -0.018536313 0.61893594
0.17220621 -0.01831981 0.6932677
0.17287594 -0.01813384 0.68623012
0.1735319 -0.017951576 0.67933279
0.17417459 -0.017772917 0.6725719
0.1748046 -0.017597778 0.66594422
0.17542234 -0.017426061 0.65944594
0.17602813 -0.017257659 0.65307325
0.17664595 -0.017094769 0.64690906
0.17832884 -0.017037787 0.64475274
0.18000057 -0.016981186 0.64261079
0.1816612 -0.016924957 0.64048296
0.18331091 -0.016869102 0.63836926
0.18494974 -0.016813612 0.63626939
0.18657783 -0.016758488 0.63418335
0.18819527 -0.016703723 0.63211089
0.18980217 -0.016649313 0.63005191
0.19139867 -0.016595259 0.6280064
0.1929848 -0.016541556 0.62597406
0.19456072 -0.016488196 0.62395483
0.19612649 -0.016435182 0.6219486
0.19772781 -0.016386284 0.62009817
0.19991758 -0.016386688 0.62011349
0.20210749 -0.016387094 0.62012887
0.20429748 -0.016387498 0.62014419
0.20648757 -0.016387902 0.62015945
0.2086778 -0.016388308 0.62017483
0.21086827 -0.016388725 0.62019062
0.2130588 -0.016389139 0.62020624
0.21524943 -0.016389551 0.62022185
0.21744017 -0.016389962 0.62023741
0.21963103 -0.016390376 0.62025303
0.22182198 -0.016390786 0.62026858
0.22401305 -0.016391199 0.6202842
0.22620423 -0.016391611 0.62029982
0.22839551 -0.016392022 0.62031537
0.23058695 -0.016392436 0.62033105
0.23277846 -0.016392849 0.62034667
0.23497006 -0.016393261 0.62036222
0.2371618 -0.016393673 0.62037784
0.23935366 -0.016394086 0.62039346
0.24154559 -0.016394498 0.62040901
0.24373765 -0.016394909 0.62042463
0.24592984 -0.016395323 0.62044024
0.24812213 -0.016395735 0.62045586
0.2503145 -0.016396146 0.62047142
0.25250694 -0.016396554 0.62048686
0.17198147 -0.015856447 0.6923629
0.1726526 -0.015695691 0.68534356
0.17330995 -0.015538134 0.67846394
0.17395402 -0.01538369 0.67172021
0.17458542 -0.015232285 0.66510922
0.17520453 -0.015083834 0.65862715
0.17581168 -0.014938246 0.6522702
0.17640722 -0.014795444 0.64603478
0.17766424 -0.014711051 0.64234984
0.17933194 -0.01466236 0.64022374
0.18098867 -0.014613992 0.63811177
0.18263446 -0.014565938 0.63601357
0.18426949 -0.014518202 0.63392919
0.18589383 -0.014470777 0.63185841
0.18750758 -0.014423661 0.62980109
0.18911089 -0.014376852 0.62775719
0.19070381 -0.014330344 0.62572646
0.19228645 -0.014284137 0.62370884
0.19385894 -0.014238227 0.62170422
0.19602409 -0.014236387 0.62162387
0.19821922 -0.01423674 0.62163931
0.20041445 -0.014237093 0.62165469
0.20260979 -0.014237445 0.62167007
0.20480525 -0.014237798 0.6216855
0.20700082 -0.014238152 0.62170094
0.20919648 -0.014238504 0.62171632
0.21139243 -0.014238869 0.62173223
0.21358845 -0.01423923 0.62174803
0.21578455 -0.014239589 0.62176371
0.21798077 -0.014239949 0.62177944
0.22017708 -0.014240309 0.62179512
0.2223735 -0.014240667 0.62181079
0.22457004 -0.014241027 0.62182647
0.22676668 -0.014241385 0.62184215
0.22896343 -0.014241745 0.62185782
0.2311603 -0.014242103 0.6218735
0.23335727 -0.014242463 0.62188917
0.23555435 -0.014242821 0.62190485
0.23775156 -0.014243181 0.62192053
0.23994885 -0.014243539 0.6219362
0.24214628 -0.014243899 0.62195188
0.2443438 -0.014244257 0.62196755
0.24654144 -0.014244617 0.62198323
0.24873914 -0.014244973 0.62199879
0.25093701 -0.014245332 0.62201446
0.25313494 -0.014245688 0.62203002
0.1717573 -0.013399505 0.69146043
0.17242983 -0.013263833 0.68445927
0.17308858 -0.013130858 0.67759728
0.17373404 -0.013000506 0.67087072
0.17436682 -0.012872718 0.66427642
0.17498727 -0.012747417 0.65781045
0.17559576 -0.012624532 0.65146917
0.17619263 -0.012503994 0.64524895
0.17700456 -0.012401593 0.63996476
0.17866828 -0.012360699 0.63785446
0.18032104 -0.012320071 0.63575792
0.181963 -0.012279711 0.63367522
0.18359421 -0.012239615 0.6316061
0.18521483 -0.012199779 0.62955046
0.18682493 -0.012160202 0.62750816
0.1884246 -0.012120881 0.62547904
0.19001396 -0.012081812 0.62346298
0.1921116 -0.012075585 0.62314165
0.19431198 -0.012075886 0.62315714
0.19651249 -0.012076186 0.62317264
0.19871308 -0.012076485 0.62318808
0.2009138 -0.012076786 0.62320358
0.20311463 -0.012077086 0.62321907
0.20531558 -0.012077386 0.62323457
0.2075166 -0.012077685 0.62325001
0.20971775 -0.012077986 0.6232655
0.21191932 -0.012078304 0.6232819
0.21412079 -0.012078608 0.62329763
0.21632236 -0.012078913 0.62331337
0.21852404 -0.012079218 0.6233291
0.22072583 -0.012079523 0.62334484
0.22292776 -0.012079829 0.62336063
0.22512977 -0.012080134 0.62337637
0.22733192 -0.01208044 0.62339216
0.22953416 -0.012080745 0.6234079
0.23173651 -0.01208105 0.62342364
0.23393899 -0.012081356 0.62343943
0.23614156 -0.012081661 0.62345517
0.23834424 -0.012081966 0.6234709
0.24054706 -0.012082272 0.6234867
0.24274996 -0.012082577 0.62350243
0.24495298 -0.012082882 0.62351817
0.24715613 -0.012083188 0.62353396
0.24935931 -0.01208349 0.62354958
0.25156263 -0.012083795 0.62356526
0.25376603 -0.012084098 0.62358087
0.25596955 -0.012084399 0.62359649
0.17220762 -0.010838242 0.68357724
0.17286777 -0.010729724 0.6767329
0.1735146 -0.010623343 0.67002338
0.17414874 -0.010519051 0.66344559
0.17477053 -0.010416787 0.65699571
0.17538038 -0.010316492 0.65067005
0.17597857 -0.010218111 0.64446503
0.17656548 -0.010121588 0.63837725
0.1780095 -0.01007601 0.63550258
0.17965835 -0.010043013 0.63342148
0.18129645 -0.010010233 0.63135403
0.1829239 -0.0099776676 0.62930006
0.18454076 -0.0099453107 0.62725931
0.1861472 -0.0099131642 0.6252318
0.18817994 -0.0099042077 0.62466687
0.19038561 -0.0099044535 0.62468243
0.1925914 -0.0099047003 0.62469798
0.19479729 -0.0099049471 0.62471354
0.1970033 -0.0099051939 0.6247291
0.19920939 -0.0099054398 0.62474459
0.20141564 -0.0099056875 0.62476021
0.20362197 -0.0099059343 0.62477577
0.2058284 -0.0099061793 0.62479126
0.20803498 -0.009906427 0.62480688
0.21024163 -0.0099066738 0.62482244
0.21244878 -0.0099069374 0.62483907
0.21465576 -0.0099071888 0.62485492
0.21686284 -0.0099074394 0.62487072
0.21907005 -0.0099076908 0.62488657
0.22127736 -0.0099079413 0.62490237
0.22348478 -0.0099081928 0.62491822
0.22569233 -0.0099084442 0.62493408
0.22789997 -0.0099086948 0.62494987
0.23010774 -0.0099089453 0.62496573
0.2323156 -0.0099091958 0.62498152
0.23452359 -0.0099094473 0.62499738
0.23673169 -0.0099096987 0.62501323
0.23893991 -0.0099099502 0.62502909
0.24114825 -0.0099102017 0.62504494
0.24335666 -0.0099104522 0.62506074
0.24556521 -0.0099107036 0.62507659
0.2477738 -0.0099109523 0.62509227
0.24998255 -0.0099112028 0.62510806
0.25219136 -0.0099114515 0.62512374
0.25440028 -0.0099116992 0.62513942
0.25660935 -0.0099119488 0.62515515
0.25881851 -0.0099121984 0.62517089
0.171986 -0.0084188953 0.68269753
0.17264751 -0.0083347065 0.6758706
0.17329571 -0.0082521765 0.66917813
0.1739312 -0.0081712641 0.66261685
0.17455435 -0.0080919228 0.656183
0.1751655 -0.0080141081 0.6498729
0.17576502 -0.007937775 0.64368296
0.17635325 -0.0078628836 0.6376099
0.17735556 -0.0078081065 0.63316798
0.17900051 -0.0077826311 0.63110214
0.18063477 -0.0077573215 0.62904978
0.18225844 -0.0077321762 0.6270107
0.18422899 -0.0077221729 0.62619954
0.18643999 -0.0077223661 0.62621522
0.18865108 -0.0077225589 0.62623084
0.19086228 -0.0077227512 0.62624645
0.19307362 -0.007722945 0.62626213
0.19528504 -0.0077231373 0.62627774
0.19749658 -0.0077233301 0.62629336
0.19970822 -0.0077235224 0.62630898
0.20191997 -0.0077237152 0.62632459
0.20413187 -0.0077239084 0.62634027
0.20634384 -0.0077241012 0.62635589
0.20855595 -0.0077242944 0.62637156
0.21076842 -0.007724497 0.62638801
0.2129809 -0.0077246954 0.62640411
0.21519339 -0.007724891 0.62641996
0.21740603 -0.0077250875 0.62643588
0.21961878 -0.0077252835 0.62645179
0.22183163 -0.00772548 0.6264677
0.22404464 -0.007725677 0.62648368
0.22625771 -0.007725873 0.62649959
0.22847091 -0.0077260695 0.62651551
0.23068419 -0.0077262651 0.62653136
0.23289761 -0.0077264612 0.62654728
0.23511115 -0.0077266572 0.62656319
0.23732479 -0.0077268537 0.62657911
0.23953855 -0.0077270498 0.62659502
0.24175242 -0.0077272463 0.62661093
0.2439664 -0.0077274423 0.62662685
0.24618037 -0.0077276351 0.62664247
0.24839459 -0.0077278321 0.62665844
0.25060889 -0.0077280276 0.62667429
0.25282326 -0.0077282223 0.62669009
0.25503775 -0.0077284169 0.62670588
0.25725237 -0.0077286121 0.62672168
0.2594671 -0.0077288067 0.62673748
0.17176495 -0.0060057677 0.68182009
0.1724278 -0.0059457864 0.67501056
0.17307737 -0.0058869855 0.66833502
0.17371421 -0.0058293357 0.66179019
0.1743387 -0.0057728044 0.65537232
0.17495117 -0.0057173581 0.64907765
0.175552 -0.0056629679 0.64290285
0.17614152 -0.0056096022 0.6368444
0.17672002 -0.0055572335 0.63089907
0.17834747 -0.0055387416 0.62879974
0.1802586 -0.0055294051 0.62773979
0.18247494 -0.0055295434 0.62775552
0.18469138 -0.0055296822 0.62777126
0.18690793 -0.0055298205 0.62778693
0.1891246 -0.0055299588 0.62780267
0.19134136 -0.0055300971 0.62781835
0.19355823 -0.0055302349 0.62783402
0.19577524 -0.0055303741 0.62784982
0.19799234 -0.0055305124 0.62786549
0.20020954 -0.0055306503 0.62788117
0.20242688 -0.005530789 0.6278969
0.20464432 -0.0055309273 0.62791264
0.20686185 -0.0055310656 0.62792832
0.20907952 -0.0055312044 0.62794405
0.21129751 -0.0055313488 0.62796044
0.21351567 -0.005531494 0.62797695
0.21573375 -0.0055316347 0.62799293
0.21795197 -0.0055317758 0.62800896
0.22017029 -0.0055319169 0.62802494
0.22238871 -0.0055320575 0.62804091
0.22460724 -0.0055321981 0.62805688
0.22682589 -0.0055323387 0.62807286
0.22904468 -0.0055324798 0.62808889
0.23126355 -0.0055326209 0.62810487
0.23348255 -0.005532762 0.6281209
0.23570165 -0.0055329027 0.62813687
0.2379209 -0.0055330438 0.62815291
0.24014021 -0.0055331844 0.62816888
0.24235965 -0.0055333255 0.62818485
0.24457908 -0.0055334633 0.62820053
0.24679878 -0.0055336053 0.62821662
0.24901854 -0.0055337455 0.62823254
0.25123838 -0.0055338852 0.62824839
0.25345835 -0.0055340254 0.62826431
0.25567842 -0.0055341646 0.62828016
0.2578986 -0.0055343043 0.62829602
0.2601189 -0.0055344445 0.62831193
0.26233929 -0.0055345842 0.62832779
0.17220867 -0.003562938 0.67415267
0.17285958 -0.0035277463 0.667494
0.17349774 -0.0034932429 0.6609655
0.17412353 -0.0034594079 0.65456349
0.17473729 -0.0034262214 0.6482842
0.17533942 -0.0033936659 0.6421243
0.1759302 -0.0033617236 0.63608038
0.17650995 -0.0033303765 0.63014913
0.17849033 -0.0033259068 0.6293034
0.18071213 -0.0033259902 0.62931919
0.18293406 -0.0033260738 0.62933499
0.18515606 -0.0033261569 0.62935072
0.18737823 -0.0033262407 0.62936658
0.18960045 -0.0033263238 0.62938231
0.19182283 -0.0033264074 0.62939811
0.19404529 -0.0033264908 0.6294139
0.19626789 -0.0033265743 0.6294297
0.19849057 -0.0033266577 0.62944549
0.20071338 -0.0033267413 0.62946129
0.20293631 -0.0033268246 0.62947708
0.20515934 -0.0033269082 0.62949288
0.20738249 -0.0033269916 0.62950867
0.20960574 -0.0033270752 0.62952447
0.21182951 -0.0033271653 0.62954152
0.21405314 -0.0033272509 0.62955773
0.21627682 -0.0033273357 0.62957376
0.21850063 -0.0033274207 0.62958986
0.22072455 -0.0033275057 0.62960595
0.22294858 -0.0033275909 0.62962204
0.22517271 -0.0033276756 0.62963808
0.22739698 -0.0033277606 0.62965417
0.22962134 -0.0033278454 0.6296702
0.23184581 -0.0033279303 0.6296863
0.23407042 -0.0033280156 0.62970239
0.23629512 -0.0033281001 0.62971842
0.23851994 -0.0033281853 0.62973452
0.24074489 -0.0033282703 0.62975061
0.24296992 -0.003328355 0.62976664
0.24519502 -0.0033284391 0.62978256
0.24742025 -0.0033285236 0.62979853
0.24964558 -0.0033286077 0.62981445
0.25187105 -0.0033286924 0.62983048
0.2540966 -0.0033287765 0.62984639
0.25632226 -0.0033288607 0.62986231
0.25854808 -0.003328945 0.62987828
0.26077399 -0.0033290295 0.62989426
0.26299998 -0.0033291136 0.62991017
0.17198977 -0.0011861363 0.67329574
0.17264198 -0.0011744353 0.66665375
0.17328146 -0.0011629629 0.66014159
0.17390858 -0.0011517124 0.65375543
0.17452365 -0.0011406775 0.64749157
0.17512707 -0.0011298521 0.64134669
0.17571913 -0.0011192302 0.63531727
0.17671321 -0.0011114038 0.63087475
0.17894055 -0.001111432 0.63089073
0.18116795 -0.0011114598 0.63090652
0.18339548 -0.0011114877 0.63092238
0.18562312 -0.0011115158 0.63093829
0.18785088 -0.0011115437 0.63095415
0.19007875 -0.0011115717 0.63097
0.19230674 -0.0011115996 0.63098592
0.19453482 -0.0011116276 0.63100177
0.19676302 -0.0011116555 0.63101763
0.19899134 -0.0011116834 0.63103348
0.20121977 -0.0011117114 0.63104934
0.20344831 -0.0011117394 0.63106525
0.20567696 -0.0011117674 0.6310811
0.20790572 -0.0011117953 0.63109696
0.21013482 -0.0011118244 0.63111353
0.21236414 -0.0011118541 0.63113034
0.21459334 -0.0011118825 0.63114649
0.21682264 -0.001111911 0.63116264
0.21905208 -0.0011119394 0.6311788
0.22128162 -0.001111968 0.63119495
0.22351126 -0.0011119964 0.6312111
0.22574104 -0.0011120248 0.63122725
0.22797093 -0.0011120533 0.63124341
0.23020092 -0.0011120817 0.63125956
0.23243102 -0.0011121102 0.63127571
0.23466125 -0.0011121386 0.63129187
0.2368916 -0.0011121671 0.63130802
0.23912205 -0.0011121955 0.63132417
0.24135263 -0.0011122241 0.63134038
0.24358311 -0.0011122517 0.631356
0.245814 -0.0011122805 0.63137239
0.24804485 -0.0011123087 0.63138843
0.25027579 -0.0011123369 0.6314044
0.25250691 -0.0011123653 0.63142049
0.25473809 -0.0011123933 0.63143647
0.25696942 -0.0011124217 0.63145256
0.25920084 -0.00111245 0.63146859
0.26143238 -0.0011124782 0.63148463
0.26366404 -0.0011125065 0.63150066
0.26589581 -0.0011125348 0.6315167
0.17110458 0.0011965355 0.67919874
0.17177138 0.0011846302 0.67244083
0.17242493 0.0011729586 0.66581559
0.17306572 0.0011615149 0.6593197
0.17369413 0.0011502923 0.65294933
0.17431052 0.0011392845 0.64670086
0.17491525 0.0011284854 0.64057094
0.17550859 0.0011178891 0.63455606
0.17716004 0.0011142141 0.63246995
0.17939301 0.0011142424 0.63248599
0.18162608 0.0011142704 0.63250196
0.18385924 0.0011142985 0.63251787
0.18609254 0.0011143266 0.63253385
0.18832596 0.0011143548 0.63254982
0.19055946 0.0011143828 0.63256574
0.19279307 0.0011144108 0.63258165
0.19502684 0.0011144391 0.63259768
0.19726068 0.0011144672 0.6326136
0.19949463 0.0011144952 0.63262951
0.20172872 0.0011145233 0.63264549
0.20396291 0.0011145514 0.63266146
0.2061972 0.0011145795 0.63267738
0.20843163 0.0011146077 0.63269335
0.21066661 0.0011146382 0.6327107
0.21290141 0.001114667 0.63272709
0.21513626 0.0011146956 0.6327433
0.21737124 0.0011147243 0.63275957
0.21960631 0.0011147528 0.63277578
0.2218415 0.0011147814 0.632792
0.22407682 0.0011148101 0.63280827
0.22631223 0.0011148386 0.63282448
0.22854778 0.0011148672 0.63284069
0.23078345 0.0011148959 0.63285697
0.2330192 0.0011149244 0.63287318
0.23525508 0.001114953 0.63288939
0.23749109 0.0011149816 0.63290566
0.2397272 0.0011150102 0.63292187
0.24196316 0.0011150376 0.63293743
0.24419968 0.001115067 0.63295412
0.24643607 0.0011150953 0.63297021
0.24867259 0.0011151237 0.63298631
0.25090924 0.0011151521 0.63300246
0.25314599 0.0011151806 0.63301855
0.25538287 0.001115209 0.63303471
0.25761983 0.0011152374 0.6330508
0.25985691 0.0011152657 0.63306689
0.26209411 0.0011152942 0.63308305
0.26433143 0.0011153225 0.63309914
0.26656884 0.0011153509 0.63311523
0.2688064 0.0011153793 0.63313138
0.1708855 0.0035850105 0.67832911
0.17155354 0.0035493835 0.671588
0.1722084 0.0035144573 0.66497952
0.17285053 0.0034802121 0.6584999
0.17348024 0.0034466274 0.65214527
0.17409793 0.0034136849 0.64591211
0.17470391 0.0033813659 0.63979697
0.17537056 0.0033510297 0.63405699
0.17760912 0.0033511154 0.6340732
0.17984782 0.0033512018 0.63408953
0.18208653 0.0033512858 0.63410544
0.18432537 0.0033513703 0.63412142
0.18656434 0.0033514553 0.63413751
0.1888034 0.0033515398 0.63415349
0.1910426 0.0033516246 0.63416952
0.1932819 0.0033517093 0.63418555
0.19552131 0.0033517941 0.63420159
0.19776085 0.0033518788 0.63421762
0.20000048 0.0033519634 0.63423365
0.20224024 0.0033520481 0.63424969
0.20448011 0.0033521329 0.63426572
0.20672008 0.0033522176 0.63428175
0.20896019 0.0033523024 0.63429779
0.21120049 0.0033523887 0.63431412
0.21344139 0.0033524826 0.63433188
0.21568194 0.003352569 0.63434821
0.21792257 0.0033526549 0.63436449
0.22016335 0.0033527412 0.63438082
0.22240423 0.0033528276 0.63439715
0.22464521 0.0033529135 0.63441342
0.22688632 0.0033529999 0.63442975
0.22912757 0.0033530865 0.63444614
0.2313689 0.0033531724 0.63446242
0.23361036 0.0033532588 0.63447875
0.23585194 0.0033533452 0.63449508
0.23809363 0.0033534314 0.63451141
0.24033542 0.0033535175 0.63452768
0.24257724 0.0033536025 0.63454378
0.24481924 0.0033536882 0.63455999
0.24706131 0.0033537736 0.63457614
0.24930353 0.0033538593 0.63459235
0.25154588 0.003353945 0.63460857
0.25378829 0.0033540302 0.63462472
0.25603086 0.0033541159 0.63464093
0.25827351 0.0033542016 0.63465714
0.26051632 0.0033542872 0.63467336
0.26275921 0.0033543729 0.63468957
0.26500222 0.0033544584 0.63470572
0.26724535 0.0033545441 0.63472193
0.2694886 0.0033546297 0.63473815
0.16998298 0.0060277651 0.68431741
0.17066689 0.005967374 0.67746133
0.17133625 0.0059081465 0.67073739
0.17199242 0.0058500827 0.66414553
0.17263585 0.0057931496 0.65768206
0.17326687 0.005737314 0.65134317
0.17388584 0.0056825439 0.64512527
0.1744931 0.0056288098 0.63902497
0.17581624 0.0055992431 0.63566834
0.1780605 0.005599387 0.63568467
0.18030506 0.005599536 0.6357016
0.18254931 0.005599672 0.63571703
0.18479387 0.0055998145 0.63573319
0.18703853 0.005599956 0.63574928
0.18928331 0.0056000981 0.63576537
0.19152822 0.0056002401 0.63578153
0.19377321 0.0056003816 0.63579762
0.19601832 0.0056005237 0.63581371
0.19826357 0.0056006657 0.63582987
0.20050891 0.0056008077 0.63584596
0.20275436 0.0056009493 0.63586205
0.20499995 0.0056010918 0.63587821
0.20724563 0.0056012333 0.6358943
0.20949143 0.0056013754 0.63591039
0.2117379 0.0056015318 0.63592815
0.21398415 0.005601679 0.6359449
0.21623039 0.0056018238 0.63596129
0.21847676 0.0056019682 0.63597769
0.22072323 0.0056021125 0.63599408
0.22296982 0.0056022569 0.63601047
0.22521652 0.0056024012 0.63602686
0.22746335 0.0056025456 0.63604325
0.22971028 0.0056026899 0.63605964
0.23195736 0.0056028347 0.63607609
0.23420453 0.0056029791 0.63609248
0.23645182 0.0056031235 0.63610888
0.23869924 0.0056032683 0.63612533
0.24094649 0.0056034066 0.636141
0.24319425 0.0056035542 0.63615775
0.24544193 0.0056036967 0.63617396
0.24768975 0.0056038406 0.6361903
0.24993768 0.005603984 0.63620657
0.25218573 0.0056041274 0.63622284
0.2544339 0.0056042708 0.63623911
0.25668216 0.0056044143 0.63625538
0.25893056 0.0056045577 0.63627172
0.26117909 0.0056047011 0.63628799
0.2634277 0.0056048445 0.63630426
0.26567644 0.005604988 0.63632053
0.26792526 0.0056051314 0.6363368
0.27017424 0.0056052743 0.63635308
0.27242333 0.0056054182 0.63636941
0.16976379 0.0084279897 0.68343496
0.17044885 0.00834365 0.67659581
0.17111951 0.0082609421 0.66988891
0.17177701 0.0081798574 0.66331369
0.17242171 0.0081003485 0.65686625
0.17305401 0.0080223717 0.65054297
0.17367427 0.0079458822 0.64434034
0.17428279 0.0078708353 0.63825476
0.17626417 0.0078589115 0.63728786
0.17851418 0.0078591146 0.63730431
0.18076429 0.0078593167 0.6373207
0.18301447 0.0078595169 0.63733691
0.18526474 0.0078597162 0.63735306
0.18751515 0.0078599164 0.63736933
0.18976566 0.0078601157 0.63738549
0.19201627 0.007860315 0.63740164
0.19426703 0.0078605162 0.63741791
0.19651787 0.0078607146 0.63743407
0.19876882 0.0078609139 0.63745022
0.20101994 0.007861115 0.63746649
0.20327112 0.0078613143 0.63748264
0.20552243 0.0078615136 0.63749886
0.20777386 0.0078617139 0.63751507
0.21002603 0.0078619365 0.63753313
0.21227773 0.0078621376 0.63754946
0.21452965 0.0078623435 0.63756609
0.21678162 0.0078625455 0.63758254
0.21903373 0.0078627495 0.63759905
0.22128594 0.0078629525 0.6376155
0.22353829 0.0078631556 0.63763201
0.22579075 0.0078633595 0.63764852
0.22804332 0.0078635626 0.63766497
0.230296 0.0078637665 0.63768148
0.2325488 0.0078639686 0.63769794
0.23480172 0.0078641726 0.63771445
0.23705477 0.0078643765 0.63773096
0.23930775 0.007864574 0.63774699
0.24156104 0.0078647779 0.63776356
0.24381436 0.00786498 0.63777989
0.24606782 0.0078651821 0.63779628
0.24832138 0.0078653833 0.63781261
0.25057507 0.0078655854 0.63782901
0.25282887 0.0078657875 0.6378454
0.25508279 0.0078659886 0.63786173
0.25733683 0.0078661907 0.63787812
0.25959095 0.0078663919 0.63789445
0.2618452 0.007866594 0.63791078
0.26409957 0.0078667961 0.63792717
0.26635408 0.0078669982 0.63794357
0.26860866 0.0078671994 0.6379599
0.27086338 0.0078674015 0.63797629
0.27311823 0.0078676036 0.63799268
0.16954514 0.010822031 0.68255478
0.17023134 0.010713861 0.67573243
0.17090333 0.010607792 0.66904259
0.17156211 0.010503802 0.66248387
0.17220812 0.010401833 0.65605253
0.17284168 0.010301823 0.64974481
0.1734632 0.010203717 0.64355725
0.17445876 0.010129863 0.63889921
0.17671441 0.010130125 0.63891572
0.17897017 0.010130387 0.63893223
0.18122603 0.010130648 0.63894868
0.18348198 0.010130906 0.63896501
0.18573804 0.010131166 0.63898134
0.18799418 0.010131423 0.63899755
0.19025046 0.010131681 0.63901383
0.19250685 0.01013194 0.63903016
0.19476336 0.010132198 0.63904643
0.19701995 0.010132455 0.63906264
0.1992767 0.010132714 0.63907897
0.20153356 0.010132972 0.63909525
0.20379052 0.01013323 0.63911152
0.20604758 0.010133488 0.63912779
0.20830478 0.010133746 0.63914406
0.21056272 0.010134035 0.6391623
0.21282031 0.0101343 0.63917905
0.21507795 0.010134563 0.63919562
0.21733572 0.010134826 0.63921219
0.21959357 0.010135088 0.6392287
0.22185156 0.010135351 0.63924527
0.22410966 0.010135613 0.63926184
0.22636789 0.010135876 0.63927841
0.22862624 0.010136139 0.63929498
0.2308847 0.010136401 0.63931155
0.23314327 0.010136664 0.63932812
0.23540199 0.010136927 0.63934475
0.23766065 0.010137184 0.6393609
0.23991953 0.010137444 0.63937736
0.24217857 0.010137707 0.63939393
0.24443771 0.01013797 0.63941044
0.2466969 0.010138229 0.63942683
0.24895625 0.01013849 0.63944328
0.25121573 0.010138751 0.63945973
0.25347528 0.010139012 0.63947618
0.25573498 0.010139273 0.63949263
0.2579948 0.010139533 0.63950908
0.26025471 0.010139794 0.63952553
0.26251477 0.010140055 0.63954198
0.26477492 0.010140316 0.63955843
0.26703516 0.010140575 0.63957483
0.26929557 0.010140837 0.63959134
0.27155608 0.010141098 0.63960779
0.27381667 0.010141358 0.63962418
0.16862497 0.013344422 0.68861794
0.16932708 0.013209914 0.68167686
0.17001441 0.013078032 0.67487133
0.17068768 0.012948721 0.66819841
0.17134777 0.012821942 0.6616562
0.17199504 0.01269762 0.65524077
0.17262989 0.012575687 0.64894861
0.17325266 0.012456073 0.64277613
0.17490551 0.01241265 0.6405353
0.17716694 0.012412971 0.64055187
0.17942849 0.012413291 0.64056844
0.18169016 0.012413613 0.64058501
0.18395197 0.012413938 0.64060175
0.18621373 0.01241425 0.64061785
0.18847568 0.012414565 0.64063418
0.19073775 0.012414883 0.64065057
0.19299993 0.0124152 0.6406669
0.19526221 0.012415516 0.64068323
0.19752464 0.012415834 0.64069963
0.19978714 0.01241615 0.64071596
0.20204979 0.012416468 0.64073235
0.20431256 0.012416786 0.64074874
0.20657542 0.012417102 0.64076507
0.2088384 0.012417419 0.6407814
0.2111017 0.012417747 0.64079833
0.2133656 0.012418103 0.64081675
0.21562903 0.012418426 0.64083338
0.2178926 0.012418749 0.64085007
0.22015627 0.012419071 0.6408667
0.22242007 0.012419395 0.64088339
0.22468397 0.012419717 0.64090002
0.22694801 0.012420041 0.64091671
0.22921215 0.012420363 0.64093333
0.23147641 0.012420685 0.64094996
0.23374079 0.012421008 0.64096665
0.23600529 0.01242133 0.64098328
0.23826955 0.012421636 0.64099902
0.24053448 0.012421968 0.64101619
0.24279927 0.012422289 0.6410327
0.24506418 0.012422608 0.64104921
0.24732921 0.012422929 0.64106572
0.24959438 0.012423249 0.64108229
0.25185964 0.012423569 0.6410988
0.254125 0.012423889 0.64111531
0.25639051 0.01242421 0.64113188
0.25865614 0.01242453 0.64114839
0.26092187 0.012424852 0.64116496
0.26318771 0.012425171 0.64118147
0.26545367 0.012425492 0.64119798
0.26771978 0.012425812 0.64121455
0.26998597 0.012426132 0.64123106
0.27225226 0.012426453 0.64124757
0.27451873 0.012426773 0.64126414
0.16840614 0.015750214 0.68772435
0.16910957 0.015591662 0.68080121
0.16979805 0.015436186 0.67401242
0.17047259 0.015283749 0.66735637
0.17113394 0.015134295 0.6608305
0.17178251 0.014987736 0.6544311
0.17241859 0.014843985 0.64815432
0.17308743 0.014706776 0.64216316
0.17535456 0.014707156 0.64217979
0.1776218 0.014707537 0.64219642
0.17988917 0.01470792 0.64221311
0.18215665 0.014708301 0.64222974
0.18442447 0.014708701 0.6422472
0.1866919 0.014709058 0.64226282
0.18895964 0.014709434 0.64227921
0.19122754 0.014709811 0.64229566
0.19349554 0.014710187 0.64231211
0.19576366 0.014710564 0.64232856
0.19803189 0.01471094 0.64234501
0.20030025 0.014711318 0.64236146
0.20256871 0.014711694 0.64237791
0.20483728 0.01471207 0.6423943
0.20710599 0.014712448 0.64241081
0.20937501 0.014712838 0.64242786
0.21164441 0.014713247 0.64244574
0.21391372 0.014713642 0.64246297
0.21618299 0.014714026 0.64247972
0.21845236 0.014714408 0.64249641
0.22072187 0.014714791 0.64251316
0.2229915 0.014715175 0.6425299
0.22526124 0.014715559 0.64254665
0.22753109 0.014715941 0.64256334
0.22980107 0.014716324 0.64258009
0.23207119 0.01471671 0.6425969
0.23434138 0.014717092 0.64261359
0.23661146 0.014717459 0.64262962
0.23888202 0.014717849 0.64264667
0.24115254 0.01471823 0.6426633
0.24342316 0.01471861 0.64267987
0.24569392 0.014718991 0.6426965
0.2479648 0.014719372 0.64271313
0.25023577 0.014719751 0.6427297
0.25250688 0.014720132 0.64274633
0.25477812 0.014720513 0.64276296
0.25704944 0.014720893 0.64277959
0.25932091 0.014721274 0.64279622
0.26159248 0.014721653 0.64281279
0.26386416 0.014722034 0.64282942
0.26613596 0.014722415 0.64284605
0.26840791 0.014722796 0.64286268
0.27067989 0.014723174 0.64287919
0.27295208 0.014723557 0.64289588
0.16746876 0.018335996 0.6938802
0.16818792 0.018149775 0.68683314
0.16889262 0.0179673 0.67992783
0.16958219 0.017788341 0.67315561
0.17025802 0.017612897 0.66651636
0.17092067 0.017440883 0.66000694
0.17157048 0.017272195 0.65362334
0.17220785 0.01710674 0.64736205
0.17353295 0.017013034 0.64381599
0.17580593 0.017013475 0.64383274
0.17807902 0.017013919 0.64384949
0.18035221 0.01701436 0.64386618
0.18262555 0.017014802 0.64388293
0.18489939 0.017015282 0.64390105
0.18717249 0.017015681 0.64391619
0.18944611 0.017016118 0.6439327
0.19171986 0.017016556 0.64394927
0.1939937 0.017016992 0.64396578
0.19626766 0.017017428 0.64398229
0.19854178 0.017017866 0.64399886
0.20081596 0.017018301 0.64401537
0.20309028 0.017018739 0.64403188
0.20536473 0.017019177 0.64404845
0.20763928 0.017019613 0.64406496
0.2099147 0.01702011 0.6440838
0.21218947 0.017020546 0.64410025
0.21446465 0.017021004 0.64411759
0.21673976 0.017021447 0.6441344
