# .PCD v0.7 - Point Cloud Data file format
VERSION 0.7
FIELDS x y z
SIZE 4 4 4
TYPE F F F
COUNT 1 1 1
WIDTH 662
HEIGHT 1
VIEWPOINT 0 0 0 1 0 0 0
POINTS 662
DATA ascii
-0.1014246 -0.49297073 1.3388938
-0.095584236 -0.48724648 1.3233469
-0.091441356 -0.49003187 1.3309119
-0.11086309 -0.48826936 1.3389378
-0.10491293 -0.4825995 1.3233898
-0.099099383 -0.47705981 1.3081988
-0.093417779 -0.47164586 1.2933526
-0.087863684 -0.46635342 1.2788396
-0.084451176 -0.47247007 1.2956128
-0.0814142 -0.48150685 1.3203936
-0.078251459 -0.49085006 1.3460146
-0.12030219 -0.48356763 1.3389816
-0.11424223 -0.47795218 1.3234327
-0.10832141 -0.47246569 1.3082408
-0.10253515 -0.46710455 1.293396
-0.096878752 -0.46186382 1.2788845
-0.092069708 -0.46034855 1.2746888
-0.087618619 -0.46055943 1.2752727
-0.083163425 -0.46077034 1.2758567
-0.078704119 -0.46098125 1.2764407
-0.074741714 -0.4643046 1.285643
-0.07154429 -0.47311547 1.31004
-0.068216465 -0.48221985 1.3352497
-0.12974203 -0.47886601 1.3390267
-0.12357249 -0.47330594 1.3234794
-0.11754458 -0.46787348 1.3082889
-0.11165346 -0.46256432 1.2934432
-0.10589456 -0.45737436 1.2789308
-0.10110373 -0.45609015 1.2753398
-0.096654497 -0.45629916 1.2759242
-0.092201203 -0.45650837 1.2765093
-0.087743811 -0.45671779 1.2770948
-0.083282337 -0.45692742 1.277681
-0.078816697 -0.45713687 1.2782667
-0.074346967 -0.45734647 1.2788528
-0.069873132 -0.45755631 1.2794396
-0.065395191 -0.45776632 1.2800268
-0.061827969 -0.46485472 1.2998477
-0.05834071 -0.47372657 1.3246555
-0.12676844 -0.46328104 1.3083373
-0.12077246 -0.45802385 1.2934906
-0.11491101 -0.45288458 1.278977
-0.11014698 -0.45182741 1.2759914
-0.10569963 -0.45203456 1.2765765
-0.1012482 -0.45224196 1.2771622
-0.096792683 -0.4524495 1.2777483
-0.092333071 -0.45265722 1.278335
-0.087869361 -0.45286518 1.2789222
-0.083401546 -0.45307326 1.2795099
-0.078929603 -0.45328143 1.2800977
-0.074453518 -0.4534896 1.2806857
-0.069973312 -0.45369792 1.281274
-0.065488994 -0.45390645 1.2818629
-0.061000548 -0.45411518 1.2824523
-0.056507971 -0.4543241 1.2830423
-0.052261662 -0.45672148 1.2898127
-0.13416617 -0.46840468 1.3361014
-0.12463166 -0.45093998 1.2862842
-0.11919947 -0.44756028 1.2766438
-0.114754 -0.44776562 1.2772294
-0.11030445 -0.44797114 1.2778157
-0.10585081 -0.44817683 1.2784024
-0.10139307 -0.44838271 1.2789897
-0.096931256 -0.44858882 1.2795776
-0.092465319 -0.44879508 1.2801659
-0.087995276 -0.44900152 1.2807548
-0.08352112 -0.44920817 1.2813443
-0.079042822 -0.44941491 1.281934
-0.074560367 -0.44962162 1.2825236
-0.070073783 -0.44982851 1.2831137
-0.065583073 -0.45003557 1.2837044
-0.061088223 -0.45024282 1.2842956
-0.056589231 -0.45045027 1.2848873
-0.052086089 -0.4506579 1.2854795
-0.047578797 -0.45086572 1.2860724
-0.13266475 -0.45850801 1.3211495
-0.12381766 -0.44349232 1.2778832
-0.11936997 -0.44369593 1.2784698
-0.11491822 -0.44389981 1.2790573
-0.11046237 -0.44410381 1.2796451
-0.10600242 -0.44430801 1.2802335
-0.10153838 -0.44451243 1.2808225
-0.09707021 -0.44471702 1.281412
-0.092597939 -0.44492182 1.2820021
-0.088121548 -0.4451268 1.2825928
-0.08364103 -0.44533196 1.2831839
-0.079156391 -0.44553739 1.2837758
-0.074667536 -0.44574255 1.284367
-0.070174553 -0.44594795 1.2849588
-0.065677427 -0.44615352 1.2855512
-0.061176144 -0.44635928 1.286144
-0.056670714 -0.44656524 1.2867374
-0.05216112 -0.44677135 1.2873313
-0.047647364 -0.44697767 1.2879258
-0.13119657 -0.4488304 1.3065286
-0.12399495 -0.43961844 1.2797129
-0.11954097 -0.43982053 1.2803012
-0.1150829 -0.44002286 1.2808901
-0.11062074 -0.44022539 1.2814797
-0.10615447 -0.44042814 1.2820699
-0.10168409 -0.44063106 1.2826606
-0.09720958 -0.44083413 1.2832518
-0.092730947 -0.44103742 1.2838435
-0.088248186 -0.44124091 1.2844359
-0.083761282 -0.44144461 1.2850288
-0.079270184 -0.44164819 1.2856214
-0.07477501 -0.44185233 1.2862157
-0.070275597 -0.44205618 1.2868091
-0.065772034 -0.44226024 1.2874031
-0.061264317 -0.4424645 1.2879977
-0.056752428 -0.44266894 1.2885928
-0.052236371 -0.44287357 1.2891885
-0.047716103 -0.4430781 1.2897838
-0.043191742 -0.44328368 1.2903823
-0.1395404 -0.45646268 1.3425152
-0.12976395 -0.43937615 1.2922616
-0.12417274 -0.43573344 1.2815479
-0.11971246 -0.43593407 1.282138
-0.11524808 -0.43613487 1.2827286
-0.11077957 -0.43633586 1.2833197
-0.10630696 -0.43653712 1.2839116
-0.10183022 -0.43673852 1.2845039
-0.097349353 -0.4369401 1.2850969
-0.092864335 -0.4371419 1.2856903
-0.088375181 -0.43734387 1.2862843
-0.08388187 -0.43754598 1.2868788
-0.079384409 -0.43774831 1.2874739
-0.07488279 -0.43795085 1.2880696
-0.070376948 -0.43815324 1.2886648
-0.065866932 -0.4383558 1.2892606
-0.061352752 -0.43855855 1.2898569
-0.056834389 -0.4387615 1.2904538
-0.052311845 -0.43896461 1.2910511
-0.04778507 -0.43916753 1.291648
-0.0432542 -0.43937162 1.2922482
-0.13797145 -0.44665334 1.3274204
-0.12881353 -0.43163833 1.2827969
-0.12435105 -0.43183726 1.2833881
-0.11988445 -0.4320364 1.2839799
-0.11541373 -0.43223572 1.2845722
-0.11093877 -0.43243483 1.285164
-0.10645989 -0.43263486 1.2857585
-0.10197678 -0.43283477 1.2863526
-0.097489513 -0.43303481 1.2869471
-0.092998117 -0.43323514 1.2875425
-0.088502549 -0.43343556 1.2881382
-0.084002823 -0.43363622 1.2887344
-0.079498932 -0.433837 1.2893312
-0.074990891 -0.43403816 1.289929
-0.070478581 -0.434239 1.2905259
-0.065962099 -0.43444005 1.2911234
-0.061441433 -0.43464124 1.2917213
-0.056916576 -0.43484265 1.2923199
-0.052387528 -0.43504426 1.292919
-0.047854237 -0.43524569 1.2935177
-0.043316837 -0.43544823 1.2941196
-0.038775191 -0.43565068 1.2947212
-0.13644175 -0.43707615 1.3127033
-0.12899868 -0.42773247 1.2846407
-0.12452986 -0.42792988 1.2852336
-0.12005692 -0.42812753 1.2858272
-0.11557984 -0.4283253 1.2864212
-0.11109862 -0.42852327 1.2870158
-0.10661326 -0.42872137 1.2876108
-0.10212375 -0.42891976 1.2882066
-0.097630091 -0.42911831 1.2888029
-0.093132265 -0.42931703 1.2893997
-0.088630289 -0.42951602 1.2899973
-0.084124118 -0.4297151 1.2905953
-0.079613775 -0.42991439 1.2911938
-0.07509926 -0.43011394 1.2917931
-0.070580505 -0.43031341 1.2923923
-0.06605754 -0.43051293 1.2929915
-0.061530378 -0.43071264 1.2935913
-0.056999013 -0.43091252 1.2941916
-0.052463435 -0.43111259 1.2947924
-0.047923617 -0.43131253 1.295393
-0.043379661 -0.43151346 1.2959964
-0.038831454 -0.43171439 1.2965999
-0.144967 -0.44440705 1.3489958
-0.13494591 -0.42770991 1.2983117
-0.12918437 -0.42381537 1.2864898
-0.1247092 -0.42401126 1.2870845
-0.12022989 -0.42420736 1.2876797
-0.11574645 -0.42440364 1.2882755
-0.11125884 -0.42460006 1.2888718
-0.10676698 -0.42479631 1.2894675
-0.10227116 -0.42499349 1.290066
-0.097771071 -0.42519048 1.290664
-0.093266822 -0.42538771 1.2912626
-0.088758387 -0.42558509 1.2918618
-0.084245764 -0.42578265 1.2924615
-0.079728954 -0.42598042 1.2930619
-0.075207897 -0.42617807 1.2936618
-0.070682734 -0.42637649 1.2942641
-0.066153258 -0.42657444 1.294865
-0.061619576 -0.42677262 1.2954665
-0.057081681 -0.42697099 1.2960687
-0.052539565 -0.4271695 1.2966713
-0.047993183 -0.42736787 1.2972734
-0.043442667 -0.42756727 1.2978787
-0.038887873 -0.42776662 1.2984838
-0.14333425 -0.43470228 1.3338022
-0.13384798 -0.41969281 1.2877486
-0.12937059 -0.41988701 1.2883444
-0.12488906 -0.42008138 1.2889408
-0.12040337 -0.42027593 1.2895377
-0.11591353 -0.42047063 1.2901351
-0.11141951 -0.42066553 1.2907331
-0.10692134 -0.42086059 1.2913316
-0.10241886 -0.42105532 1.2919291
-0.097912461 -0.4212513 1.2925304
-0.093401752 -0.42144695 1.2931308
-0.088886857 -0.42164278 1.2937317
-0.08436776 -0.42183879 1.2943331
-0.07984446 -0.42203501 1.2949351
-0.075316951 -0.42223141 1.2955377
-0.070785254 -0.42242813 1.2961414
-0.066249251 -0.42262453 1.296744
-0.061709035 -0.42282116 1.2973473
-0.057164587 -0.42301795 1.2979511
-0.052615911 -0.42321494 1.2985555
-0.048062962 -0.42341179 1.2991595
-0.043505851 -0.42360958 1.2997664
-0.03894446 -0.42380738 1.3003733
-0.034378815 -0.42400536 1.3009808
-0.14173786 -0.42521358 1.3189468
-0.13404112 -0.41575465 1.2896067
-0.12955734 -0.41594726 1.2902042
-0.12506942 -0.41614008 1.2908022
-0.12057734 -0.41633308 1.2914009
-0.1160811 -0.41652629 1.2920002
-0.11158066 -0.41671962 1.2925999
-0.10707605 -0.41691312 1.2932001
-0.10256726 -0.41710687 1.2938011
-0.09805426 -0.41730067 1.2944022
-0.093537085 -0.4174948 1.2950044
-0.0890157 -0.41768906 1.295607
-0.084490113 -0.41788352 1.2962102
-0.079960309 -0.41807818 1.296814
-0.075426288 -0.41827303 1.2974184
-0.070888072 -0.4184683 1.2980241
-0.066345535 -0.4186632 1.2986286
-0.061798755 -0.41885823 1.2992336
-0.057247743 -0.41905347 1.2998391
-0.052692484 -0.41924888 1.3004453
-0.048132934 -0.41944411 1.3010509
-0.043569218 -0.41964036 1.3016596
-0.039001215 -0.41983664 1.3022684
-0.034428935 -0.42003301 1.3028775
-0.1342348 -0.41180506 1.2914702
-0.12974465 -0.41199616 1.2920694
-0.12525031 -0.4121874 1.2926692
-0.12075181 -0.41237882 1.2932695
-0.11624913 -0.41257045 1.2938704
-0.11174227 -0.41276225 1.294472
-0.1072312 -0.41295421 1.295074
-0.10271595 -0.41314635 1.2956766
-0.098196402 -0.41333836 1.2962787
-0.093672805 -0.41353115 1.2968833
-0.089144923 -0.41372386 1.2974877
-0.084612831 -0.41391683 1.2980928
-0.080076493 -0.41410989 1.2986983
-0.075535931 -0.41430312 1.2993044
-0.070991121 -0.41449654 1.2999109
-0.066442087 -0.41469029 1.3005185
-0.061888736 -0.41488376 1.3011253
-0.057331137 -0.41507742 1.3017327
-0.052769274 -0.41527125 1.3023405
-0.048203118 -0.41546497 1.302948
-0.043632776 -0.41565961 1.3035585
-0.039058138 -0.41585428 1.3041689
-0.034479205 -0.41604909 1.3047799
-0.029895984 -0.41624409 1.3053914
-0.13442907 -0.4078441 1.2933391
-0.12993249 -0.40803361 1.2939401
-0.12543173 -0.4082233 1.2945416
-0.12092679 -0.40841314 1.2951436
-0.11641767 -0.40860319 1.2957463
-0.11190434 -0.40879342 1.2963495
-0.10738681 -0.4089838 1.2969533
-0.10286507 -0.40917441 1.2975577
-0.098339111 -0.40936515 1.2981626
-0.0938088 -0.40955549 1.2987663
-0.089274518 -0.40974715 1.299374
-0.084735885 -0.40993848 1.2999808
-0.08019302 -0.41013002 1.3005881
-0.075645901 -0.41032168 1.301196
-0.071094453 -0.41051316 1.3018031
-0.066538922 -0.41070578 1.3024139
-0.061978981 -0.41089767 1.3030225
-0.057414774 -0.41108978 1.3036317
-0.052846294 -0.411282 1.3042413
-0.048273504 -0.41147414 1.3048506
-0.043696515 -0.41166717 1.3054627
-0.03911522 -0.41186026 1.306075
-0.034529623 -0.4120535 1.3066878
-0.029939722 -0.41224694 1.3073013
-0.13012089 -0.40405962 1.2958163
-0.12561367 -0.40424767 1.2964194
-0.12110229 -0.40443593 1.2970232
-0.1165867 -0.40462443 1.2976277
-0.11206689 -0.40481305 1.2982326
-0.10754287 -0.40500188 1.2988381
-0.10301463 -0.40519086 1.2994442
-0.098482162 -0.40538007 1.300051
-0.093945384 -0.40556908 1.3006572
-0.089404464 -0.40575874 1.3012654
-0.084859312 -0.40594861 1.3018743
-0.080309875 -0.40613851 1.3024833
-0.075756185 -0.40632862 1.303093
-0.071198225 -0.40651891 1.3037032
-0.066636048 -0.40670967 1.304315
-0.062069487 -0.40689999 1.3049253
-0.057498656 -0.40709049 1.3055363
-0.052923538 -0.40728113 1.3061477
-0.048344098 -0.40747169 1.3067588
-0.043760449 -0.40766311 1.3073727
-0.039172471 -0.40785456 1.3079866
-0.034580186 -0.40804622 1.3086013
-0.029983586 -0.40823805 1.3092165
-0.025382658 -0.40843004 1.3098322
-0.13030982 -0.40007401 1.2976978
-0.12579618 -0.40026057 1.2983029
-0.12127827 -0.40044713 1.298908
-0.11675621 -0.40063405 1.2995143
-0.11222991 -0.40082112 1.3001211
-0.10769938 -0.40100831 1.3007283
-0.10316463 -0.40119579 1.3013364
-0.09862563 -0.40138337 1.3019449
-0.09408237 -0.40157109 1.3025538
-0.089534715 -0.40175834 1.3031611
-0.084983103 -0.40194711 1.3037734
-0.08042708 -0.40213543 1.3043842
-0.075866789 -0.40232387 1.3049955
-0.071302228 -0.40251258 1.3056076
-0.066733256 -0.40270066 1.3062177
-0.062160265 -0.40289059 1.3068337
-0.057582781 -0.40307945 1.3074464
-0.053001005 -0.40326852 1.3080596
-0.04841489 -0.4034574 1.3086723
-0.043824561 -0.40364727 1.3092881
-0.039229892 -0.40383714 1.309904
-0.034630902 -0.40402716 1.3105204
-0.030027576 -0.40421736 1.3111373
-0.025419915 -0.40440774 1.3117548
-0.1259792 -0.39626184 1.3001918
-0.12145483 -0.39644691 1.300799
-0.1169262 -0.39663202 1.3014064
-0.1123934 -0.39681754 1.3020151
-0.10785636 -0.39700317 1.3026242
-0.10331506 -0.39718899 1.3032339
-0.098769501 -0.39737496 1.3038441
-0.094219692 -0.39756113 1.3044549
-0.089665607 -0.39774743 1.3050662
-0.085107155 -0.39793345 1.3056766
-0.080544628 -0.39812061 1.3062906
-0.07597772 -0.39830744 1.3069037
-0.071406536 -0.39849454 1.3075175
-0.066830985 -0.39868137 1.3081306
-0.0622513 -0.39886943 1.3087476
-0.057667151 -0.39905667 1.3093621
-0.053078659 -0.39924383 1.3099761
-0.048485897 -0.39943144 1.3105917
-0.043888863 -0.39961964 1.3112092
-0.039287478 -0.39980787 1.3118268
-0.03468176 -0.39999628 1.312445
-0.030071696 -0.4001849 1.3130639
-0.025457285 -0.40037367 1.3136833
-0.12616274 -0.3922514 1.302086
-0.12163188 -0.39243492 1.3026952
-0.11709678 -0.3926186 1.3033049
-0.11255743 -0.39280248 1.3039153
-0.10801379 -0.39298636 1.3045256
-0.10346593 -0.39317054 1.305137
-0.098913796 -0.39335486 1.3057489
-0.094357401 -0.39353943 1.3063616
-0.089796737 -0.39372414 1.3069748
-0.085231565 -0.39390805 1.3075852
-0.08066234 -0.39409313 1.3081996
-0.07608898 -0.39427927 1.3088175
-0.071511149 -0.39446473 1.3094331
-0.066928938 -0.39464995 1.310048
-0.062342603 -0.39483649 1.3106672
-0.057751775 -0.39502212 1.3112835
-0.053156503 -0.39520705 1.3118973
-0.04855711 -0.39539361 1.3125166
-0.043953355 -0.3955802 1.313136
-0.039345238 -0.39576679 1.3137554
-0.03473277 -0.39595357 1.3143754
-0.030115949 -0.39614058 1.3149961
-0.025494765 -0.3963277 1.3156173
-0.020869212 -0.39651501 1.3162391
-0.12634681 -0.38822928 1.3039857
-0.12180942 -0.38841116 1.3045967
-0.11726778 -0.38859323 1.3052082
-0.1127219 -0.38877553 1.3058205
-0.10817175 -0.38895801 1.3064334
-0.10361719 -0.38914013 1.3070451
-0.099058531 -0.38932306 1.3076595
-0.094495535 -0.38950598 1.3082739
-0.08992824 -0.38968903 1.3088888
-0.08535666 -0.38987231 1.3095044
-0.080780566 -0.39005473 1.3101171
-0.07620056 -0.39023924 1.3107368
-0.071616068 -0.39042309 1.3113543
-0.067027241 -0.39060703 1.3119721
-0.062433999 -0.39079058 1.3125887
-0.057836641 -0.39097568 1.3132104
-0.053234603 -0.39115861 1.3138248
-0.048628539 -0.39134395 1.3144473
-0.044018038 -0.39152884 1.3150684
-0.039403167 -0.39171383 1.3156897
-0.034783933 -0.39189899 1.3163116
-0.03016033 -0.3920843 1.316934
-0.025532352 -0.39226979 1.317557
-0.020899996 -0.39245546 1.3181807
-0.12198748 -0.38437566 1.3065038
-0.1174393 -0.38455614 1.3071172
-0.11288683 -0.38473675 1.3077312
-0.10833009 -0.38491756 1.3083457
-0.10376906 -0.38509852 1.3089608
-0.099203527 -0.38527882 1.3095737
-0.094634049 -0.38546064 1.3101916
-0.090060137 -0.38564214 1.3108085
-0.085481904 -0.38582373 1.3114258
-0.080899365 -0.38600555 1.3120438
-0.076312408 -0.38618705 1.3126607
-0.071721286 -0.38636953 1.3132809
-0.067125767 -0.38655186 1.3139007
-0.062525906 -0.38673434 1.314521
-0.05792176 -0.38691735 1.3151431
-0.053313039 -0.38709903 1.3157606
-0.048700176 -0.38728234 1.3163837
-0.04408291 -0.38746557 1.3170065
-0.039461266 -0.38764891 1.3176297
-0.034835245 -0.38783243 1.3182534
-0.030204842 -0.38801605 1.3188776
-0.025570054 -0.3881999 1.3195025
-0.02093087 -0.38838392 1.320128
-0.016287286 -0.3885681 1.3207541
-0.12216607 -0.38032833 1.3084165
-0.11761131 -0.38050717 1.3090317
-0.11305225 -0.38068616 1.3096474
-0.1084889 -0.38086531 1.3102638
-0.10392126 -0.38104463 1.3108807
-0.099349312 -0.38122413 1.3114982
-0.094772987 -0.38140348 1.3121152
-0.090192407 -0.38158324 1.3127337
-0.085607514 -0.38176322 1.3133528
-0.081018291 -0.38194337 1.3139726
-0.076424614 -0.38212308 1.3145908
-0.071826585 -0.38230279 1.315209
-0.067224599 -0.38248476 1.3158351
-0.062617928 -0.3826651 1.3164555
-0.058007136 -0.3828471 1.3170816
-0.053391717 -0.38302752 1.3177023
-0.048772018 -0.38320872 1.3183256
-0.044147976 -0.38339034 1.3189504
-0.039519537 -0.38357198 1.3195753
-0.034886707 -0.38375378 1.3202008
-0.030249486 -0.38393578 1.3208269
-0.025607865 -0.38411796 1.3214537
-0.020961836 -0.38430032 1.322081
-0.016311394 -0.38448286 1.322709
-0.11778382 -0.37644634 1.3109518
-0.11321815 -0.37662366 1.3115693
-0.1086482 -0.37680119 1.3121876
-0.10407391 -0.37697884 1.3128062
-0.099495322 -0.37715667 1.3134255
-0.094912395 -0.37733465 1.3140453
-0.090325154 -0.37751281 1.3146658
-0.085733436 -0.37769055 1.3152847
-0.081137583 -0.37786931 1.3159072
-0.076537319 -0.37804797 1.3165294
-0.071932539 -0.37822592 1.3171492
-0.067323707 -0.37840569 1.3177751
-0.06271033 -0.37858456 1.3183981
-0.058092672 -0.37876421 1.3190237
-0.053470612 -0.37894392 1.3196495
-0.048844077 -0.37912306 1.3202734
-0.044213232 -0.37930301 1.3209
-0.039577976 -0.37948295 1.3215266
-0.034938324 -0.37966311 1.322154
-0.030294266 -0.37984347 1.3227822
-0.025645791 -0.38002399 1.3234107
-0.020992894 -0.38020462 1.3240398
-0.016335571 -0.38038546 1.3246696
-0.011673819 -0.38056651 1.3253001
-0.11795684 -0.37237355 1.3128775
-0.11338455 -0.37254924 1.3134969
-0.10880794 -0.37272507 1.3141168
-0.10422701 -0.37290108 1.3147374
-0.099641755 -0.37307727 1.3153586
-0.095052153 -0.37325355 1.3159802
-0.090458222 -0.3734301 1.3166026
-0.085859939 -0.37360677 1.3172255
-0.081257023 -0.37378231 1.3178444
-0.076650232 -0.37396023 1.3184717
-0.072038695 -0.37413645 1.319093
-0.067423075 -0.37431431 1.31972
-0.062803015 -0.37449205 1.3203467
-0.058178447 -0.37466919 1.3209713
-0.053549673 -0.37484771 1.3216007
-0.048916347 -0.37502533 1.3222269
-0.044278678 -0.37520355 1.3228552
-0.03963659 -0.37538183 1.3234838
-0.034990095 -0.37556037 1.3241132
-0.030339135 -0.3757385 1.3247414
-0.025683809 -0.37591758 1.3253727
-0.021024033 -0.37609661 1.3260039
-0.016359817 -0.37627578 1.3266356
-0.11355143 -0.3684628 1.3154302
-0.10896816 -0.36863697 1.316052
-0.10438056 -0.36881131 1.3166744
-0.099788606 -0.3689858 1.3172972
-0.095192321 -0.36916044 1.3179208
-0.090591677 -0.36933529 1.318545
-0.085986674 -0.36951029 1.3191698
-0.08137735 -0.36968568 1.3197958
-0.076763362 -0.36985984 1.3204176
-0.07214535 -0.37003583 1.3210459
-0.067522749 -0.37021095 1.3216711
-0.044344261 -0.37109146 1.3248146
-0.039695349 -0.37126827 1.3254458
-0.035042021 -0.37144545 1.3260783
-0.03038419 -0.37162203 1.3267087
-0.025721936 -0.3717989 1.3273401
-0.021055268 -0.37197641 1.3279738
-0.016384142 -0.37215409 1.3286082
-0.11371881 -0.36436433 1.3173691
-0.10912886 -0.36453685 1.3179928
-0.10453457 -0.3647095 1.318617
-0.099935912 -0.36488229 1.3192418
-0.095332898 -0.36505526 1.3198671
-0.090725526 -0.36522838 1.3204931
-0.086113773 -0.36540169 1.3211197
-0.081497647 -0.36557516 1.3217468
-0.076877154 -0.36574888 1.3223749
-0.072252162 -0.36592224 1.3230017
-0.04541323 -0.37525669 1.3567507
-0.039754301 -0.36714268 1.3274143
-0.035094012 -0.36731732 1.3280457
-0.030429335 -0.36749274 1.3286799
-0.025760202 -0.36766833 1.3293148
-0.021086607 -0.36784413 1.3299505
-0.10929003 -0.36042458 1.3199393
-0.10468902 -0.36059549 1.3205652
-0.10008364 -0.36076662 1.3211919
-0.095473893 -0.36093789 1.3218192
-0.090859771 -0.36110935 1.3224471
-0.086241253 -0.36128092 1.3230754
-0.081618354 -0.3614527 1.3237045
-0.076991051 -0.36162463 1.3243341
-0.072359346 -0.36179674 1.3249644
-0.045451008 -0.37078452 1.3578793
-0.03981337 -0.36300427 1.3293866
-0.035146244 -0.36317787 1.3300223
-0.03047465 -0.36335158 1.3306586
-0.025798585 -0.36352551 1.3312955
-0.021118039 -0.36369956 1.3319329
-0.10945167 -0.35630015 1.3218915
-0.10484392 -0.35646933 1.3225193
-0.10023181 -0.35663879 1.3231479
-0.095615305 -0.35680833 1.323777
-0.09099441 -0.35697809 1.3244067
-0.086369112 -0.35714796 1.325037
-0.081739418 -0.35731804 1.325668
-0.077105314 -0.35748827 1.3262995
-0.072466709 -0.35765827 1.3269303
-0.045248047 -0.36436585 1.3518157
-0.039872717 -0.35885447 1.3313682
-0.035198636 -0.3590261 1.332005
-0.0305201 -0.35919812 1.3326432
-0.025837079 -0.35937026 1.3332819
-0.021149568 -0.35954267 1.3339214
-0.10499931 -0.35233101 1.3244793
-0.10038043 -0.35249871 1.3251097
-0.095757142 -0.35266656 1.3257407
-0.091129459 -0.35283455 1.3263723
-0.086497359 -0.35300273 1.3270044
-0.081860803 -0.3531709 1.3276366
-0.077219792 -0.35333905 1.3282688
-0.072574325 -0.35350719 1.3289008
-0.06982854 -0.36358997 1.3668039
-0.050299395 -0.3616766 1.3596112
-0.044930335 -0.35707793 1.3423239
-0.039932162 -0.35469154 1.333353
-0.0352512 -0.35486209 1.3339942
-0.030565688 -0.35503224 1.3346337
-0.025875689 -0.35520265 1.3352743
-0.10515514 -0.34818035 1.326445
-0.10052947 -0.34834632 1.3270773
-0.095899396 -0.34851244 1.3277102
-0.091264904 -0.34867871 1.3283436
-0.086625941 -0.34884501 1.3289771
-0.081982382 -0.34901074 1.3296084
-0.077334769 -0.34917819 1.3302464
-0.07268247 -0.34934479 1.3308811
-0.068025842 -0.3495121 1.3315185
-0.064320967 -0.35495645 1.3522595
-0.059751879 -0.35612118 1.3566968
-0.05483488 -0.35523465 1.3533194
-0.049740005 -0.35291716 1.3444906
-0.044675425 -0.35034937 1.3347082
-0.039991874 -0.35051703 1.3353469
-0.03530388 -0.35068518 1.3359876
-0.030611413 -0.35085389 1.3366302
-0.025914418 -0.35102257 1.3372729
-0.10067897 -0.34418157 1.3290507
-0.096042067 -0.34434596 1.3296854
-0.091400608 -0.34450999 1.3303188
-0.086754911 -0.34467492 1.3309557
-0.082104668 -0.3448396 1.3315916
-0.077449977 -0.34500444 1.3322282
-0.072790839 -0.34516945 1.3328654
-0.068127237 -0.34533462 1.3335031
-0.06345915 -0.34549984 1.3341411
-0.058786608 -0.34566525 1.3347799
-0.05410967 -0.34583136 1.3354213
-0.049428247 -0.34599772 1.3360637
-0.044742271 -0.34616387 1.3367053
-0.040051829 -0.34633052 1.3373488
-0.035356767 -0.34649631 1.337989
-0.030657286 -0.34666318 1.3386333
-0.025953257 -0.34682989 1.3392771
-0.1008289 -0.34000444 1.33103
-0.096185133 -0.34016693 1.3316661
-0.091536917 -0.34032956 1.3323028
-0.086884253 -0.34049234 1.33294
-0.082227141 -0.3406553 1.333578
-0.077565558 -0.34081838 1.3342164
-0.07289952 -0.34098163 1.3348554
-0.068229005 -0.34114504 1.3354951
-0.063554034 -0.34130871 1.3361359
-0.058874562 -0.34147248 1.336777
-0.054190632 -0.3416366 1.3374195
-0.049502216 -0.34180102 1.3380631
-0.044809263 -0.34196541 1.3387067
-0.040111788 -0.34212995 1.3393508
-0.035409793 -0.34229466 1.3399956
-0.030703267 -0.34245953 1.340641
-0.091673531 -0.33613628 1.3342912
-0.08701399 -0.33629733 1.3349304
-0.082349978 -0.3364585 1.3355702
-0.077681489 -0.33661979 1.3362105
-0.07300853 -0.33678126 1.3368515
-0.068331085 -0.33694294 1.3374932
-0.063649178 -0.33710492 1.3381362
-0.058962688 -0.33726659 1.3387779
-0.05427184 -0.33742926 1.3394237
-0.049576409 -0.33759174 1.3400686
-0.044876449 -0.33775431 1.340714
-0.040171962 -0.33791709 1.3413601
-0.077797771 -0.33240864 1.3382106
-0.073117867 -0.33256838 1.3388536
-0.068433464 -0.33272821 1.3394971
-0.06374453 -0.33288813 1.3401408
-0.059051171 -0.33304861 1.3407869
-0.054353263 -0.33320913 1.3414332
-0.049650818 -0.33336976 1.3420799
-0.063840248 -0.32865906 1.3421531
