# .PCD v0.7 - Point Cloud Data file format
VERSION 0.7
FIELDS x y z
SIZE 4 4 4
TYPE F F F
COUNT 1 1 1
WIDTH 1359
HEIGHT 1
VIEWPOINT 0 0 0 1 0 0 0
POINTS 1359
DATA ascii
-0.20035875 -0.018437922 0.69773734
-0.19919096 -0.018558163 0.70228761
-0.27121481 -0.014876761 0.64958549
-0.26865292 -0.014861651 0.64892566
-0.26609623 -0.014846571 0.64826721
-0.26354468 -0.01483152 0.64761001
-0.26099834 -0.014816499 0.64695418
-0.25845715 -0.014801512 0.64629972
-0.2559211 -0.014786553 0.64564657
-0.25339016 -0.014771624 0.64499474
-0.25086436 -0.014756726 0.64434421
-0.24834359 -0.014741857 0.64369494
-0.24582794 -0.01472702 0.64304709
-0.24345508 -0.01472054 0.64276415
-0.24159373 -0.014745157 0.64383906
-0.23972619 -0.01476986 0.64491767
-0.23785236 -0.014794645 0.64599991
-0.23597226 -0.014819514 0.64708579
-0.2340858 -0.014844466 0.6481753
-0.23219302 -0.014869504 0.64926857
-0.23029381 -0.014894625 0.65036547
-0.22838819 -0.014919832 0.65146613
-0.2264761 -0.014945124 0.65257049
-0.22455752 -0.014970502 0.6536786
-0.22263241 -0.014995965 0.65479046
-0.22070073 -0.015021515 0.65590608
-0.21876249 -0.015047155 0.65702564
-0.2168176 -0.015072881 0.65814894
-0.21486604 -0.015098695 0.65927607
-0.21290779 -0.015124597 0.66040707
-0.21094279 -0.015150587 0.66154194
-0.20897105 -0.015176669 0.66268075
-0.20787428 -0.015267603 0.66665137
-0.20680568 -0.015362707 0.67080402
-0.20572364 -0.015459003 0.67500871
-0.20462798 -0.015556513 0.67926645
-0.20351841 -0.015655262 0.68357825
-0.20239466 -0.015755273 0.68794519
-0.20125645 -0.015856568 0.69236821
-0.20010352 -0.015959175 0.69684851
-0.19893557 -0.01606312 0.70138717
-0.28153908 -0.012640531 0.65229475
-0.278956 -0.012627638 0.65162945
-0.27637815 -0.012614771 0.65096545
-0.27380556 -0.01260193 0.65030283
-0.27123824 -0.012589116 0.64964157
-0.26867607 -0.012576328 0.64898163
-0.26611912 -0.012563564 0.648323
-0.26356739 -0.012550828 0.6476658
-0.26102081 -0.012538117 0.64700985
-0.25847939 -0.012525432 0.64635527
-0.25594306 -0.012512771 0.64570194
-0.25341189 -0.012500138 0.64504999
-0.25088581 -0.012487529 0.64439934
-0.24836484 -0.012474946 0.64375001
-0.24584895 -0.01246239 0.64310205
-0.24335892 -0.012450922 0.64251029
-0.24149816 -0.012471736 0.64358437
-0.23963116 -0.012492619 0.64466202
-0.23775794 -0.012513575 0.64574343
-0.23587839 -0.012534601 0.64682841
-0.23399258 -0.012555699 0.64791715
-0.23210035 -0.012576867 0.64900947
-0.23020177 -0.012598107 0.65010554
-0.22829674 -0.012619417 0.65120524
-0.22638528 -0.012640802 0.65230876
-0.22446731 -0.012662258 0.65341598
-0.22254282 -0.012683787 0.65452695
-0.22061178 -0.01270539 0.65564173
-0.21867414 -0.012727066 0.65676028
-0.21672989 -0.012748817 0.65788269
-0.21477897 -0.012770642 0.65900892
-0.21282136 -0.012792542 0.66013902
-0.21085702 -0.012814515 0.66127294
-0.20888595 -0.012836567 0.66241091
-0.20762128 -0.012903018 0.66583997
-0.20655236 -0.012983291 0.66998237
-0.20547009 -0.013064573 0.67417675
-0.20437419 -0.013146878 0.678424
-0.20326439 -0.013230226 0.68272507
-0.20214042 -0.013314638 0.68708104
-0.20100203 -0.013400136 0.69149297
-0.19984892 -0.013486736 0.69596189
-0.19868079 -0.013574464 0.70048892
-0.29105699 -0.010520132 0.66351378
-0.28415215 -0.010353723 0.65301818
-0.28156352 -0.010343149 0.65235132
-0.27898017 -0.010332599 0.65168589
-0.27640209 -0.010322069 0.65102178
-0.27382925 -0.010311562 0.65035903
-0.27126163 -0.010301075 0.64969766
-0.26869926 -0.01029061 0.6490376
-0.26614204 -0.010280165 0.64837885
-0.26359007 -0.010269743 0.64772153
-0.26104322 -0.010259341 0.64706546
-0.25850159 -0.010248962 0.64641082
-0.25596502 -0.010238601 0.64575738
-0.25343361 -0.010228262 0.6451053
-0.25090733 -0.010217945 0.6444546
-0.24838609 -0.010207647 0.64380509
-0.24586996 -0.010197372 0.64315701
-0.24335888 -0.010187116 0.64251018
-0.24140266 -0.010200112 0.64332986
-0.23953624 -0.010217185 0.64440668
-0.23766357 -0.010234316 0.64548713
-0.23578465 -0.010251506 0.64657134
-0.23389938 -0.010268753 0.64765912
-0.23200779 -0.010286059 0.6487506
-0.2301098 -0.010303424 0.64984578
-0.22820535 -0.010320845 0.65094459
-0.2262945 -0.010338328 0.65204722
-0.22437717 -0.010355869 0.6531536
-0.2224533 -0.01037347 0.65426368
-0.22052287 -0.01039113 0.65537751
-0.21858586 -0.01040885 0.65649515
-0.21664225 -0.010426632 0.65761667
-0.21469198 -0.010444474 0.65874201
-0.21273501 -0.010462378 0.65987116
-0.21077134 -0.010480343 0.66100425
-0.20880091 -0.01049837 0.6621412
-0.20736888 -0.010544181 0.66503054
-0.20629971 -0.010609699 0.66916287
-0.20521717 -0.010676038 0.67334688
-0.20412104 -0.010743212 0.67758363
-0.20301101 -0.010811238 0.68187404
-0.20188683 -0.010880129 0.6862191
-0.20074826 -0.010949905 0.69061995
-0.19959497 -0.011020581 0.69507754
-0.19842669 -0.011092176 0.69959307
-0.29215026 -0.00821306 0.66600609
-0.28417683 -0.0080535943 0.65307486
-0.28158793 -0.0080453688 0.65240788
-0.27900434 -0.008037162 0.65174234
-0.27642602 -0.008028971 0.65107816
-0.27385291 -0.0080207959 0.65041524
-0.27128509 -0.0080126394 0.64975381
-0.26872244 -0.0080044987 0.64909363
-0.26616499 -0.0079963738 0.64843476
-0.26361278 -0.0079882657 0.64777732
-0.26106569 -0.0079801744 0.64712113
-0.25852379 -0.0079720989 0.64646631
-0.25598699 -0.0079640402 0.64581281
-0.25345534 -0.0079559973 0.64516062
-0.25092882 -0.0079479711 0.64450979
-0.24840735 -0.0079399608 0.64386022
-0.24589099 -0.0079319673 0.64321202
-0.24337965 -0.0079239886 0.64256501
-0.24130724 -0.0079302853 0.64307559
-0.23944141 -0.0079435539 0.64415157
-0.23756929 -0.0079568662 0.64523107
-0.23569095 -0.0079702251 0.64631438
-0.23380628 -0.0079836296 0.64740133
-0.23191527 -0.0079970779 0.64849192
-0.23001787 -0.0080105728 0.6495862
-0.22811407 -0.0080241133 0.65068418
-0.22620381 -0.0080376994 0.65178591
-0.22428708 -0.0080513312 0.65289134
-0.22236384 -0.0080650104 0.65400058
-0.22043404 -0.0080787344 0.65511352
-0.21849766 -0.0080925059 0.65623027
-0.21655467 -0.0081063248 0.65735084
-0.21460508 -0.0081201922 0.65847534
-0.21264875 -0.0081341052 0.6596036
-0.21068572 -0.0081480667 0.66073573
-0.20871593 -0.0081620757 0.66187173
-0.20711711 -0.0081910715 0.66422307
-0.20604767 -0.0082419068 0.66834533
-0.20496488 -0.0082933763 0.67251909
-0.20386851 -0.008345494 0.67674536
-0.20275828 -0.0083982721 0.68102515
-0.2016339 -0.0084517207 0.68535936
-0.20049514 -0.0085058538 0.68974912
-0.1993417 -0.0085606864 0.69419551
-0.19817325 -0.0086162286 0.69869947
-0.19698958 -0.0086724972 0.70326239
-0.29325181 -0.0058885906 0.66851723
-0.28470847 -0.0057633291 0.65429664
-0.28161237 -0.0057471911 0.65246451
-0.27902851 -0.0057413271 0.65179878
-0.27644992 -0.0057354756 0.65113449
-0.27387661 -0.0057296357 0.65047151
-0.27130851 -0.005723808 0.6498099
-0.26874563 -0.0057179919 0.6491496
-0.26618794 -0.0057121878 0.64849067
-0.26363549 -0.0057063955 0.64783311
-0.26108816 -0.0057006148 0.6471768
-0.25854599 -0.0056948457 0.64652187
-0.25600898 -0.0056890883 0.64586824
-0.25347707 -0.0056833425 0.64521593
-0.25095031 -0.0056776088 0.64456499
-0.2484286 -0.0056718858 0.6439153
-0.245912 -0.0056661754 0.64326698
-0.24340045 -0.0056604757 0.64261991
-0.24121192 -0.0056622517 0.64282155
-0.23934665 -0.0056717214 0.64389664
-0.23747511 -0.0056812228 0.6449753
-0.23559731 -0.0056907563 0.64605761
-0.23371325 -0.0057003233 0.64714372
-0.23182282 -0.0057099219 0.64823341
-0.22992605 -0.0057195532 0.64932686
-0.22802286 -0.0057292175 0.650424
-0.22611322 -0.005738914 0.65152484
-0.22419709 -0.0057486431 0.65262938
-0.22227445 -0.0057584057 0.65373766
-0.2203453 -0.0057682013 0.65484977
-0.21840952 -0.00577803 0.65596557
-0.2164672 -0.0057878932 0.6570853
-0.21451822 -0.0057977899 0.65820885
-0.21256253 -0.0058077197 0.65933615
-0.21060015 -0.0058176839 0.66046739
-0.20863104 -0.0058276826 0.6616025
-0.20686594 -0.0058436706 0.66341758
-0.20579623 -0.0058798925 0.66752976
-0.2047132 -0.0059165661 0.67169327
-0.20361659 -0.0059537012 0.6759091
-0.20250614 -0.0059913062 0.68017828
-0.20138158 -0.0060293889 0.68450171
-0.20024262 -0.0060679587 0.68888044
-0.19908902 -0.0061070248 0.69331557
-0.19792044 -0.0061465977 0.69780815
-0.19673663 -0.0061866869 0.70235938
-0.29436165 -0.003546526 0.67104733
-0.28576252 -0.0034707997 0.65671897
-0.28163677 -0.0034486137 0.65252107
-0.27905267 -0.0034450949 0.65185529
-0.27647388 -0.0034415834 0.65119088
-0.27390027 -0.0034380788 0.65052778
-0.27133194 -0.0034345817 0.64986604
-0.26876882 -0.0034310913 0.64920563
-0.26621088 -0.0034276082 0.64854658
-0.2636582 -0.0034241322 0.6478889
-0.2611106 -0.0034206631 0.64723247
-0.25856823 -0.0034172013 0.64657748
-0.25603098 -0.0034137461 0.64592373
-0.25349882 -0.0034102981 0.6452713
-0.25097182 -0.0034068571 0.64462024
-0.24844988 -0.0034034229 0.64397043
-0.24593304 -0.0033999959 0.64332199
-0.24342124 -0.0033965753 0.6426748
-0.24111664 -0.0033960091 0.64256763
-0.23925196 -0.0034016867 0.64364189
-0.23738101 -0.0034073829 0.64471972
-0.23550381 -0.0034130986 0.64580119
-0.23362029 -0.0034188335 0.64688629
-0.23173048 -0.0034245884 0.64797521
-0.22983429 -0.0034303626 0.64906776
-0.22793168 -0.0034361561 0.65016395
-0.22602265 -0.0034419694 0.65126389
-0.22410716 -0.0034478025 0.65236759
-0.22218515 -0.0034536552 0.65347499
-0.22025661 -0.0034595279 0.6545862
-0.21832149 -0.0034654206 0.65570116
-0.21637978 -0.0034713333 0.65681994
-0.21443142 -0.0034772663 0.65794253
-0.2124764 -0.0034832198 0.659069
-0.21051466 -0.0034891935 0.66019928
-0.20854619 -0.0034951875 0.66133344
-0.20661537 -0.0035019557 0.66261405
-0.20554543 -0.0035236357 0.66671622
-0.20446214 -0.0035455863 0.67086953
-0.20336531 -0.0035678125 0.67507499
-0.20225465 -0.0035903193 0.67933357
-0.20112988 -0.0036131118 0.6836462
-0.19999078 -0.003636196 0.68801403
-0.198837 -0.0036595766 0.69243795
-0.19766828 -0.0036832602 0.69691914
-0.19648436 -0.003707252 0.70145869
-0.29547992 -0.0011866664 0.67359662
-0.28682443 -0.0011612326 0.65915942
-0.28166121 -0.0011496376 0.6525777
-0.27907687 -0.0011484645 0.6519118
-0.27649778 -0.0011472937 0.6512472
-0.27392396 -0.0011461253 0.65058398
-0.27135539 -0.0011449595 0.64992219
-0.268792 -0.0011437958 0.64926165
-0.26623386 -0.0011426345 0.64860249
-0.26368088 -0.0011414757 0.64794469
-0.26113307 -0.001140319 0.64728814
-0.25859046 -0.001139165 0.64663303
-0.25605294 -0.0011380131 0.64597917
-0.25352055 -0.0011368635 0.64532661
-0.25099331 -0.0011357164 0.64467549
-0.24847114 -0.0011345714 0.64402556
-0.24595407 -0.0011334289 0.64337701
-0.24344203 -0.0011322885 0.6427297
-0.24102145 -0.0011315561 0.64231396
-0.23915735 -0.0011334472 0.64338738
-0.23728697 -0.0011353444 0.64446431
-0.23541036 -0.0011372481 0.64554495
-0.23352744 -0.0011391583 0.64662921
-0.23163818 -0.0011410748 0.64771712
-0.22974259 -0.001142998 0.64880878
-0.2278406 -0.0011449276 0.64990413
-0.2259322 -0.0011468639 0.65100324
-0.22401729 -0.0011488067 0.65210599
-0.22209591 -0.001150756 0.65321255
-0.22016799 -0.001152712 0.65432286
-0.21823351 -0.0011546747 0.65543693
-0.21629243 -0.001156644 0.65655476
-0.21434471 -0.00115862 0.65767646
-0.21239033 -0.0011606029 0.65880203
-0.21042924 -0.0011625924 0.65993136
-0.20846143 -0.0011645891 0.66106468
-0.20648684 -0.0011665924 0.66220182
-0.20529522 -0.0011731156 0.66590464
-0.20421173 -0.0011804146 0.67004788
-0.20311464 -0.001187805 0.67424291
-0.20200379 -0.0011952887 0.678491
-0.20087884 -0.0012028674 0.6827929
-0.19973956 -0.0012105427 0.68714976
-0.19858561 -0.0012183167 0.69156253
-0.19741678 -0.0012261912 0.6960324
-0.19623272 -0.0012341681 0.70056039
-0.29660672 0.0011911916 0.67616534
-0.28789449 0.0011655648 0.66161853
-0.28168565 0.0011497374 0.65263432
-0.27910107 0.001148564 0.6519683
-0.27652171 0.001147393 0.65130359
-0.27394763 0.0011462244 0.65064025
-0.27137882 0.0011450583 0.64997828
-0.26881522 0.0011438945 0.64931768
-0.26625681 0.001142733 0.64865839
-0.26370358 0.001141574 0.64800048
-0.26115555 0.0011404173 0.64734387
-0.25861266 0.0011392628 0.64668858
-0.25607494 0.0011381109 0.64603466
-0.2535423 0.001136961 0.64538199
-0.25101483 0.0011358137 0.64473069
-0.24849242 0.0011346686 0.6440807
-0.24597508 0.0011335257 0.64343196
-0.24346285 0.0011323853 0.64278466
-0.24095564 0.0011312471 0.64213854
-0.23906282 0.0011329991 0.64313304
-0.23719305 0.0011348949 0.64420921
-0.23531701 0.0011367971 0.64528894
-0.23343466 0.0011387056 0.64637232
-0.231546 0.0011406207 0.64745933
-0.22965099 0.0011425422 0.64855009
-0.2277496 0.0011444703 0.64964455
-0.22584178 0.0011464049 0.65074271
-0.2239275 0.0011483461 0.65184462
-0.22200674 0.001150294 0.65295029
-0.22007945 0.0011522485 0.65405971
-0.21814559 0.0011542095 0.65517288
-0.21620513 0.0011561773 0.65628982
-0.21425807 0.0011581517 0.65741062
-0.21230432 0.0011601329 0.65853524
-0.2103439 0.001162121 0.65966374
-0.20837674 0.0011641158 0.66079611
-0.20640281 0.0011661176 0.66193235
-0.20504561 0.0011716892 0.66509503
-0.20396189 0.0011789704 0.66922814
-0.20286463 0.0011863429 0.67341298
-0.20175353 0.0011938078 0.67765039
-0.2006284 0.0012013677 0.68194163
-0.19948894 0.0012090239 0.68628758
-0.19833487 0.0012167784 0.69068933
-0.19716589 0.0012246328 0.69514781
-0.19598173 0.0012325895 0.69966429
-0.2889728 0.0035097909 0.66409659
-0.28171009 0.0034495115 0.65269095
-0.27912524 0.0034459908 0.65202481
-0.27654567 0.0034424772 0.65135998
-0.27397132 0.0034389708 0.65069652
-0.27140224 0.0034354716 0.65003443
-0.26883841 0.0034319796 0.64937371
-0.26627976 0.0034284946 0.6487143
-0.26372629 0.0034250168 0.64805627
-0.26117802 0.003421546 0.64739954
-0.25863487 0.0034180821 0.64674413
-0.25609693 0.0034146258 0.64609015
-0.25356406 0.0034111757 0.64543736
-0.25103632 0.003407733 0.64478594
-0.24851368 0.0034042972 0.64413583
-0.24599613 0.003400868 0.64348704
-0.24348365 0.0033974461 0.64283955
-0.24097618 0.0033940307 0.64219332
-0.23896834 0.003397654 0.64287889
-0.23709916 0.0034033372 0.64395422
-0.2352237 0.003409039 0.64503306
-0.23334195 0.0034147603 0.6461156
-0.23145388 0.0034205008 0.64720178
-0.22955944 0.0034262601 0.64829153
-0.22765866 0.0034320401 0.64938515
-0.22575146 0.0034378394 0.65048248
-0.22383779 0.0034436584 0.65158349
-0.22191766 0.0034494973 0.65268826
-0.21999098 0.0034553558 0.65379679
-0.21805777 0.0034612343 0.65490907
-0.21611793 0.0034671326 0.65602511
-0.21417148 0.0034730511 0.65714496
-0.21221842 0.0034789904 0.65826875
-0.21025862 0.0034849495 0.65939629
-0.20829211 0.003490929 0.66052771
-0.20631883 0.0034969293 0.661663
-0.20479664 0.0035107995 0.66428745
-0.20371269 0.0035325901 0.66841048
-0.2026152 0.0035546527 0.67258501
-0.20150393 0.0035769928 0.67681205
-0.2003786 0.0035996155 0.68109256
-0.19923899 0.003622527 0.68542767
-0.19808476 0.0036457318 0.68981832
-0.19691564 0.0036692356 0.69426554
-0.19573137 0.0036930447 0.69877052
-0.29005918 0.0058716433 0.66659325
-0.28173453 0.0057496843 0.65274757
-0.27914944 0.0057438156 0.65208131
-0.2765696 0.0057379585 0.65141636
-0.27399504 0.005732114 0.65075284
-0.27142572 0.0057262811 0.65009063
-0.26886162 0.0057204599 0.6494298
-0.2663027 0.0057146507 0.64877027
-0.26374903 0.0057088532 0.64811212
-0.26120049 0.0057030674 0.64745528
-0.25865713 0.0056972932 0.64679974
-0.25611892 0.0056915316 0.64614564
-0.25358582 0.0056857807 0.64549273
-0.25105786 0.0056800423 0.64484125
-0.24853496 0.0056743142 0.64419097
-0.24601716 0.0056685982 0.64354205
-0.24350445 0.0056628943 0.64289451
-0.24099676 0.0056572012 0.64224815
-0.23887396 0.0056605204 0.64262497
-0.23700534 0.005669984 0.64369941
-0.23513046 0.0056794798 0.64477742
-0.23324932 0.0056890082 0.64585912
-0.23136185 0.0056985677 0.6469444
-0.229468 0.0057081594 0.64803332
-0.22756778 0.0057177832 0.64912593
-0.2256612 0.005727442 0.65022242
-0.22374815 0.0057371319 0.65132254
-0.22182862 0.0057468554 0.65242642
-0.21990258 0.0057566119 0.65353405
-0.21796998 0.0057664015 0.65464544
-0.21603079 0.0057762242 0.65576059
-0.214085 0.0057860813 0.6568796
-0.21213256 0.0057959715 0.65800244
-0.21017341 0.0058058957 0.65912908
-0.20820755 0.0058158534 0.66025954
-0.20623493 0.0058258455 0.66139394
-0.20454824 0.0058442354 0.66348171
-0.20346409 0.0058804653 0.66759479
-0.20236641 0.0059171463 0.67175913
-0.20125492 0.0059542875 0.67597568
-0.20012943 0.0059918994 0.68024564
-0.19898964 0.0060299891 0.6845699
-0.19783528 0.0060685668 0.68894953
-0.19666605 0.0061076414 0.69338554
-0.19548166 0.0061472217 0.69787902
-0.19428183 0.0061873193 0.7024312
-0.29115379 0.0082513215 0.66910881
-0.28265071 0.0080757346 0.65487027
-0.27917364 0.0080420384 0.65213782
-0.27659357 0.0080338381 0.65147281
-0.27401873 0.0080256537 0.65080911
-0.27144918 0.0080174869 0.65014684
-0.26888481 0.008009335 0.64948583
-0.26632568 0.0080012009 0.64882624
-0.26377174 0.0079930834 0.64816797
-0.26122299 0.0079849819 0.64751101
-0.25867936 0.0079768961 0.64685535
-0.25614092 0.007968829 0.64620113
-0.25360757 0.0079607759 0.64554811
-0.25107938 0.0079527404 0.64489651
-0.24855626 0.0079447208 0.64424616
-0.24603821 0.007936717 0.64359713
-0.24352525 0.0079287291 0.6429494
-0.24101734 0.0079207579 0.64230299
-0.23877963 0.0079215989 0.64237124
-0.23691161 0.0079348385 0.64344484
-0.23503733 0.007948122 0.64452201
-0.23315677 0.0079614501 0.64560282
-0.23126988 0.0079748239 0.64668727
-0.22937663 0.0079882406 0.64777529
-0.22747703 0.0080017047 0.64886707
-0.22557102 0.0080152135 0.64996254
-0.22365859 0.0080287699 0.65106183
-0.22173968 0.0080423718 0.65216482
-0.21981426 0.0080560194 0.65327156
-0.21788229 0.0080697145 0.65438205
-0.21594374 0.0080834553 0.65549636
-0.21399856 0.0080972426 0.65661436
-0.21204676 0.0081110783 0.6577363
-0.21008827 0.0081249606 0.65886205
-0.20812306 0.0081388904 0.65999162
-0.20615108 0.0081528677 0.66112506
-0.20430048 0.0081720194 0.66267806
-0.20321609 0.0082226163 0.66678107
-0.20211819 0.0082738437 0.67093515
-0.20100655 0.0083257155 0.67514145
-0.19988087 0.0083782403 0.67940074
-0.19874091 0.0084314328 0.68371421
-0.19758642 0.0084853061 0.68808287
-0.19641706 0.0085398722 0.69250768
-0.19523257 0.0085951444 0.69698977
-0.19403265 0.0086511374 0.70153028
-0.29225665 0.010649028 0.67164338
-0.28369808 0.010421562 0.6572969
-0.27919784 0.010340661 0.65219438
-0.2766175 0.010330115 0.65152919
-0.27404249 0.010319591 0.6508655
-0.27147266 0.010309088 0.65020305
-0.26890802 0.010298606 0.64954191
-0.26634863 0.010288145 0.64888215
-0.26379448 0.010277707 0.64822382
-0.26124546 0.010267288 0.64756674
-0.25870159 0.010256891 0.64691097
-0.25616291 0.010246517 0.64625663
-0.25362936 0.010236162 0.64560354
-0.2511009 0.010225829 0.64495182
-0.24857755 0.010215515 0.64430135
-0.24605925 0.010205222 0.64365214
-0.24354607 0.010194952 0.64300436
-0.24103792 0.010184701 0.64235783
-0.2386854 0.010180894 0.64211774
-0.23681797 0.010197903 0.6431905
-0.23494427 0.010214969 0.64426684
-0.23306429 0.010232091 0.64534676
-0.231178 0.010249271 0.64643031
-0.22928537 0.010266509 0.64751756
-0.22738634 0.010283804 0.64860839
-0.22548093 0.010301159 0.64970297
-0.2235691 0.010318574 0.6508013
-0.22165079 0.010336047 0.65190339
-0.21972601 0.010353582 0.6530093
-0.21779467 0.010371175 0.6541189
-0.21585673 0.010388827 0.65523225
-0.2139122 0.01040654 0.65634942
-0.21196103 0.010424313 0.65747041
-0.21000318 0.010442147 0.6585952
-0.20803863 0.010460042 0.65972388
-0.20606734 0.010478 0.66085649
-0.20408925 0.010496018 0.66199291
-0.20296872 0.010559066 0.66596937
-0.20187062 0.010624769 0.67011333
-0.20075879 0.010691296 0.67430925
-0.19963294 0.010758662 0.67855805
-0.19849283 0.010826882 0.68286073
-0.19733819 0.010895974 0.68721843
-0.19616872 0.010965953 0.69163209
-0.19498414 0.011036837 0.69610286
-0.19378413 0.011108644 0.70063174
-0.29336792 0.013064968 0.6741972
-0.28475323 0.01278484 0.65974158
-0.27922204 0.012639681 0.65225089
-0.27664146 0.01262679 0.65158564
-0.27406618 0.012613924 0.65092176
-0.27149609 0.012601085 0.6502592
-0.26893127 0.012588272 0.649598
-0.26637161 0.012575484 0.64893812
-0.26381722 0.012562724 0.64827967
-0.26126793 0.012549989 0.64762247
-0.25872386 0.012537279 0.64696664
-0.25618491 0.012524595 0.64631212
-0.25365111 0.012511938 0.64565891
-0.25112242 0.012499306 0.64500707
-0.24859881 0.012486699 0.64435649
-0.24608029 0.012474117 0.64370722
-0.24356689 0.012461561 0.64305931
-0.2410585 0.01244903 0.64241266
-0.23859124 0.012438406 0.64186442
-0.23672439 0.012459178 0.64293635
-0.23485127 0.012480019 0.6440118
-0.23297188 0.01250093 0.64509088
-0.23108618 0.012521911 0.6461736
-0.22919415 0.012542964 0.64725995
-0.22729574 0.012564086 0.64834994
-0.22539093 0.01258528 0.64944363
-0.22347967 0.012606545 0.65054101
-0.22156201 0.012627887 0.65164226
-0.21963781 0.012649298 0.65274715
-0.21770708 0.012670782 0.65385586
-0.21576981 0.012692342 0.65496838
-0.2138259 0.012713972 0.6560846
-0.21187538 0.012735678 0.65720469
-0.20991817 0.012757458 0.65832859
-0.20795429 0.012779314 0.65945643
-0.20598362 0.012801242 0.66058803
-0.20400621 0.012823247 0.66172355
-0.20272189 0.012889831 0.66515952
-0.20162363 0.012969941 0.66929346
-0.20051163 0.013051054 0.67347914
-0.19938563 0.013133185 0.67771739
-0.19824535 0.013216357 0.68200934
-0.1970906 0.013300592 0.68635619
-0.19592102 0.013385908 0.69075876
-0.19473632 0.013472324 0.69521815
-0.19353625 0.013559864 0.69973552
-0.29448768 0.015499352 0.67677057
-0.28581628 0.015165761 0.6622045
-0.27924624 0.0149391 0.65230745
-0.27666545 0.014923861 0.65164208
-0.27408987 0.014908655 0.65097809
-0.27151957 0.014893478 0.6503154
-0.26895449 0.014878333 0.64965409
-0.26639462 0.014863219 0.64899415
-0.2638399 0.014848134 0.64833546
-0.26129043 0.014833081 0.6476782
-0.25874609 0.014818058 0.64702225
-0.25620693 0.014803068 0.64636767
-0.25367287 0.014788105 0.64571434
-0.25114393 0.014773172 0.64506233
-0.24862011 0.014758271 0.64441168
-0.24610135 0.014743399 0.64376229
-0.24358772 0.014728559 0.64311433
-0.24107909 0.014713747 0.64246756
-0.23857549 0.014698964 0.64182204
-0.23663087 0.014718667 0.64268237
-0.23475835 0.014743278 0.64375699
-0.23287953 0.01476797 0.64483517
-0.23099445 0.014792748 0.64591706
-0.229103 0.014817607 0.64700252
-0.2272052 0.01484255 0.64809167
-0.22530098 0.014867578 0.64918447
-0.22339036 0.014892691 0.65028101
-0.22147325 0.014917887 0.65138119
-0.2195497 0.014943173 0.65248531
-0.2176196 0.014968544 0.65359312
-0.21568294 0.014994001 0.65470469
-0.21373969 0.015019545 0.65582007
-0.2117898 0.015045177 0.65693927
-0.20983325 0.015070897 0.65806228
-0.20787001 0.015096704 0.65918916
-0.2059 0.015122598 0.66031981
-0.20392324 0.015148584 0.66145444
-0.20247571 0.015214938 0.66435176
-0.20137726 0.015309382 0.66847563
-0.20026509 0.015405008 0.67265105
-0.19913891 0.015501832 0.67687881
-0.19799851 0.015599882 0.68116015
-0.19684359 0.015699182 0.68549603
-0.1956739 0.015799755 0.68988752
-0.19448914 0.015901627 0.6943357
-0.19328898 0.016004819 0.69884151
-0.28688726 0.017564526 0.66468585
-0.27927047 0.017238917 0.65236402
-0.27668944 0.017221333 0.65169859
-0.2741136 0.017203782 0.65103441
-0.27154306 0.017186269 0.65037167
-0.2689777 0.01716879 0.64971018
-0.26641762 0.017151348 0.64905018
-0.2638627 0.01713394 0.64839143
-0.26131293 0.017116567 0.64773399
-0.25876835 0.017099231 0.64707792
-0.25622895 0.017081931 0.64642322
-0.25369465 0.017064663 0.64576977
-0.25116548 0.017047429 0.64511764
-0.2486414 0.017030234 0.64446688
-0.24612243 0.017013071 0.64381742
-0.24360853 0.016995944 0.64316928
-0.24109967 0.016978851 0.64252239
-0.23859584 0.016961791 0.64187682
-0.23653743 0.016976371 0.64242858
-0.23466548 0.017004745 0.64350235
-0.2327873 0.017033216 0.64457977
-0.23090276 0.017061781 0.6456607
-0.22901192 0.017090442 0.64674532
-0.22711472 0.017119199 0.64783359
-0.22521113 0.017148055 0.64892554
-0.2233011 0.017177008 0.6500212
-0.2213846 0.017206056 0.65112048
-0.21946165 0.017235208 0.65222365
-0.21753219 0.017264459 0.65333056
-0.21559615 0.017293809 0.65444124
-0.21365353 0.017323259 0.65555573
-0.2117043 0.01735281 0.65667403
-0.20974839 0.017382463 0.65779614
-0.20778579 0.017412215 0.65892208
-0.20581643 0.01744207 0.66005182
-0.20384033 0.017472029 0.6611855
-0.20223013 0.017534405 0.66354597
-0.20113149 0.017643115 0.66765982
-0.20001914 0.017753178 0.67182493
-0.19889283 0.017864626 0.67604238
-0.1977523 0.017977482 0.68031311
-0.19659723 0.01809177 0.68463808
-0.19542743 0.018207524 0.68901855
-0.19424258 0.018324772 0.69345546
-0.19304237 0.018443538 0.69794989
-0.19182649 0.018563855 0.70250297
-0.28796631 0.019981336 0.6671859
-0.27955639 0.019557444 0.65303195
-0.2767134 0.019519202 0.65175503
-0.27413735 0.019499309 0.6510908
-0.27156651 0.019479455 0.65042788
-0.26900095 0.019459642 0.64976633
-0.2664406 0.01943987 0.64910614
-0.26388541 0.019420139 0.64844728
-0.26133543 0.019400448 0.64778978
-0.25879061 0.019380795 0.64713359
-0.25625098 0.019361185 0.64647877
-0.25371644 0.019341612 0.64582521
-0.251187 0.019322077 0.64517295
-0.24866273 0.019302586 0.64452213
-0.24614349 0.019283131 0.6438725
-0.24362935 0.019263716 0.64322424
-0.24112026 0.019244341 0.64257729
-0.23861621 0.019225003 0.64193159
-0.23644407 0.019232294 0.64217502
-0.23457272 0.019264426 0.64324796
-0.2326951 0.019296667 0.64432448
-0.23081116 0.019329013 0.64540458
-0.22892094 0.019361472 0.64648837
-0.22702435 0.019394038 0.6475758
-0.22512132 0.019426713 0.6486668
-0.22321193 0.019459501 0.64976162
-0.22129606 0.019492399 0.65086007
-0.21937369 0.019525407 0.65196222
-0.21744482 0.019558528 0.65306818
-0.21550944 0.019591767 0.65417802
-0.21356747 0.019625118 0.65529162
-0.21161884 0.01965858 0.65640897
-0.20966358 0.01969216 0.65753019
-0.20770164 0.019725854 0.65865523
-0.20573294 0.019759661 0.65978408
-0.20375751 0.019793587 0.66091686
-0.20198514 0.019848252 0.66274214
-0.20088631 0.019971155 0.66684592
-0.1997738 0.020095591 0.6710009
-0.19864734 0.020221585 0.67520791
-0.19750665 0.020349169 0.67946804
-0.1963515 0.020478377 0.68378234
-0.19518159 0.020609235 0.68815178
-0.19399665 0.020741779 0.69257748
-0.19279636 0.020876039 0.69706047
-0.19158046 0.021012051 0.70160192
-0.28905353 0.022416396 0.66970485
-0.2805894 0.021939088 0.65544498
-0.27673736 0.021817468 0.65181148
-0.27416107 0.02179523 0.65114713
-0.27158999 0.021773037 0.65048409
-0.26902419 0.021750892 0.64982247
-0.26646358 0.021728789 0.64916217
-0.26390818 0.021706732 0.64850318
-0.26135793 0.021684721 0.64784557
-0.25881287 0.021662751 0.6471892
-0.256273 0.02164083 0.64653432
-0.25373819 0.021618951 0.64588064
-0.25120857 0.021597115 0.64522833
-0.24868402 0.021575326 0.64457732
-0.24616456 0.02155358 0.64392763
-0.24365018 0.021531876 0.64327925
-0.24114087 0.021510217 0.64263219
-0.23863657 0.021488601 0.64198637
-0.23635077 0.021486435 0.64192164
-0.23448001 0.021522321 0.64299375
-0.23260298 0.021558326 0.64406943
-0.23071966 0.02159445 0.64514869
-0.22883001 0.021630697 0.64623159
-0.226934 0.021667067 0.64731812
-0.22503161 0.021703556 0.64840829
-0.22312282 0.021740172 0.64950222
-0.22120756 0.021776909 0.65059978
-0.2192858 0.021813771 0.65170103
-0.21735756 0.021850759 0.6528061
-0.21542278 0.021887876 0.65391499
-0.21348144 0.021925122 0.65502769
-0.21153347 0.021962492 0.65614414
-0.20957884 0.021999989 0.65726441
-0.20761754 0.022037616 0.65838856
-0.20564952 0.022075374 0.65951657
-0.20367475 0.022113258 0.66064841
-0.20174074 0.022156497 0.66194022
-0.20064174 0.022293527 0.66603404
-0.19952905 0.02243226 0.67017883
-0.19840246 0.022572735 0.67437559
-0.19726165 0.022714976 0.67862517
-0.19610637 0.022859024 0.68292868
-0.19493635 0.023004912 0.68728715
-0.19375134 0.023152675 0.69170171
-0.19255099 0.02330235 0.69617331
-0.19133504 0.023453971 0.70070314
-0.29014897 0.024869911 0.67224288
-0.28163001 0.024338396 0.65787584
-0.27676135 0.024116134 0.65186799
-0.27418479 0.024091551 0.65120351
-0.27161348 0.024067018 0.65054035
-0.26904741 0.024042534 0.64987856
-0.26648659 0.024018103 0.6492182
-0.26393092 0.023993719 0.64855909
-0.26138046 0.023969388 0.64790136
-0.25883514 0.023945102 0.64724493
-0.25629503 0.023920868 0.64658988
-0.25376001 0.023896683 0.64593613
-0.25123009 0.023872543 0.64528364
-0.24870534 0.023848457 0.64463258
-0.24618562 0.023824414 0.64398271
-0.24367101 0.023800425 0.64333427
-0.24116147 0.023776483 0.64268708
-0.23865694 0.023752585 0.64204115
-0.23625755 0.023738798 0.64166844
-0.23438738 0.023778429 0.64273971
-0.23251094 0.023818195 0.64381456
-0.23062819 0.023858089 0.64489293
-0.22873914 0.023898121 0.64597499
-0.22684376 0.023938285 0.64706069
-0.22494195 0.023978584 0.64814997
-0.22303377 0.024019022 0.649243
-0.22111914 0.024059596 0.65033972
-0.21919802 0.024100306 0.65144014
-0.21727037 0.024141153 0.65254426
-0.2153362 0.024182141 0.65365219
-0.21339551 0.024223274 0.654764
-0.21144816 0.024264544 0.65587956
-0.20949419 0.024305955 0.65699893
-0.20753354 0.02434751 0.65812218
-0.20556617 0.024389207 0.65924925
-0.20359203 0.024431044 0.66038013
-0.20161113 0.024473026 0.66151494
-0.20039776 0.024610251 0.66522413
-0.19928493 0.024763215 0.66935885
-0.19815817 0.024918092 0.67354524
-0.19701724 0.025074922 0.67778438
-0.19586188 0.025233738 0.68207723
-0.19469175 0.025394576 0.68642473
-0.19350664 0.025557481 0.69082814
-0.19230627 0.025722494 0.69528848
-0.19109027 0.025889648 0.69980675
-0.29125273 0.027342092 0.67480016
-0.2826784 0.02675557 0.66032481
-0.27678534 0.026415197 0.65192449
-0.27420852 0.026388267 0.65125984
-0.27163696 0.026361395 0.65059662
-0.26907068 0.026334576 0.64993477
-0.26650959 0.026307812 0.64927423
-0.26395369 0.026281102 0.648615
-0.26140296 0.026254445 0.64795715
-0.25885743 0.026227847 0.64730066
-0.25631702 0.026201297 0.64664543
-0.2537818 0.026174802 0.64599156
-0.25125167 0.026148362 0.64533901
-0.24872665 0.026121978 0.64468783
-0.2462067 0.02609564 0.64403784
-0.24369186 0.026069362 0.64338928
-0.24118206 0.026043134 0.64274198
-0.23867732 0.026016958 0.64209598
-0.23617761 0.025990836 0.6414513
-0.23429483 0.026032759 0.64248592
-0.23241897 0.026076274 0.64355987
-0.23053683 0.026119936 0.64463747
-0.22864838 0.026163744 0.64571863
-0.22675358 0.026207699 0.64680344
-0.22485238 0.026251802 0.64789188
-0.2229448 0.026296053 0.64898401
-0.2210308 0.026340459 0.65007991
-0.21911028 0.026385007 0.65117937
-0.21718328 0.026429711 0.65228266
-0.21524973 0.026474567 0.65338969
-0.21330962 0.026519574 0.65450048
-0.21136293 0.02656474 0.65561515
-0.20940959 0.026610058 0.65673363
-0.2074496 0.026655534 0.65785599
-0.20548287 0.026701164 0.6589821
-0.20350941 0.026746949 0.66011208
-0.20152915 0.026792891 0.66124594
-0.20015436 0.026921347 0.66441619
-0.19904138 0.027088473 0.66854084
-0.19791451 0.027257686 0.67271703
-0.19677345 0.027429027 0.67694569
-0.19561796 0.027602533 0.6812278
-0.19444776 0.027778251 0.68556452
-0.19326258 0.027956221 0.68995678
-0.19206214 0.028136492 0.69440585
-0.19084612 0.0283191 0.69891262
-0.29236493 0.029833155 0.67737699
-0.28373465 0.029190807 0.66279215
-0.2768093 0.028714659 0.65198094
-0.27423227 0.028685382 0.65131623
-0.27166048 0.028656168 0.65065289
-0.26909393 0.028627014 0.64999092
-0.26653257 0.028597916 0.64933026
-0.26397642 0.028568877 0.64867091
-0.26142547 0.028539898 0.64801294
-0.25887969 0.02851098 0.64735633
-0.25633907 0.02848212 0.64670104
-0.25380358 0.028453317 0.64604706
-0.25127321 0.028424572 0.64539438
-0.24874794 0.028395884 0.64474303
-0.24622777 0.028367255 0.64409298
-0.24371268 0.028338684 0.64344424
-0.24120267 0.028310172 0.64279687
-0.23869768 0.028281715 0.64215076
-0.23619772 0.028253317 0.64150596
-0.23420234 0.028285306 0.6422323
-0.23232707 0.028332569 0.64330542
-0.23044552 0.02837999 0.64438212
-0.22855766 0.028427569 0.64546245
-0.22666347 0.028475311 0.64654642
-0.2247629 0.02852321 0.64763403
-0.22285591 0.02857127 0.64872527
-0.2209425 0.028619494 0.64982021
-0.21902263 0.028667884 0.6509189
-0.21709622 0.028716432 0.65202123
-0.21516332 0.028765149 0.65312737
-0.21322383 0.028814031 0.65423727
-0.21127775 0.028863082 0.65535098
-0.20932508 0.028912302 0.65646857
-0.20736571 0.028961692 0.65758997
-0.20539965 0.02901125 0.65871519
-0.20342684 0.029060977 0.65984428
-0.20144725 0.029110875 0.66097724
-0.19991156 0.029226836 0.66361022
-0.19879843 0.029408051 0.66772479
-0.19767143 0.029591531 0.6718908
-0.19653027 0.029777313 0.67610908
-0.19537467 0.02996544 0.68038058
-0.19420439 0.03015596 0.68470645
-0.19301914 0.030348919 0.68908769
-0.19181862 0.030544369 0.69352543
-0.19060259 0.030742351 0.69802076
-0.30256832 0.033074271 0.69534087
-0.29348534 0.032343283 0.67997289
-0.28479877 0.031644307 0.6652779
-0.2768333 0.031014519 0.65203744
-0.27425599 0.030982895 0.65137261
-0.27168396 0.030951338 0.65070915
-0.26911718 0.030919844 0.65004706
-0.26655558 0.030888414 0.64938629
-0.26399919 0.030857049 0.64872688
-0.261448 0.030825747 0.64806879
-0.25890198 0.030794509 0.64741206
-0.2563611 0.030763332 0.64675659
-0.2538254 0.030732222 0.64610255
-0.25129476 0.030701172 0.64544976
-0.24876928 0.030670187 0.64479834
-0.24624887 0.030639261 0.64414817
-0.24373354 0.030608397 0.64349931
-0.24122329 0.0305776 0.64285183
-0.23871806 0.030546861 0.6422056
-0.23621787 0.030516185 0.64156067
-0.23410992 0.030536076 0.64197886
-0.23223524 0.030587081 0.64305115
-0.23035428 0.030638253 0.64412701
-0.228467 0.030689599 0.64520645
-0.22657342 0.030741118 0.64628959
-0.22467345 0.030792808 0.6473763
-0.22276708 0.030844674 0.64846671
-0.2208543 0.030896716 0.64956081
-0.21893504 0.030948933 0.65065861
-0.21700926 0.031001324 0.65176004
-0.21507698 0.031053895 0.65286529
-0.21313813 0.031106645 0.65397429
-0.21119267 0.031159574 0.65508705
-0.20924062 0.031212687 0.65620369
-0.2072819 0.031265985 0.65732419
-0.20531648 0.031319465 0.65844852
-0.20334433 0.031373125 0.65957665
-0.20136541 0.031426974 0.66070873
-0.19966935 0.031526737 0.66280615
-0.19855607 0.031721976 0.66691077
-0.19742894 0.031919651 0.67106658
-0.19628766 0.032119799 0.67527443
-0.19513199 0.032322478 0.67953545
-0.19396162 0.032527726 0.68385053
-0.19277629 0.032735597 0.68822074
-0.19157575 0.032946147 0.69264728
-0.19035967 0.033159424 0.69713116
-0.18912774 0.033375483 0.70167351
-0.31332743 0.036491949 0.71428305
-0.3037585 0.035663955 0.69807607
-0.2946142 0.034872703 0.68258834
-0.28587094 0.034116283 0.66778243
-0.27749813 0.033391893 0.65360337
-0.27427977 0.033280808 0.65142906
-0.27170748 0.033246908 0.65076548
-0.26914042 0.033213075 0.65010327
-0.26657858 0.033179309 0.64944237
-0.26402196 0.033145614 0.64878279
-0.26147053 0.033111989 0.64812464
-0.25892428 0.033078432 0.64746779
-0.25638315 0.033044938 0.6468122
-0.25384718 0.033011518 0.64615804
-0.25131637 0.032978166 0.64550519
-0.24879061 0.032944873 0.64485359
-0.24626996 0.032911651 0.64420331
-0.24375437 0.032878496 0.64355433
-0.2412439 0.032845415 0.64290679
-0.23873842 0.03281239 0.64226037
-0.23623802 0.03277944 0.64161539
-0.23401758 0.032785073 0.64172566
-0.23214349 0.032839812 0.64279711
-0.23026313 0.032894734 0.64387214
-0.22837645 0.032949835 0.64495069
-0.22648345 0.033005126 0.64603293
-0.22458409 0.033060603 0.64711881
-0.22267833 0.033116262 0.64820832
-0.22076614 0.033172116 0.64930153
-0.21884753 0.033228159 0.65039849
-0.21692236 0.033284385 0.65149903
-0.21499072 0.033340808 0.65260345
-0.2130525 0.033397418 0.65371156
-0.21110766 0.033454221 0.65482336
-0.20915623 0.033511218 0.65593904
-0.20719814 0.033568416 0.6570586
-0.2052334 0.033625811 0.65818202
-0.20326191 0.033683404 0.65930933
-0.20128365 0.033741191 0.66044044
-0.19942772 0.033821076 0.66200411
-0.19831432 0.03403027 0.66609877
-0.19718704 0.03424206 0.67024434
-0.19604565 0.034456506 0.67444187
-0.1948899 0.034673665 0.6786924
-0.19371945 0.034893565 0.68299669
-0.19253409 0.035116281 0.68735605
-0.19133349 0.035341855 0.69177139
-0.19011739 0.03557035 0.69624388
-0.18888547 0.03580182 0.70077461
-0.31459364 0.039166275 0.71716958
-0.30495813 0.038274098 0.70083296
-0.29575181 0.037421659 0.68522406
-0.28695118 0.036606941 0.67030585
-0.2785244 0.035826791 0.65602058
-0.2743035 0.035579115 0.65148544
-0.27173099 0.035542872 0.65082181
-0.26916367 0.035506699 0.65015942
-0.26660159 0.035470597 0.6494984
-0.26404473 0.035434574 0.64883876
-0.26149306 0.035398625 0.64818048
-0.25894654 0.035362743 0.64752346
-0.25640517 0.035326935 0.64686781
-0.253869 0.035291206 0.64621353
-0.25133792 0.035255544 0.64556056
-0.24881192 0.035219952 0.64490885
-0.24629106 0.035184436 0.6442585
-0.24377523 0.035148986 0.6436094
-0.24126451 0.035113614 0.64296168
-0.2387588 0.035078309 0.64231521
-0.23625816 0.035043079 0.64167011
-0.23392531 0.035032295 0.64147264
-0.23205182 0.035090763 0.64254326
-0.23017202 0.035149422 0.64361739
-0.22828597 0.035208281 0.64469516
-0.22639355 0.035267338 0.64577651
-0.22449481 0.035326593 0.64686155
-0.22258967 0.035386048 0.64795023
-0.22067809 0.035445705 0.64904255
-0.21876006 0.035505559 0.65013856
-0.21683553 0.035565615 0.65123826
-0.21490452 0.035625882 0.65234178
-0.21296693 0.035686351 0.653449
-0.21102272 0.035747018 0.65455991
-0.20907193 0.0358079 0.6556747
-0.20711449 0.035868991 0.6567933
-0.20515038 0.035930295 0.65791583
-0.20317955 0.035991807 0.65904218
-0.20120195 0.036053527 0.66017234
-0.19921756 0.036115464 0.66130644
-0.19807313 0.036332943 0.66528869
-0.19694574 0.036558792 0.66942418
-0.19580427 0.036787469 0.67361146
-0.19464841 0.037019022 0.67785144
-0.1934779 0.037253506 0.68214506
-0.19229248 0.037490986 0.68649352
-0.19109185 0.037731513 0.69089776
-0.18987569 0.037975136 0.69535875
-0.18864378 0.038221944 0.69987798
-0.31587017 0.041862309 0.7200796
-0.30616722 0.040904932 0.70361161
-0.29689822 0.039990373 0.68788016
-0.28803948 0.039116472 0.67284805
-0.2795583 0.038279768 0.65845579
-0.27432728 0.037877824 0.65154189
-0.27175447 0.037839234 0.65087807
-0.26918694 0.037800722 0.65021563
-0.26662463 0.037762284 0.64955449
-0.2640675 0.037723929 0.64889473
-0.26151559 0.037685655 0.64823633
-0.25896886 0.037647452 0.64757925
-0.25642726 0.037609331 0.64692348
-0.25389078 0.037571281 0.64626902
-0.25135946 0.037533313 0.64561594
-0.24883327 0.037495423 0.64496416
-0.24631213 0.037457604 0.64431363
-0.2437961 0.037419867 0.64366448
-0.24128513 0.037382204 0.64301664
-0.23877922 0.037344616 0.6423701
-0.23627831 0.037307102 0.64172482
-0.23383313 0.037277747 0.64121985
-0.23196021 0.037339933 0.64228958
-0.23008101 0.037402332 0.64336288
-0.22819555 0.037464939 0.64443982
-0.22630374 0.037527755 0.64552033
-0.22440559 0.037590783 0.64660448
-0.22250105 0.037654024 0.64769226
-0.22059007 0.037717473 0.64878368
-0.21867268 0.037781142 0.64987886
-0.21674879 0.037845027 0.65097773
-0.21481837 0.037909124 0.6520803
-0.21288142 0.037973441 0.65318662
-0.21093789 0.038037978 0.65429676
-0.2089877 0.038102731 0.65541053
-0.20703088 0.038167704 0.65652817
-0.20506743 0.038232908 0.65764976
-0.20309725 0.038298339 0.65877521
-0.2011203 0.038363989 0.65990448
-0.19913657 0.038429864 0.66103762
-0.19783254 0.038630024 0.66448057
-0.19670504 0.038869862 0.66860604
-0.19556348 0.039112695 0.67278308
-0.19440751 0.039358575 0.6770125
-0.19323693 0.03960757 0.68129551
-0.19205147 0.039859742 0.68563312
-0.19085079 0.040115137 0.69002622
-0.18963467 0.040373832 0.69447607
-0.18840273 0.040635884 0.69898367
-0.31715703 0.044580303 0.72301322
-0.30738592 0.043556713 0.70641237
-0.29805359 0.042579085 0.690557
-0.28913575 0.041645065 0.6754089
-0.28059992 0.040751025 0.66090912
-0.27435103 0.040176932 0.65159833
-0.27177802 0.040135991 0.6509344
-0.26921022 0.040095139 0.65027183
-0.26664764 0.040054366 0.64961058
-0.2640903 0.040013682 0.64895076
-0.26153812 0.039973076 0.64829218
-0.25899112 0.039932553 0.64763498
-0.25644928 0.039892111 0.64697909
-0.2539126 0.039851751 0.64632452
-0.25138104 0.039811477 0.64567137
-0.24885458 0.039771281 0.64501941
-0.24633323 0.039731167 0.64436883
-0.24381696 0.039691132 0.64371955
-0.24130575 0.039651178 0.64307159
-0.2387996 0.039611306 0.64242494
-0.23629849 0.039571516 0.6417796
-0.23380238 0.039531801 0.64113551
-0.23186865 0.03958733 0.64203608
-0.22999008 0.039653461 0.64310861
-0.22810519 0.039719809 0.64418465
-0.22621398 0.039786376 0.64526427
-0.22431643 0.039853174 0.64634758
-0.22241251 0.039920192 0.64743453
-0.22050217 0.039987437 0.64852512
-0.21858537 0.04005491 0.6496194
-0.21666209 0.04012261 0.65071738
-0.2147323 0.04019054 0.65181905
-0.21279597 0.040258698 0.65292448
-0.21085308 0.040327094 0.65403372
-0.20890357 0.040395718 0.65514666
-0.20694739 0.040464573 0.65626341
-0.20498455 0.040533666 0.65738398
-0.20301501 0.040603004 0.65850848
-0.20103873 0.040672578 0.65963686
-0.19905566 0.040742386 0.66076905
-0.19759253 0.040921528 0.66367441
-0.19646493 0.041175283 0.66778988
-0.19532323 0.041432202 0.6719566
-0.19416723 0.041692346 0.67617571
-0.19299659 0.04195578 0.68044811
-0.19181105 0.042222559 0.68477482
-0.19061038 0.042492758 0.68915695
-0.18939422 0.042766437 0.69359553
-0.1881623 0.043043662 0.69809163
-0.31845447 0.047320545 0.72597098
-0.3086144 0.046229687 0.70923555
-0.29921797 0.045188017 0.69325471
-0.29024044 0.044192988 0.67798942
-0.28164929 0.04324076 0.66338074
-0.27437481 0.042476434 0.65165478
-0.27180153 0.04243315 0.65099072
-0.26923349 0.042389955 0.65032804
-0.26667067 0.042346843 0.64966667
-0.26411307 0.042303827 0.64900672
-0.26156065 0.042260893 0.64834803
-0.25901341 0.042218048 0.64769071
-0.25647134 0.042175286 0.6470347
-0.25393444 0.04213262 0.64638013
-0.25140265 0.042090032 0.6457268
-0.24887592 0.04204753 0.64507473
-0.24635433 0.042005114 0.64442402
-0.24383783 0.041962791 0.64377469
-0.24132639 0.041920546 0.64312661
-0.23881999 0.041878384 0.64247978
-0.23631863 0.041836314 0.64183432
-0.2338223 0.041794326 0.64119017
-0.23177721 0.041832961 0.64178288
-0.22989918 0.041902807 0.64285445
-0.22801492 0.041972894 0.64392972
-0.22612432 0.042043213 0.6450085
-0.22422735 0.04211377 0.64609092
-0.22232403 0.042184561 0.64717698
-0.22041428 0.042255588 0.64826667
-0.21849813 0.042326864 0.64936012
-0.21657547 0.042398375 0.6504572
-0.21464631 0.042470124 0.65155798
-0.21271062 0.042542126 0.65266258
-0.21076834 0.042614367 0.65377086
-0.20881946 0.04268685 0.65488291
-0.20686394 0.042759586 0.65599877
-0.20490174 0.042832568 0.65711844
-0.20293283 0.0429058 0.65824193
-0.20095725 0.042979296 0.65936947
-0.19897485 0.043053035 0.66050076
-0.19735312 0.043207489 0.66287029
-0.19622539 0.043475088 0.66697568
-0.1950836 0.043746021 0.67113221
-0.19392751 0.044020355 0.67534095
-0.19275683 0.044298153 0.6796028
-0.19157125 0.044579476 0.68391871
-0.19037056 0.044864397 0.68828988
-0.1891544 0.045152985 0.69271725
-0.18792246 0.045445301 0.69720185
-0.18667455 0.045741446 0.70174515
-0.31976253 0.050083287 0.72895294
-0.30985269 0.048924111 0.71208131
-0.30039147 0.04781742 0.69597363
-0.29135358 0.046760451 0.68058968
-0.28270653 0.045749191 0.66587096
-0.27442423 0.044780519 0.65177214
-0.27182505 0.044730704 0.65104705
-0.26925677 0.044685163 0.65038425
-0.26669368 0.044639718 0.64972275
-0.26413587 0.044594366 0.64906269
-0.26158321 0.044549108 0.64840394
-0.25903574 0.044503935 0.6477465
-0.25649339 0.044458855 0.64709038
-0.25395626 0.044413876 0.64643568
-0.25142422 0.044368979 0.64578223
-0.24889725 0.044324171 0.64513004
-0.24637543 0.044279456 0.64447922
-0.2438587 0.044234835 0.64382976
-0.24134701 0.044190299 0.64318156
-0.23884039 0.044145852 0.64253467
-0.23633878 0.044101495 0.64188904
-0.23384222 0.044057228 0.64124477
-0.2316858 0.044076812 0.6415298
-0.22980841 0.044150382 0.6426006
-0.22792469 0.044224195 0.64367491
-0.22603472 0.044298258 0.64475292
-0.22413835 0.044372566 0.64583445
-0.22223563 0.044447128 0.64691967
-0.22032651 0.044521939 0.64800853
-0.21841094 0.044597 0.64910102
-0.21648893 0.044672318 0.65019727
-0.21456037 0.044747885 0.65129715
-0.21262532 0.044823717 0.65240085
-0.2106837 0.044899806 0.65350831
-0.20873544 0.044976145 0.6546194
-0.20678057 0.045052748 0.65573436
-0.20481902 0.045129616 0.65685314
-0.20285077 0.045206744 0.65797573
-0.20087579 0.045284137 0.6591022
-0.19889407 0.045361802 0.6602326
-0.19711427 0.045487911 0.66206807
-0.19598643 0.045769285 0.66616344
-0.19484457 0.046054173 0.6703099
-0.19368841 0.046342626 0.67450827
-0.19251767 0.046634715 0.67875957
-0.19133206 0.046930503 0.68306476
-0.19013135 0.04723008 0.68742502
-0.18891518 0.047533497 0.69184119
-0.18768328 0.047840837 0.69631445
-0.18643539 0.048152186 0.70084608
-0.31110102 0.051640246 0.71495008
-0.30157423 0.050467525 0.69871396
-0.29247528 0.04934768 0.6832099
-0.28377137 0.048276458 0.66837901
-0.27543628 0.047250573 0.65417582
-0.27184859 0.047028657 0.65110344
-0.26928005 0.046980776 0.65044051
-0.26671675 0.046932988 0.6497789
-0.26415867 0.046885304 0.64911872
-0.26160577 0.046837714 0.64845985
-0.25905803 0.04679022 0.64780229
-0.25651547 0.046742819 0.64714605
-0.25397807 0.046695523 0.64649123
-0.2514458 0.046648316 0.64583766
-0.24891862 0.046601202 0.64518541
-0.24639654 0.046554185 0.64453447
-0.24387956 0.046507265 0.64388484
-0.24136764 0.046460439 0.64323652
-0.23886079 0.046413708 0.64258957
-0.23635894 0.046367064 0.64194381
-0.23386218 0.046320528 0.64129949
-0.2315945 0.0463189 0.64127696
-0.22971766 0.046396177 0.64234686
-0.22783457 0.046473719 0.6434204
-0.22594517 0.046551518 0.64449751
-0.22404942 0.046629574 0.64557821
-0.2221473 0.046707895 0.64666253
-0.2202388 0.046786483 0.64775056
-0.21832384 0.046865325 0.64884216
-0.21640246 0.046944447 0.64993757
-0.21447454 0.047023833 0.65103662
-0.2125401 0.047103483 0.65213937
-0.21059911 0.047183409 0.65324593
-0.20865151 0.0472636 0.65435618
-0.20669726 0.047344066 0.65547019
-0.20473637 0.047424808 0.65658808
-0.20276877 0.047505829 0.65770978
-0.20079444 0.047587123 0.65883529
-0.19881335 0.047668699 0.65996468
-0.19687599 0.047762815 0.6612677
-0.19574806 0.04805791 0.66535324
-0.19460613 0.048356671 0.66948956
-0.19344988 0.048659172 0.67367762
-0.19227909 0.048965484 0.67791843
-0.19109346 0.04927567 0.68221295
-0.18989271 0.049589816 0.68656224
-0.18867655 0.049907994 0.69096732
-0.18744469 0.050230276 0.69542927
-0.18619682 0.050556753 0.69994926
-0.31235939 0.054378357 0.71784204
-0.30276635 0.05313858 0.70147592
-0.29360566 0.051954914 0.68585044
-0.28484422 0.050822828 0.67090595
-0.27645579 0.04973891 0.65659726
-0.2718721 0.049327005 0.65115976
-0.26930332 0.049276777 0.65049672
-0.26673982 0.04922666 0.64983511
-0.26418146 0.049176637 0.64917475
-0.2616283 0.049126711 0.6485157
-0.25908032 0.049076889 0.64785802
-0.25653756 0.049027178 0.64720178
-0.25399992 0.048977561 0.64654678
-0.25146738 0.048928041 0.6458931
-0.24893996 0.048878625 0.64524072
-0.24641767 0.04882931 0.64458972
-0.24390043 0.048780087 0.64393997
-0.24138828 0.048730966 0.64329153
-0.23888117 0.048681945 0.64264441
-0.23637912 0.048633024 0.64199859
-0.2338821 0.048584204 0.64135414
-0.23150325 0.048559219 0.64102429
-0.229627 0.048640203 0.64209336
-0.22774449 0.048721459 0.64316601
-0.22585569 0.04880299 0.64424229
-0.22396055 0.04888479 0.64532214
-0.22205906 0.04896687 0.64640564
-0.22015116 0.049049221 0.64749277
-0.21823682 0.049131848 0.64858353
-0.21631603 0.049214758 0.64967799
-0.21438876 0.049297951 0.65077621
-0.21245494 0.049381416 0.65187806
-0.21051458 0.049465176 0.65298373
-0.20856763 0.049549218 0.65409315
-0.20661403 0.049633536 0.65520626
-0.20465377 0.049718149 0.65632319
-0.20268685 0.049803052 0.657444
-0.20071316 0.049888242 0.65856856
-0.19873273 0.049973726 0.65969706
-0.1967455 0.050059509 0.66082942
-0.19551028 0.050340973 0.664545
-0.19436826 0.050653543 0.66867125
-0.19321196 0.050970025 0.67284906
-0.19204111 0.051290482 0.67707938
-0.19085546 0.051615 0.68136328
-0.18965469 0.051943641 0.68570167
-0.31362802 0.057138707 0.72075748
-0.30396789 0.055830836 0.70425975
-0.29474482 0.054582372 0.68851143
-0.28592521 0.053388525 0.67345202
-0.27748293 0.05224574 0.65903676
-0.27189565 0.051625755 0.65121615
-0.26932663 0.051573183 0.65055299
-0.26676282 0.051520716 0.6498912
-0.26420426 0.051468361 0.64923078
-0.26165086 0.051416107 0.64857161
