# .PCD v0.7 - Point Cloud Data file format
VERSION 0.7
FIELDS x y z
SIZE 4 4 4
TYPE F F F
COUNT 1 1 1
WIDTH 491
HEIGHT 1
VIEWPOINT 0 0 0 1 0 0 0
POINTS 491
DATA ascii
-0.16851132 -0.37072489 1.4715905
-0.16409652 -0.37247306 1.4785298
-0.15963987 -0.37423772 1.4855347
-0.1551408 -0.37601924 1.4926064
-0.1505987 -0.37781781 1.4997457
-0.16735223 -0.36302561 1.4614683
-0.16296309 -0.36472693 1.4683175
-0.15853225 -0.36644337 1.4752276
-0.15405966 -0.36817649 1.4822048
-0.14954421 -0.36992514 1.4892445
-0.14498563 -0.37169045 1.4963512
-0.14038301 -0.37347177 1.5035225
-0.17343007 -0.35980266 1.4693351
-0.16620885 -0.35543126 1.4514834
-0.16184454 -0.35708559 1.4582392
-0.1574394 -0.35875535 1.4650581
-0.15299165 -0.36043796 1.4719294
-0.14930038 -0.36408341 1.4868164
-0.14438178 -0.36489213 1.490119
-0.13939638 -0.36558673 1.4929556
-0.13477898 -0.36733878 1.5001105
-0.13011552 -0.36910322 1.507316
-0.12540707 -0.37088475 1.5145912
-0.1726682 -0.35306782 1.4628804
-0.16543151 -0.34867874 1.444695
-0.16074121 -0.34954837 1.4482981
-0.15636113 -0.35117173 1.4550242
-0.15194096 -0.35281205 1.4618207
-0.14981863 -0.3600904 1.4919773
-0.14475922 -0.36058205 1.4940145
-0.13952675 -0.36066347 1.4943519
-0.13416396 -0.36040124 1.4932653
-0.12919877 -0.36122921 1.4966959
-0.12451969 -0.36296165 1.5038739
-0.11979554 -0.36471087 1.5111215
-0.11502562 -0.36647695 1.5184391
-0.17929359 -0.35079181 1.4749827
-0.1719133 -0.34639245 1.4564847
-0.16474211 -0.34215668 1.4386744
-0.1596529 -0.34211338 1.4384923
-0.15529709 -0.34369028 1.4451227
-0.15090194 -0.34528413 1.4518244
-0.1464645 -0.34688959 1.458575
-0.14198557 -0.34851006 1.4653885
-0.13977888 -0.35604057 1.4970523
-0.13433507 -0.35559285 1.4951698
-0.12873067 -0.35466611 1.4912732
-0.12364498 -0.35515049 1.4933097
-0.11895002 -0.35685006 1.500456
-0.11420988 -0.3585659 1.5076706
-0.10942393 -0.36029831 1.5149549
-0.096840993 -0.33521882 1.4095026
-0.092322737 -0.33685321 1.4163748
-0.08776021 -0.33850366 1.4233145
-0.083152756 -0.34017038 1.4303225
-0.078499712 -0.34185359 1.4374
-0.073800385 -0.34355351 1.4445477
-0.069054082 -0.34527043 1.4517668
-0.064260118 -0.34700462 1.4590586
-0.05941774 -0.34875631 1.466424
-0.054526243 -0.35052586 1.4738644
-0.049584925 -0.35231394 1.4813828
-0.17850246 -0.34406996 1.4684744
-0.17116494 -0.3397752 1.4501445
-0.16490287 -0.33741662 1.4400783
-0.15948988 -0.33670089 1.4370235
-0.15424892 -0.33631322 1.435369
-0.14987774 -0.33785999 1.4419706
-0.14546616 -0.33942106 1.4486331
-0.14101364 -0.34099662 1.4553576
-0.1365196 -0.3425869 1.4621447
-0.13198423 -0.34419417 1.4690045
-0.12868293 -0.34928221 1.49072
-0.12278269 -0.34744889 1.4828955
-0.11811638 -0.34909952 1.4899403
-0.11340563 -0.35076624 1.4970539
-0.1014276 -0.32902125 1.4042472
-0.096280351 -0.32834071 1.4013426
-0.091662996 -0.32949129 1.4062533
-0.087130025 -0.33109412 1.413094
-0.082552738 -0.33271256 1.4200015
-0.07793048 -0.33434689 1.4269768
-0.073262595 -0.3359974 1.4340211
-0.068548381 -0.33766425 1.4411352
-0.06378717 -0.33934775 1.4483203
-0.058978312 -0.34104851 1.4555789
-0.054121032 -0.34276655 1.4629115
-0.049214568 -0.34450197 1.4703182
-0.044258166 -0.34625506 1.4778004
-0.18520236 -0.3417114 1.4806739
-0.17771833 -0.33740726 1.4620236
-0.17050564 -0.33337671 1.4445587
-0.16506393 -0.33266732 1.4414849
-0.15964533 -0.33196095 1.4384241
-0.1542497 -0.33125755 1.4353763
-0.14887689 -0.33055717 1.4323413
-0.144482 -0.33205512 1.4388322
-0.14005521 -0.33358604 1.4454658
-0.13558739 -0.33513108 1.4521607
-0.13107909 -0.33669338 1.4589303
-0.12652813 -0.33826908 1.465758
-0.12193359 -0.33985746 1.4726406
-0.11729569 -0.34146079 1.479588
-0.10669809 -0.32505697 1.4085084
-0.10152434 -0.32438263 1.4055865
-0.096371993 -0.32371107 1.4026765
-0.091240935 -0.32304224 1.3997784
-0.086508825 -0.32379019 1.4030193
-0.081961311 -0.32536158 1.4098283
-0.077369452 -0.32694831 1.4167038
-0.072732583 -0.32855061 1.4236468
-0.068050057 -0.33016881 1.4306586
-0.063321263 -0.33180341 1.4377415
-0.058545414 -0.33345431 1.444895
-0.0537218 -0.33512172 1.4521201
-0.048849706 -0.33680585 1.4594177
-0.043928392 -0.33850703 1.466789
-0.038957112 -0.34022546 1.4742352
-0.18438201 -0.33500391 1.4741153
-0.17694177 -0.3308042 1.4556352
-0.1706727 -0.32860863 1.4459741
-0.16522533 -0.32790872 1.4428943
-0.1598011 -0.32721177 1.4398276
-0.15439989 -0.32651779 1.4367738
-0.14902154 -0.32582673 1.433733
-0.14366589 -0.3251386 1.430705
-0.1391097 -0.32627547 1.4357076
-0.13466784 -0.32777643 1.4423122
-0.13018507 -0.32929164 1.4489796
-0.12566148 -0.33082306 1.4557183
-0.12109473 -0.33236641 1.4625094
-0.11648495 -0.33392352 1.4693612
-0.10680017 -0.32040051 1.409856
-0.10162125 -0.31973514 1.4069282
-0.096463799 -0.31907257 1.4040127
-0.091327682 -0.31841275 1.4011092
-0.086212762 -0.31775561 1.3982177
-0.081378303 -0.3181152 1.3997999
-0.07681644 -0.31965551 1.4065777
-0.072210267 -0.32121119 1.4134232
-0.067559063 -0.32278222 1.4203361
-0.062862143 -0.32436866 1.427317
-0.058118824 -0.3259708 1.4343668
-0.05332841 -0.3275888 1.4414866
-0.048490211 -0.32922301 1.4486775
-0.043603495 -0.33087358 1.4559405
-0.038667534 -0.33254078 1.4632767
-0.033681586 -0.33422497 1.4706876
-0.18356891 -0.32835564 1.4676147
-0.17631651 -0.32452461 1.4504914
-0.17084008 -0.3238312 1.4473922
-0.16538702 -0.3231408 1.4443064
-0.15995716 -0.32245332 1.4412336
-0.15455034 -0.32176876 1.4381739
-0.14916644 -0.32108709 1.4351271
-0.1438053 -0.32040831 1.4320933
-0.13846679 -0.3197324 1.4290723
-0.13376068 -0.32052085 1.4325963
-0.12930393 -0.32199216 1.4391724
-0.12480644 -0.32347792 1.4458132
-0.12026735 -0.32497773 1.4525167
-0.11210815 -0.31639409 1.4141514
-0.10690243 -0.31573507 1.4112059
-0.10171836 -0.31507882 1.4082726
-0.096555777 -0.31442523 1.4053514
-0.091414601 -0.31377444 1.4024426
-0.086294644 -0.31312627 1.3995456
-0.081195772 -0.31248069 1.3966601
-0.076302946 -0.31259593 1.3971752
-0.071695589 -0.31397724 1.403349
-0.067075215 -0.31550193 1.4101638
-0.062409747 -0.31704152 1.4170451
-0.057698525 -0.31859621 1.4239939
-0.052940875 -0.32016623 1.4310113
-0.048136093 -0.32175177 1.4380981
-0.043283485 -0.32335308 1.4452553
-0.03838234 -0.32497048 1.4524844
-0.033431917 -0.3266041 1.4597859
-0.02843147 -0.32825425 1.4671614
-0.18276295 -0.32176578 1.4611712
-0.17648996 -0.3197282 1.4519184
-0.17100781 -0.31904441 1.4488132
-0.16554904 -0.31836355 1.4457213
-0.16011351 -0.31768554 1.4426425
-0.1547011 -0.31701043 1.4395767
-0.14931163 -0.31633821 1.436524
-0.14394498 -0.31566882 1.4334843
-0.13860099 -0.31500226 1.4304574
-0.13327952 -0.31433848 1.427443
-0.12843479 -0.31479117 1.4294988
-0.12396359 -0.31623363 1.4360492
-0.11945118 -0.3176893 1.4426595
-0.11221582 -0.31171063 1.4155097
-0.1070049 -0.31106076 1.4125586
-0.10181565 -0.31041354 1.4096196
-0.096647955 -0.30976909 1.406693
-0.091501631 -0.30912715 1.4037778
-0.086376593 -0.30848783 1.4008747
-0.081374697 -0.30823749 1.3997378
-0.076487377 -0.30841684 1.4005523
-0.071594335 -0.30859628 1.4013672
-0.066695608 -0.30877596 1.4021831
-0.061964054 -0.30982026 1.4069254
-0.057284378 -0.31132814 1.4137728
-0.052558951 -0.31285089 1.4206878
-0.04778713 -0.31438899 1.4276725
-0.04296815 -0.31594229 1.4347261
-0.038101319 -0.31751099 1.4418498
-0.033185922 -0.3190954 1.4490447
-0.028221218 -0.32069567 1.4563117
-0.18217531 -0.31559947 1.456473
-0.1766638 -0.31492242 1.4533484
-0.17117587 -0.31424823 1.450237
-0.16571137 -0.31357691 1.4471389
-0.1602702 -0.31290847 1.4440541
-0.15485217 -0.3122429 1.4409825
-0.14945713 -0.31158009 1.4379238
-0.14408495 -0.31092015 1.4348781
-0.13873547 -0.31026298 1.4318453
-0.13340856 -0.30960855 1.4288251
-0.12810408 -0.30895689 1.4258178
-0.12313189 -0.30908614 1.4264144
-0.11756173 -0.30766153 1.4198399
-0.11232371 -0.30701813 1.4168706
-0.10710753 -0.30637735 1.4139134
-0.10191307 -0.30573922 1.4109684
-0.096740194 -0.30510369 1.4080355
-0.091588788 -0.30447084 1.4051149
-0.086464994 -0.30386269 1.4023083
-0.081571743 -0.30404013 1.4031273
-0.076672696 -0.30421749 1.4039457
-0.071767911 -0.30439493 1.4047647
-0.066857398 -0.30457258 1.4055845
-0.061941143 -0.30475041 1.4064052
-0.057019144 -0.30492848 1.4072269
-0.052182823 -0.30564225 1.4105209
-0.047443397 -0.30713359 1.4174033
-0.042657498 -0.30863953 1.4243532
-0.037824433 -0.31016034 1.4313717
-0.032943521 -0.31169638 1.4384604
-0.028014055 -0.31324807 1.4456214
-0.17683801 -0.31010723 1.4547815
-0.1713443 -0.30944267 1.451664
-0.16587409 -0.308781 1.4485599
-0.16042721 -0.3081221 1.4454689
-0.15500353 -0.30746603 1.442391
-0.1496029 -0.30681276 1.4393264
-0.1442252 -0.30616224 1.4362748
-0.13887022 -0.30551448 1.433236
-0.13353789 -0.3048695 1.4302102
-0.12822798 -0.30422717 1.4271969
-0.12294042 -0.30358756 1.4241964
-0.11767504 -0.30295065 1.4212084
-0.11243171 -0.30231637 1.4182329
-0.10721029 -0.30168477 1.41527
-0.10201064 -0.30105579 1.4123192
-0.096832626 -0.30042943 1.4093808
-0.091676101 -0.29980561 1.4064544
-0.086674757 -0.299647 1.4057103
-0.081769742 -0.29982239 1.4065331
-0.076858923 -0.29999775 1.4073557
-0.071942322 -0.30017313 1.4081784
-0.067019969 -0.30034873 1.4090023
-0.06209185 -0.30052456 1.4098271
-0.057157964 -0.30070058 1.4106529
-0.052218288 -0.3008768 1.4114796
-0.047272824 -0.30105323 1.4123073
-0.042368226 -0.30156207 1.4146943
-0.03761518 -0.30342913 1.4234531
-0.032802921 -0.30531949 1.4323212
-0.027930323 -0.30723357 1.4413005
-0.17151308 -0.30462772 1.453094
-0.16603711 -0.30397564 1.4499836
-0.16058455 -0.30332637 1.4468865
-0.15515523 -0.30267987 1.4438027
-0.14974903 -0.30203617 1.4407321
-0.14436574 -0.30139515 1.4376745
-0.13900527 -0.30075687 1.4346298
-0.13366745 -0.30012128 1.4315979
-0.12835215 -0.29948837 1.428579
-0.12305924 -0.29885814 1.4255728
-0.11778852 -0.2982305 1.4225789
-0.11253991 -0.29760554 1.4195977
-0.10731324 -0.29698315 1.416629
-0.10210839 -0.29636338 1.4136726
-0.096925221 -0.29574621 1.4107286
-0.091796577 -0.29523766 1.4083028
-0.086885534 -0.29541081 1.4091288
-0.081968717 -0.29558414 1.4099556
-0.077046059 -0.29575744 1.4107822
-0.072117582 -0.29593077 1.4116091
-0.067183331 -0.29610431 1.4124368
-0.062243294 -0.29627809 1.4132657
-0.057297453 -0.29645205 1.4140955
-0.052345801 -0.29662621 1.4149263
-0.047388326 -0.29680055 1.415758
-0.042608164 -0.29825714 1.422706
-0.037829537 -0.3001143 1.4315648
-0.032991022 -0.30199474 1.4405346
-0.028091492 -0.30389887 1.4496174
-0.16074222 -0.29852128 1.4483072
-0.15530726 -0.2978844 1.4452174
-0.1498954 -0.29725021 1.4421405
-0.14450657 -0.29661876 1.4390769
-0.13914059 -0.29598999 1.4360263
-0.1337973 -0.29536384 1.4329886
-0.12847658 -0.29474038 1.4299638
-0.12317825 -0.29411951 1.4269515
-0.11790222 -0.29350126 1.4239521
-0.11264832 -0.2928856 1.4209652
-0.10741639 -0.29227251 1.4179907
-0.10220633 -0.29166198 1.4150286
-0.097017996 -0.29105398 1.4120789
-0.092020236 -0.2909829 1.411734
-0.087097339 -0.29115397 1.4125639
-0.082168661 -0.29132524 1.4133949
-0.077234089 -0.2914964 1.4142252
-0.072293706 -0.2916677 1.4150563
-0.067347497 -0.29183915 1.4158882
-0.062395476 -0.29201084 1.4167211
-0.057437621 -0.29218268 1.4175549
-0.052473936 -0.29235479 1.4183898
-0.04759606 -0.29309151 1.4219642
-0.042850841 -0.29491463 1.4308091
-0.038046349 -0.29676151 1.4397695
-0.033181291 -0.29863161 1.4488425
-0.15545954 -0.29307947 1.4466344
-0.15004209 -0.29245493 1.4435518
-0.14464767 -0.29183304 1.4404821
-0.13927616 -0.29121381 1.4374256
-0.13392739 -0.29059714 1.4343818
-0.12860122 -0.28998315 1.4313512
-0.12329753 -0.28937176 1.4283333
-0.11801613 -0.28876287 1.4253279
-0.11275692 -0.28815657 1.4223351
-0.10751975 -0.2875528 1.419355
-0.10230446 -0.28695151 1.4163871
-0.097173959 -0.2865386 1.4143488
-0.092244975 -0.28670737 1.4151819
-0.08731018 -0.28687632 1.4160159
-0.082369573 -0.28704551 1.4168509
-0.077423051 -0.28721455 1.4176854
-0.072470672 -0.28738371 1.4185203
-0.067512468 -0.2875531 1.4193565
-0.062548406 -0.28772268 1.4201934
-0.057578485 -0.28789243 1.4210314
-0.052602693 -0.28806236 1.4218702
-0.04786687 -0.28972051 1.4300548
-0.0430963 -0.2915338 1.4390051
-0.038265653 -0.29337001 1.4480686
-0.15018907 -0.28765026 1.4449658
-0.14478907 -0.28703797 1.4418901
-0.13941202 -0.28642833 1.4388276
-0.13405773 -0.2858212 1.4357779
-0.12872612 -0.28521672 1.4327413
-0.12341702 -0.28461477 1.4297175
-0.11813027 -0.28401536 1.4267064
-0.11286574 -0.28341842 1.4237078
-0.10762329 -0.28282401 1.4207219
-0.10240278 -0.28223205 1.4177483
-0.097411722 -0.28224424 1.4178095
-0.092470817 -0.28241089 1.4186467
-0.087524071 -0.28257772 1.4194847
-0.082571477 -0.28274477 1.4203238
-0.077612944 -0.28291172 1.4211625
-0.072648525 -0.28307873 1.4220015
-0.067678235 -0.28324595 1.4228415
-0.06270209 -0.28341344 1.4236828
-0.057720035 -0.28358105 1.4245248
-0.052878011 -0.28453407 1.4293121
-0.048140902 -0.28631169 1.4382417
-0.043344587 -0.28811404 1.4472955
-0.038487505 -0.28993922 1.4564641
-0.14493072 -0.28223351 1.4433008
-0.13954811 -0.28163347 1.4402323
-0.13418835 -0.28103599 1.4371768
-0.12885126 -0.28044099 1.4341341
-0.12353674 -0.27984855 1.4311044
-0.11824463 -0.27925861 1.4280876
-0.11297477 -0.27867109 1.4250832
-0.10772704 -0.2780861 1.4220915
-0.10259769 -0.27776447 1.4204469
-0.097650662 -0.2779288 1.4212872
-0.092697762 -0.27809328 1.4221283
-0.087738998 -0.27825797 1.4229705
-0.082774363 -0.27842286 1.4238137
-0.077803761 -0.27858767 1.4246565
-0.07282725 -0.27875257 1.4254998
-0.067844838 -0.27891767 1.426344
-0.062856518 -0.27908292 1.4271892
-0.057883952 -0.27935299 1.4285703
-0.05318043 -0.28109658 1.4374866
-0.048418101 -0.28286365 1.4465232
-0.04359575 -0.28465459 1.4556819
-0.13968448 -0.27682924 1.4416397
-0.1343192 -0.27624136 1.4385782
-0.12897666 -0.27565601 1.4355298
-0.1236567 -0.27507305 1.432494
-0.11835921 -0.27449265 1.4294714
-0.11308402 -0.27391461 1.4264612
-0.10783098 -0.273339 1.4234636
-0.10284981 -0.27342999 1.4239374
-0.097890772 -0.27359214 1.4247819
-0.092925832 -0.27375448 1.4256272
-0.087954998 -0.27391699 1.4264736
-0.082978256 -0.27407971 1.427321
-0.077995531 -0.27424234 1.4281679
-0.073006853 -0.27440509 1.4290154
-0.068012252 -0.27456799 1.4298638
-0.063011721 -0.2747311 1.4307132
-0.058214832 -0.2758877 1.4367363
-0.053486336 -0.27761954 1.4457554
-0.048698515 -0.27937567 1.4549007
-0.043849837 -0.28115484 1.464166
-0.13445032 -0.27143744 1.4399825
-0.12910229 -0.27086166 1.436928
-0.1237769 -0.27028835 1.4338865
-0.11847401 -0.26971743 1.4308579
-0.11319347 -0.26914892 1.4278419
-0.10806841 -0.2689144 1.4265978
-0.10310318 -0.26907417 1.4274453
-0.098132066 -0.26923412 1.4282939
-0.093155026 -0.26939425 1.4291434
-0.088172056 -0.26955456 1.4299939
-0.083183162 -0.2697151 1.4308455
-0.078188241 -0.26987553 1.4316967
-0.073187344 -0.27003607 1.4325483
-0.068180494 -0.2701968 1.4334009
-0.063243978 -0.27068424 1.4359868
-0.05854952 -0.27238253 1.4449964
-0.0537958 -0.27410242 1.4541203
-0.048982188 -0.27584705 1.4633757
-0.12922816 -0.26605797 1.438329
-0.12389733 -0.26549429 1.4352816
-0.11858904 -0.26493296 1.432247
-0.11330654 -0.26438192 1.4292681
-0.10833512 -0.26453924 1.4301187
-0.10335781 -0.26469684 1.4309705
-0.098374538 -0.26485452 1.4318231
-0.093385346 -0.26501247 1.4326769
-0.088390186 -0.26517057 1.4335316
-0.083389081 -0.26532888 1.4343876
-0.078381911 -0.2654871 1.4352429
-0.073368736 -0.26564541 1.4360987
-0.068349577 -0.2658039 1.4369556
-0.063607387 -0.26715103 1.4442382
-0.058888078 -0.26883689 1.453352
-0.054109 -0.27054501 1.4625862
-0.049269192 -0.27227712 1.4719502
-0.11870427 -0.26013914 1.4336388
-0.1135867 -0.25998735 1.4328022
-0.10860317 -0.26014248 1.4336572
-0.10361368 -0.26029778 1.4345131
-0.098618232 -0.26045328 1.43537
-0.093616813 -0.26060897 1.436228
-0.088609405 -0.26076484 1.4370869
-0.083596006 -0.26092088 1.4379469
-0.078576542 -0.2610769 1.4388068
-0.073551022 -0.26123294 1.4396667
-0.068659946 -0.26192498 1.4434806
-0.063974991 -0.26357698 1.4525849
-0.059230573 -0.26524997 1.4618047
-0.054425873 -0.26694593 1.4711514
-0.11386827 -0.25557101 1.4363539
-0.10887254 -0.25572386 1.4372131
-0.10387082 -0.2558769 1.4380732
-0.098863132 -0.25603014 1.4389344
-0.093849428 -0.25618356 1.4397967
-0.088829719 -0.2563372 1.44066
-0.083803982 -0.25649098 1.4415243
-0.078772135 -0.2566447 1.4423883
-0.073734224 -0.25679851 1.4432527
-0.069056556 -0.25832266 1.4518187
-0.06434688 -0.2599614 1.4610287
-0.059577074 -0.26162106 1.4703563
-0.10412925 -0.25143406 1.4416511
-0.099109247 -0.25158501 1.4425167
-0.094083205 -0.25173613 1.4433832
-0.089051127 -0.25188747 1.4442508
-0.084012985 -0.25203896 1.4451194
-0.078968711 -0.25219038 1.4459877
-0.07413274 -0.25307384 1.4510531
-0.069457754 -0.25467843 1.4602535
-0.064723112 -0.25630352 1.4695712
-0.059927709 -0.25794971 1.47901
-0.089273624 -0.24741548 1.4478594
-0.084223032 -0.24756467 1.4487325
-0.079203591 -0.2478306 1.4502887
-0.074563213 -0.24940109 1.4594791
-0.069863655 -0.25099164 1.468787
-0.065103769 -0.25260264 1.4782143
