# .PCD v0.7 - Point Cloud Data file format
VERSION 0.7
FIELDS x y z
SIZE 4 4 4
TYPE F F F
COUNT 1 1 1
WIDTH 581
HEIGHT 1
VIEWPOINT 0 0 0 1 0 0 0
POINTS 581
DATA ascii
-0.44380361 -0.45383307 1.423275
-0.43866712 -0.45370713 1.4228801
-0.47487515 -0.44974947 1.4262278
-0.46971941 -0.44962445 1.4258313
-0.46456644 -0.44949943 1.4254348
-0.45941639 -0.4493745 1.4250387
-0.45426926 -0.44924968 1.4246429
-0.4491249 -0.4491249 1.4242471
-0.44398344 -0.44900021 1.4238517
-0.43884477 -0.44887552 1.4234563
-0.433709 -0.44875094 1.4230613
-0.4304229 -0.45055965 1.428797
-0.48022881 -0.44502878 1.4272041
-0.47506788 -0.44490486 1.4268067
-0.46991003 -0.44478115 1.42641
-0.46475503 -0.4446575 1.4260135
-0.45960283 -0.44453388 1.425617
-0.45445344 -0.44441029 1.4252206
-0.44930699 -0.44428679 1.4248246
-0.44416335 -0.44416335 1.4244287
-0.43902254 -0.44403994 1.4240329
-0.43388465 -0.44391668 1.4236376
-0.42874962 -0.44379345 1.4232424
-0.42361742 -0.4436703 1.4228475
-0.42882201 -0.45449999 1.4575782
-0.4855898 -0.44030166 1.4281819
-0.48042399 -0.44017905 1.4277842
-0.47526082 -0.44005632 1.4273862
-0.47010088 -0.43993399 1.4269893
-0.46494368 -0.43981159 1.4265924
-0.45978934 -0.43968925 1.4261955
-0.4546378 -0.43956694 1.4257988
-0.44948915 -0.43944472 1.4254023
-0.44434345 -0.43932262 1.4250063
-0.43920049 -0.43920049 1.4246101
-0.43406042 -0.43907848 1.4242144
-0.42892328 -0.43895656 1.4238189
-0.42378893 -0.4388347 1.4234236
-0.41865745 -0.43871289 1.4230286
-0.42188036 -0.44744888 1.451365
-0.49095812 -0.43556798 1.4291608
-0.48578724 -0.43544659 1.4287626
-0.48061928 -0.43532532 1.4283646
-0.47545412 -0.43520406 1.4279667
-0.47029158 -0.43508258 1.4275682
-0.4651325 -0.43496177 1.4271717
-0.45997587 -0.43484059 1.4267741
-0.45482236 -0.43471971 1.4263775
-0.44967148 -0.43459868 1.4259804
-0.44452363 -0.4344779 1.4255841
-0.43937859 -0.43435711 1.4251878
-0.43423644 -0.43423644 1.4247918
-0.42909709 -0.43411577 1.4243959
-0.42396063 -0.43399519 1.4240003
-0.41882703 -0.4338747 1.423605
-0.41369626 -0.43375427 1.4232098
-0.41499764 -0.44045761 1.4452044
-0.49115789 -0.43070769 1.4297423
-0.48598489 -0.43058765 1.4293438
-0.48081475 -0.43046767 1.4289455
-0.47586343 -0.43054309 1.429196
-0.47279698 -0.43234375 1.4351733
-0.46900502 -0.43351275 1.4390538
-0.46016258 -0.429988 1.4273533
-0.45500702 -0.42986852 1.4269567
-0.44985431 -0.4297491 1.4265603
-0.44470397 -0.42962927 1.4261625
-0.43955684 -0.42950982 1.425766
-0.43441254 -0.42939043 1.4253696
-0.42927107 -0.42927107 1.4249735
-0.4241325 -0.42915183 1.4245776
-0.41899678 -0.42903262 1.4241819
-0.41386387 -0.42891347 1.4237864
-0.40873387 -0.42879441 1.4233912
-0.40817305 -0.43352541 1.4390959
-0.49653593 -0.4259623 1.4307235
-0.49135786 -0.42584348 1.4303244
-0.48618266 -0.42572471 1.4299256
-0.48122627 -0.42579705 1.4301685
-0.47920236 -0.42849311 1.439224
-0.47690657 -0.43100113 1.4476479
-0.4743112 -0.43328968 1.4553348
-0.47128978 -0.43523484 1.4618682
-0.4551917 -0.42501327 1.4275359
-0.45003667 -0.42489496 1.4271386
-0.44488448 -0.4247767 1.4267414
-0.4397352 -0.42465857 1.4263445
-0.43458873 -0.42454043 1.4259478
-0.42944518 -0.42442244 1.4255514
-0.42430446 -0.42430446 1.4251552
-0.41916659 -0.42418656 1.4247591
-0.41403159 -0.42406872 1.4243634
-0.40889946 -0.42395097 1.4239678
-0.40377012 -0.42383322 1.4235724
-0.40140596 -0.42665163 1.4330388
-0.5019213 -0.42121035 1.431706
-0.49673817 -0.42109275 1.4313062
-0.49155787 -0.42097521 1.4309067
-0.48638043 -0.42085767 1.4305072
-0.4829044 -0.42222533 1.4351559
-0.48133135 -0.42530334 1.4456182
-0.47954372 -0.42825562 1.455653
-0.47751921 -0.4310579 1.465178
-0.45021948 -0.42003718 1.4277183
-0.44506514 -0.41992021 1.4273207
-0.43991369 -0.41980335 1.4269235
-0.43476513 -0.41968656 1.4265265
-0.42961943 -0.41956985 1.4261298
-0.42447656 -0.41945317 1.4257332
-0.41933659 -0.41933659 1.425337
-0.41419944 -0.41922003 1.4249408
-0.40906516 -0.41910356 1.4245449
-0.39260778 -0.40723914 1.3842174
-0.39038 -0.41002175 1.3936756
-0.39469564 -0.41983548 1.4270327
-0.3992126 -0.43011937 1.461988
-0.50212592 -0.41633555 1.4322895
-0.49694043 -0.41621915 1.4318891
-0.49175805 -0.41610295 1.4314893
-0.48657843 -0.41598675 1.4310895
-0.48352551 -0.41770527 1.4370017
-0.48242739 -0.42116678 1.44891
-0.48109365 -0.42449439 1.4603578
-0.45040289 -0.41517586 1.4282999
-0.44524631 -0.41506013 1.4279017
-0.44009268 -0.41494453 1.4275041
-0.43494189 -0.41482896 1.4271065
-0.42979395 -0.41471347 1.4267092
-0.42464891 -0.41459805 1.4263121
-0.41950676 -0.41448271 1.4259154
-0.41436759 -0.41436759 1.4255192
-0.39775664 -0.40263709 1.3851637
-0.39276698 -0.40252516 1.3847786
-0.38778013 -0.40241334 1.3843939
-0.38389742 -0.4034591 1.3879915
-0.38804039 -0.41307524 1.4210733
-0.39237663 -0.42315125 1.4557371
-0.50233066 -0.41145673 1.4328735
-0.49714303 -0.4113417 1.4324728
-0.49195829 -0.41122669 1.4320723
-0.48677647 -0.41111174 1.431672
-0.48276281 -0.4119913 1.4347351
-0.48231354 -0.41596353 1.4485681
-0.48154232 -0.41974011 1.4617198
-0.45058545 -0.41030964 1.4288788
-0.44542697 -0.41019544 1.4284811
-0.44027141 -0.41008136 1.4280838
-0.43511853 -0.40996715 1.4276861
-0.42996848 -0.40985301 1.4272885
-0.42482132 -0.4097389 1.4268912
-0.41967705 -0.4096249 1.4264942
-0.40291247 -0.39802867 1.386111
-0.39791802 -0.39791802 1.3857256
-0.39292631 -0.39780736 1.3853403
-0.38793734 -0.39769676 1.3849552
-0.38295114 -0.39758623 1.3845702
-0.37796775 -0.39747578 1.3841856
-0.3814393 -0.40636998 1.4151591
-0.38559887 -0.41624248 1.4495395
-0.50253558 -0.40657401 1.4334581
-0.49734575 -0.40646023 1.433057
-0.49215889 -0.40634656 1.4326562
-0.4869749 -0.40623295 1.4322556
-0.48179436 -0.40611985 1.4318569
-0.48014233 -0.40901014 1.4420471
-0.48044184 -0.41364244 1.4583793
-0.45593268 -0.40555337 1.4298596
-0.45076904 -0.4054403 1.429461
-0.44560826 -0.40532729 1.4290625
-0.44045037 -0.40521434 1.4286643
-0.43529534 -0.40510145 1.4282663
-0.43014321 -0.40498862 1.4278685
-0.42499387 -0.40487581 1.4274708
-0.40807536 -0.39341396 1.3870597
-0.40307605 -0.3933045 1.3866738
-0.39807948 -0.39319506 1.3862879
-0.39308572 -0.39308572 1.3859024
-0.38809466 -0.39297637 1.3855169
-0.38310644 -0.39286712 1.3851317
-0.37812102 -0.39275795 1.3847468
-0.37313828 -0.39264876 1.3843619
-0.37489292 -0.39972028 1.4092939
-0.37887856 -0.40939227 1.4433944
-0.49754867 -0.40157482 1.4336417
-0.49235958 -0.40146244 1.4332404
-0.48717371 -0.40135038 1.4328403
-0.4819904 -0.40123808 1.4324394
-0.47681051 -0.40112633 1.4320405
-0.47163314 -0.40101427 1.4316405
-0.46645832 -0.40090203 1.4312397
-0.46128717 -0.40079048 1.4308416
-0.45611826 -0.40067846 1.4304416
-0.45095244 -0.4005667 1.4300426
-0.44578955 -0.400455 1.4296439
-0.44062951 -0.40034339 1.4292454
-0.43547237 -0.40023181 1.4288471
-0.43031806 -0.40012029 1.4284489
-0.42516661 -0.40000883 1.428051
-0.40824115 -0.38868469 1.3876233
-0.40323979 -0.38857651 1.3872371
-0.3982411 -0.38846833 1.3868508
-0.39324525 -0.3883602 1.3864648
-0.38825217 -0.38825217 1.3860792
-0.38326189 -0.3881442 1.3856937
-0.37827432 -0.38803625 1.3853083
-0.37328959 -0.3879284 1.3849232
-0.37018475 -0.38979718 1.3915949
-0.36918771 -0.39396539 1.4064757
-0.37221313 -0.40259787 1.437294
-0.49775174 -0.39668539 1.4342268
-0.49256054 -0.39657438 1.4338254
-0.48737252 -0.39646366 1.4334251
-0.48218742 -0.39635301 1.433025
-0.47700477 -0.39624205 1.4326239
-0.471825 -0.39613116 1.4322228
-0.46664831 -0.39602047 1.4318227
-0.46147484 -0.39591011 1.4314237
-0.45630401 -0.39579961 1.4310242
-0.45113605 -0.39568916 1.4306248
-0.44597098 -0.39557877 1.4302257
-0.44080877 -0.39546844 1.4298269
-0.43564948 -0.3953582 1.4294282
-0.43049306 -0.395248 1.4290298
-0.41341332 -0.38405854 1.388574
-0.40840709 -0.38395157 1.3881873
-0.40340361 -0.38384464 1.3878007
-0.3984029 -0.38373774 1.3874142
-0.39340493 -0.3836309 1.3870279
-0.38840979 -0.38352412 1.3866419
-0.3834174 -0.3834174 1.386256
-0.3784278 -0.38331074 1.3858703
-0.37344104 -0.38320422 1.3854852
-0.36988345 -0.38458079 1.3904623
-0.36888406 -0.38868991 1.4053189
-0.36786306 -0.39288777 1.4204963
-0.36681977 -0.39717725 1.4360051
-0.49795499 -0.391792 1.4348124
-0.4927617 -0.39168236 1.4344109
-0.48757157 -0.39157304 1.4340105
-0.48238376 -0.39146325 1.4336085
-0.47719911 -0.39135376 1.4332075
-0.47201738 -0.39124435 1.4328068
-0.4668386 -0.39113504 1.4324065
-0.46166265 -0.39102575 1.4320062
-0.45648974 -0.39091662 1.4316067
-0.45131978 -0.39080766 1.4312075
-0.44615257 -0.39069855 1.4308081
-0.44098824 -0.39058959 1.430409
-0.43582675 -0.39048061 1.4300098
-0.41859257 -0.37942603 1.389526
-0.41358149 -0.37932029 1.3891388
-0.40857315 -0.37921461 1.3887517
-0.40356758 -0.37910894 1.3883648
-0.39856479 -0.37900332 1.387978
-0.39356476 -0.37889776 1.3875914
-0.38856754 -0.37879226 1.387205
-0.38357306 -0.37868679 1.3868188
-0.37858143 -0.37858143 1.386433
-0.37359262 -0.37847617 1.3860475
-0.36958265 -0.37937292 1.3893316
-0.36858088 -0.38342306 1.4041638
-0.36755744 -0.38756058 1.4193162
-0.36651173 -0.39178839 1.4347992
-0.36544293 -0.39610946 1.4506238
-0.49815837 -0.38689458 1.4353985
-0.49296311 -0.38678643 1.4349972
-0.48777035 -0.38667804 1.4345951
-0.48258063 -0.38656983 1.4341936
-0.47739384 -0.38646168 1.4337924
-0.47220996 -0.38635361 1.4333915
-0.46702898 -0.38624558 1.4329907
-0.46185112 -0.38613781 1.4325908
-0.45667577 -0.38602978 1.4321901
-0.45150369 -0.38592216 1.4317907
-0.4463343 -0.3858144 1.4313909
-0.4411678 -0.38570672 1.4309914
-0.42377895 -0.37478715 1.3904793
-0.41876295 -0.37468264 1.3900915
-0.41374978 -0.37457821 1.3897041
-0.40873933 -0.37447375 1.3893166
-0.4037317 -0.37436938 1.3889294
-0.39872679 -0.37426502 1.3885422
-0.39372468 -0.37416074 1.3881552
-0.3887254 -0.37405652 1.3877686
-0.38372892 -0.37395239 1.3873823
-0.37873521 -0.37384832 1.3869962
-0.37374434 -0.37374434 1.3866104
-0.36928236 -0.37417352 1.3882027
-0.36827818 -0.37816486 1.4030107
-0.36725235 -0.38224223 1.418138
-0.3662042 -0.38640857 1.4335953
-0.36513284 -0.3906666 1.4493929
-0.498362 -0.3819932 1.4359852
-0.49316433 -0.38188621 1.435583
-0.48796955 -0.38177928 1.435181
-0.48277771 -0.38167241 1.4347793
-0.47758874 -0.38156563 1.4343778
-0.47240269 -0.38145885 1.4339764
-0.46721956 -0.38135216 1.4335754
-0.46203932 -0.38124555 1.4331746
-0.45686245 -0.3811394 1.4327755
-0.45168769 -0.38103265 1.4323742
-0.44651616 -0.38092622 1.4319742
-0.44134751 -0.38081986 1.4315743
-0.42395157 -0.37003866 1.3910457
-0.41893348 -0.36993542 1.3906577
-0.4139182 -0.36983225 1.3902698
-0.40890566 -0.36972907 1.389882
-0.40389591 -0.36962596 1.3894943
-0.39888895 -0.3695229 1.3891069
-0.39388478 -0.3694199 1.3887197
-0.38888341 -0.36931697 1.3883327
-0.38388488 -0.36921412 1.3879461
-0.37888914 -0.36911136 1.3875599
-0.37389615 -0.36900863 1.3871737
-0.36898255 -0.36898255 1.3870757
-0.36797601 -0.37291527 1.4018595
-0.36694777 -0.37693274 1.4169619
-0.36589715 -0.38103771 1.4323933
-0.36482334 -0.38523304 1.4481643
-0.36372563 -0.38952178 1.4642864
-0.49336594 -0.37698218 1.4361699
-0.48816898 -0.37687656 1.4357675
-0.48297495 -0.37677103 1.4353654
-0.47778383 -0.37666556 1.4349637
-0.47259557 -0.37656012 1.434562
-0.46741027 -0.37645477 1.4341606
-0.46222785 -0.37634945 1.4337595
-0.45704859 -0.37624443 1.4333593
-0.45187187 -0.37613916 1.4329582
-0.44669819 -0.37603408 1.4325579
-0.4291473 -0.36538827 1.3920012
-0.42412433 -0.36528626 1.3916125
-0.4191041 -0.36518428 1.391224
-0.41408676 -0.36508238 1.3908359
-0.40907213 -0.36498052 1.3904477
-0.40406027 -0.36487865 1.3900597
-0.39905125 -0.36477691 1.389672
-0.394045 -0.36467516 1.3892845
-0.3890416 -0.36457357 1.3888974
-0.38404095 -0.364472 1.3885105
-0.37904316 -0.36437052 1.3881239
-0.37404811 -0.36426908 1.3877374
-0.36905584 -0.36416769 1.3873512
-0.36767432 -0.36767432 1.4007102
-0.3666437 -0.37163204 1.4157877
-0.3655906 -0.37567586 1.4311932
-0.36451435 -0.37980866 1.4469378
-0.36341411 -0.38403335 1.4630324
-0.48836851 -0.37196979 1.4363544
-0.48317233 -0.3718656 1.4359521
-0.47797903 -0.37176147 1.43555
-0.4727886 -0.37165734 1.4351479
-0.46760112 -0.3715533 1.4347461
-0.46241656 -0.37144938 1.4343448
-0.45723504 -0.37134558 1.433944
-0.45205626 -0.37124172 1.433543
-0.43435013 -0.36073148 1.3929578
-0.42932227 -0.36063072 1.3925687
-0.42429718 -0.36052999 1.3921797
-0.41927493 -0.36042935 1.3917911
-0.41425544 -0.3603287 1.3914025
-0.4092387 -0.36022809 1.391014
-0.40422478 -0.36012754 1.3906257
-0.39921364 -0.36002702 1.3902376
-0.39420536 -0.35992661 1.3898499
-0.38919985 -0.3598263 1.3894625
-0.38419721 -0.35972604 1.3890754
-0.3791973 -0.35962582 1.3886883
-0.3742002 -0.35952568 1.3883016
-0.36920586 -0.35942557 1.3879151
-0.36737311 -0.36244193 1.3995627
-0.36634013 -0.36634013 1.4146155
-0.36528459 -0.370323 1.4299953
-0.36420587 -0.37439346 1.4457133
-0.36310318 -0.3785544 1.4617807
-0.48336989 -0.36695617 1.4365392
-0.47817442 -0.36685339 1.4361367
-0.47298181 -0.3667506 1.4357344
-0.46779215 -0.3666479 1.4353323
-0.46260539 -0.36654526 1.4349304
-0.45742178 -0.36644286 1.4345297
-0.4395602 -0.35606834 1.393916
-0.43452743 -0.35596877 1.3935263
-0.42949739 -0.35586926 1.3931367
-0.42447022 -0.35576984 1.3927475
-0.41944584 -0.35567045 1.3923584
-0.41442424 -0.35557109 1.3919694
-0.40940541 -0.35547176 1.3915806
-0.40438941 -0.35537252 1.3911921
-0.39937624 -0.35527334 1.3908038
-0.39436585 -0.35517421 1.3904158
-0.38935834 -0.35507521 1.3900282
-0.38435358 -0.35497621 1.3896407
-0.37935159 -0.35487729 1.3892534
-0.37435237 -0.35477838 1.3888662
-0.36935601 -0.35467958 1.3884795
-0.36707243 -0.35721815 1.3984172
-0.36603701 -0.36105689 1.413445
-0.36497909 -0.36497909 1.4287994
-0.36389789 -0.36898738 1.4444908
-0.36279276 -0.37308472 1.4605309
-0.47836992 -0.36194128 1.4367239
-0.4731752 -0.36183986 1.4363214
-0.46798334 -0.36173847 1.4359189
-0.46279439 -0.36163715 1.4355167
-0.45760834 -0.36153588 1.4351147
-0.43973967 -0.35130042 1.3944851
-0.43470475 -0.35120216 1.3940951
-0.42967266 -0.35110396 1.3937052
-0.4246434 -0.35100579 1.3933157
-0.41961688 -0.35090768 1.3929262
-0.41459322 -0.35080963 1.392537
-0.40957227 -0.35071158 1.3921478
-0.40455422 -0.35061365 1.391759
-0.39953896 -0.35051578 1.3913705
-0.39452648 -0.35041794 1.3909822
-0.38951689 -0.35032022 1.3905942
-0.38451001 -0.3502225 1.3902063
-0.37950596 -0.35012487 1.3898188
-0.37450472 -0.35002729 1.3894315
-0.36950621 -0.34992972 1.3890442
-0.36677217 -0.35200283 1.3972733
-0.3657344 -0.35578245 1.4122765
-0.36467406 -0.35964409 1.4276053
-0.36359048 -0.36359048 1.4432704
-0.36248285 -0.36762443 1.4592832
-0.47336867 -0.35692504 1.4369087
-0.46817467 -0.35682502 1.436506
-0.46298355 -0.35672504 1.4361035
-0.4449591 -0.3466256 1.3954452
-0.43991926 -0.34652856 1.3950546
-0.43488225 -0.34643161 1.3946643
-0.42984805 -0.3463347 1.3942741
-0.4248167 -0.34623787 1.3938843
-0.41978809 -0.34614104 1.3934945
-0.41476226 -0.34604424 1.3931048
-0.40973929 -0.34594753 1.3927155
-0.40471914 -0.34585091 1.3923265
-0.3997018 -0.34575433 1.3919376
-0.39468729 -0.34565783 1.3915491
-0.38967556 -0.34556136 1.3911607
-0.38466662 -0.34546494 1.3907726
-0.37966049 -0.34536856 1.3903847
-0.37465715 -0.34527227 1.389997
-0.37058592 -0.3460438 1.393103
-0.36851576 -0.34872967 1.4039158
-0.36641318 -0.35145754 1.4148976
-0.3643696 -0.35431802 1.4264133
-0.36328357 -0.3582027 1.4420522
-0.36217347 -0.36217347 1.4580377
-0.46836618 -0.35190755 1.4370936
-0.45018578 -0.3419444 1.3964068
-0.44514099 -0.34184861 1.3960156
-0.44009906 -0.34175289 1.3956248
-0.43505993 -0.34165725 1.3952341
-0.43002364 -0.34156165 1.3948437
-0.42499015 -0.34146607 1.3944534
-0.41995946 -0.34137055 1.3940634
-0.41493151 -0.34127504 1.3936733
-0.40990648 -0.34117964 1.3932837
-0.40488425 -0.3410843 1.3928944
-0.39986479 -0.34098899 1.3925052
-0.3948482 -0.34089381 1.3921164
-0.38983437 -0.34079862 1.3917277
-0.38482338 -0.34070349 1.3913393
-0.3798151 -0.34060839 1.3909509
-0.37505341 -0.34073478 1.3914671
-0.37302029 -0.34337628 1.4022542
-0.37095544 -0.34605911 1.4132102
-0.36885804 -0.34878412 1.4243383
-0.36672735 -0.35155243 1.4356433
-0.3645626 -0.35436502 1.4471292
-0.36236289 -0.35722297 1.4588003
-0.4554196 -0.3372567 1.3973695
-0.45036989 -0.33716217 1.3969779
-0.44532305 -0.33706772 1.3965865
-0.44027898 -0.33697328 1.3961953
-0.43523774 -0.33687893 1.3958043
-0.43019933 -0.3367846 1.3954135
-0.42516372 -0.33669034 1.395023
-0.42013091 -0.3365961 1.3946325
-0.41510093 -0.33650193 1.3942423
-0.41007376 -0.33640781 1.3938524
-0.40504944 -0.33631378 1.3934628
-0.40002793 -0.33621979 1.3930733
-0.39500922 -0.33612585 1.3926841
-0.38999331 -0.33603197 1.3922951
-0.3849802 -0.33593813 1.3919063
-0.37996989 -0.33584437 1.3915178
-0.37751418 -0.33803558 1.4005967
-0.37548688 -0.34067354 1.4115267
-0.37342763 -0.34335291 1.4226283
-0.37133574 -0.34607479 1.433906
-0.36921045 -0.34884021 1.445364
-0.36705056 -0.35164985 1.4570053
-0.36485514 -0.35450464 1.4688337
-0.45055419 -0.33237603 1.3975495
-0.4455052 -0.33228287 1.3971578
-0.44045898 -0.33218974 1.3967662
-0.43541566 -0.3320967 1.3963749
-0.43037516 -0.33200371 1.3959839
-0.42533743 -0.3319107 1.3955929
-0.42030251 -0.33181778 1.3952022
-0.41527045 -0.33172491 1.3948117
-0.41024122 -0.33163214 1.3944216
-0.40521482 -0.33153939 1.3940316
-0.40019122 -0.33144671 1.3936419
-0.39517036 -0.33135402 1.3932523
-0.39015236 -0.33126143 1.3928629
-0.38513717 -0.33116889 1.3924738
-0.3819975 -0.33270749 1.3989432
-0.38000751 -0.33530074 1.409847
-0.37798625 -0.33793473 1.4209223
-0.37593299 -0.34061044 1.4321729
-0.37384638 -0.3433283 1.4436008
-0.37172598 -0.34608969 1.4552116
-0.36957115 -0.34889585 1.4670107
-0.44568753 -0.32749414 1.3977296
-0.44063926 -0.32740235 1.3973378
-0.43559378 -0.32731059 1.3969462
-0.43055114 -0.32721886 1.3965547
-0.4255113 -0.32712719 1.3961635
-0.42047432 -0.32703558 1.3957725
-0.41544014 -0.32694402 1.3953817
-0.41040879 -0.32685253 1.3949912
-0.40538028 -0.32676107 1.3946009
-0.40035456 -0.32666969 1.3942108
-0.39533165 -0.32657832 1.3938209
-0.39031151 -0.32648697 1.3934311
-0.3864702 -0.32739195 1.3972934
-0.3845174 -0.32994074 1.4081715
-0.38253388 -0.33252946 1.4192201
-0.38051826 -0.33515847 1.4304405
-0.37847048 -0.33782935 1.4418398
-0.37638983 -0.34054318 1.4534223
-0.37427545 -0.34330094 1.4651922
-0.44081956 -0.32261097 1.3979096
-0.435772 -0.32252052 1.3975177
-0.43072724 -0.3224301 1.397126
-0.42568535 -0.32233977 1.3967345
-0.42064625 -0.32224947 1.3963432
-0.41560999 -0.3221592 1.3959521
-0.41057655 -0.32206902 1.3955613
-0.40554589 -0.32197884 1.3951706
-0.40051806 -0.32188874 1.3947802
-0.39549303 -0.32179868 1.3943899
-0.39093238 -0.32208896 1.3956476
-0.38901624 -0.32459316 1.4064987
-0.38706961 -0.32713625 1.4175181
-0.38509223 -0.32971948 1.4287117
-0.38308337 -0.33234385 1.4400833
-0.38104227 -0.33501032 1.4516374
-0.37896812 -0.33771989 1.4633783
-0.43595043 -0.31772658 1.3980899
-0.43090355 -0.31763747 1.3976978
-0.42585948 -0.31754839 1.3973058
-0.42083135 -0.31746927 1.3969576
-0.41679308 -0.31814384 1.3999259
-0.41273764 -0.31882128 1.4029069
-0.40866485 -0.31950161 1.4059006
-0.40457466 -0.32018486 1.4089071
-0.40046698 -0.32087106 1.4119265
-0.39634156 -0.32156014 1.4149587
-0.39219844 -0.32225221 1.418004
-0.38965517 -0.32429364 1.4269869
-0.387685 -0.32687166 1.438331
-0.3856833 -0.32949102 1.4498569
-0.38364923 -0.33215266 1.461569
-0.43139613 -0.32039359 1.4320276
-0.42727834 -0.32109082 1.4351438
-0.42314255 -0.32179105 1.4382735
-0.4189887 -0.32249433 1.441417
-0.41481668 -0.32320073 1.4445742
-0.41062629 -0.32391018 1.4477452
-0.40641752 -0.32462281 1.4509304
-0.40219018 -0.32533854 1.4541295
-0.39794412 -0.32605746 1.4573426
-0.39367989 -0.32678002 1.4605722
-0.38939694 -0.32750604 1.4638172
-0.3862921 -0.32925567 1.4716374
