# .PCD v0.7 - Point Cloud Data file format
VERSION 0.7
FIELDS x y z
SIZE 4 4 4
TYPE F F F
COUNT 1 1 1
WIDTH 679
HEIGHT 1
VIEWPOINT 0 0 0 1 0 0 0
POINTS 679
DATA ascii
-0.27641162 -0.29468676 1.296708
-0.27136141 -0.2941649 1.2944115
-0.26725212 -0.29466256 1.2966015
-0.26312897 -0.29516205 1.2987994
-0.25899181 -0.29566321 1.3010046
-0.28712872 -0.29172277 1.3038808
-0.28035077 -0.28946787 1.2938023
-0.27389559 -0.2874772 1.2849047
-0.26982075 -0.28795996 1.2870625
-0.2657322 -0.28844437 1.2892276
-0.26162985 -0.28893036 1.2913998
-0.25751379 -0.28941816 1.2935801
-0.25338382 -0.2899076 1.2957677
-0.24923983 -0.29039869 1.2979627
-0.24508177 -0.29089144 1.3001651
-0.24090961 -0.29138589 1.3023751
-0.29106542 -0.28648171 1.3009427
-0.28427228 -0.28427228 1.2909094
-0.27758309 -0.28209662 1.2810296
-0.27235192 -0.28135529 1.2776631
-0.26829749 -0.2818251 1.2797965
-0.26422954 -0.28229651 1.2819372
-0.2601479 -0.28276944 1.2840849
-0.25605258 -0.28324401 1.28624
-0.25194359 -0.28372025 1.2884026
-0.24782076 -0.28419814 1.2905726
-0.24368405 -0.28467762 1.2927501
-0.23953333 -0.28515872 1.2949349
-0.23536856 -0.28564146 1.297127
-0.23164469 -0.28668895 1.3018838
-0.33065981 -0.29259825 1.3503237
-0.32371953 -0.29063872 1.3412805
-0.32108831 -0.29254714 1.3500878
-0.30189899 -0.28346241 1.3081623
-0.29498443 -0.28126422 1.2980177
-0.2881763 -0.27909988 1.2880294
-0.28147212 -0.27696857 1.2781936
-0.27486959 -0.27486959 1.2685069
-0.27082556 -0.27530202 1.2705026
-0.26679134 -0.27575913 1.2726121
-0.26274374 -0.27621779 1.2747288
-0.25868264 -0.27667797 1.2768525
-0.25460801 -0.27713966 1.2789832
-0.25051972 -0.27760294 1.2811211
-0.24641778 -0.27806777 1.2832663
-0.24230215 -0.27853423 1.2854191
-0.2381727 -0.27900231 1.2875792
-0.23402935 -0.27947193 1.2897465
-0.23083076 -0.28111073 1.2973094
-0.22794425 -0.28320345 1.3069673
-0.34213144 -0.28949586 1.358089
-0.33463609 -0.28716999 1.3471779
-0.3272602 -0.28488117 1.3364406
-0.32271826 -0.28502855 1.3371319
-0.32008868 -0.28689429 1.3458846
-0.30581519 -0.27822286 1.3052049
-0.29888585 -0.27607015 1.2951061
-0.29206276 -0.27395034 1.2851616
-0.28534335 -0.27186257 1.2753674
-0.27987233 -0.2709164 1.2709287
-0.27536532 -0.27088785 1.2707947
-0.2708593 -0.2708593 1.2706609
-0.26635438 -0.27083093 1.2705277
-0.26185042 -0.27080256 1.2703947
-0.25734738 -0.27077422 1.2702616
-0.25317961 -0.27110383 1.2718079
-0.24911192 -0.27155444 1.2739218
-0.24503069 -0.27200654 1.2760428
-0.24093586 -0.27246019 1.2781709
-0.23682746 -0.27291545 1.2803067
-0.23286347 -0.27355805 1.2833213
-0.23002252 -0.27557153 1.2927669
-0.22713953 -0.27761498 1.3023533
-0.22421518 -0.2796911 1.3120928
-0.3461031 -0.28404322 1.3549047
-0.33859387 -0.28176692 1.3440466
-0.33120352 -0.27952638 1.333359
-0.32431722 -0.27765286 1.3244222
-0.31676659 -0.27514765 1.3124721
-0.30971339 -0.27300662 1.3022593
-0.30276898 -0.27089858 1.2922038
-0.29593098 -0.26882282 1.2823023
-0.28957006 -0.26712275 1.2741929
-0.28505048 -0.26709455 1.2740583
-0.28053185 -0.26706633 1.2739238
-0.27601415 -0.26703808 1.273789
-0.27149743 -0.26700988 1.2736545
-0.26698169 -0.26698169 1.27352
-0.26246706 -0.26695368 1.2733864
-0.25795335 -0.26692563 1.2732526
-0.25344062 -0.26689765 1.2731191
-0.24892882 -0.26686963 1.2729855
-0.24441795 -0.26684162 1.2728518
-0.23990804 -0.26681361 1.2727183
-0.23549734 -0.26689699 1.273116
-0.23205687 -0.26810452 1.2788761
-0.22921991 -0.270071 1.2882562
-0.22634104 -0.2720665 1.2977749
-0.22342056 -0.27409327 1.3074427
-0.34253064 -0.27638677 1.3409194
-0.33512664 -0.27419451 1.3302834
-0.32783917 -0.27203676 1.3198148
-0.32066083 -0.26990876 1.3094906
-0.31359315 -0.26781315 1.2993234
-0.3066344 -0.26574981 1.289313
-0.29978204 -0.26371804 1.2794557
-0.2947855 -0.2632817 1.2773387
-0.29025421 -0.26325381 1.2772034
-0.28572387 -0.26322594 1.2770681
-0.28119448 -0.26319805 1.2769328
-0.27666607 -0.26317018 1.2767977
-0.2721386 -0.26314229 1.2766623
-0.26761234 -0.26311466 1.2765282
-0.26308659 -0.26308659 1.2763921
-0.25856218 -0.2630589 1.2762578
-0.25403872 -0.26303124 1.2761235
-0.2495162 -0.26300356 1.2759893
-0.24499464 -0.2629759 1.2758551
-0.24047405 -0.26294824 1.275721
-0.23595451 -0.26292074 1.2755874
-0.23143576 -0.26289305 1.2754531
-0.2284229 -0.26460868 1.2837768
-0.22554824 -0.26655701 1.2932292
-0.22263151 -0.2685349 1.3028252
-0.21967237 -0.27054387 1.3125719
-0.34644908 -0.27103159 1.3378066
-0.33903113 -0.26888674 1.3272197
-0.33172968 -0.26677561 1.3167992
-0.32453728 -0.26469353 1.306522
-0.31745547 -0.26264301 1.2964008
-0.31048256 -0.26062405 1.2864351
-0.30457079 -0.25944918 1.2806361
-0.30002674 -0.25942162 1.2805001
-0.29548368 -0.25939408 1.280364
-0.29094157 -0.25936651 1.280228
-0.28640044 -0.25933897 1.2800921
-0.28186026 -0.25931144 1.2799562
-0.27732107 -0.25928393 1.2798203
-0.2727828 -0.25925639 1.2796844
-0.26824558 -0.25922891 1.2795489
-0.26370949 -0.25920165 1.2794142
-0.25917387 -0.25917387 1.2792771
-0.25463963 -0.25914651 1.2791421
-0.25010636 -0.25911921 1.2790073
-0.24557406 -0.25909188 1.2788725
-0.24104255 -0.25906444 1.2787369
-0.23651248 -0.25903749 1.2786039
-0.23198298 -0.25901011 1.2784688
-0.22763138 -0.25918424 1.2793283
-0.22476096 -0.26108599 1.2887152
-0.22184809 -0.26301578 1.2982407
-0.21889353 -0.26497638 1.3079182
-0.21589467 -0.26696652 1.3177415
-0.34291768 -0.26360339 1.3241702
-0.33560243 -0.26153845 1.3137972
-0.3283962 -0.25950187 1.3035669
-0.32130045 -0.25749612 1.2934912
-0.31440669 -0.25559682 1.2839504
-0.30984986 -0.25556961 1.2838137
-0.30529401 -0.25554237 1.283677
-0.30073911 -0.25551519 1.2835404
-0.2961852 -0.25548798 1.2834038
-0.29163224 -0.2554608 1.2832671
-0.28708023 -0.25543359 1.2831305
-0.28252921 -0.25540641 1.2829939
-0.27797917 -0.25537923 1.2828574
-0.27343008 -0.25535205 1.2827209
-0.26888195 -0.25532487 1.2825844
-0.26433435 -0.25529727 1.2824458
-0.25978932 -0.25527126 1.282315
-0.25524342 -0.25524342 1.2821752
-0.25069934 -0.25521642 1.2820396
-0.24615665 -0.25518993 1.2819065
-0.24161448 -0.25516295 1.2817709
-0.23707284 -0.25513554 1.2816333
-0.23253278 -0.2551088 1.2814989
-0.22799352 -0.25508186 1.2813636
-0.22397918 -0.25565299 1.2842326
-0.22107072 -0.25753599 1.2936916
-0.21812019 -0.25944823 1.3032974
-0.21512623 -0.26138994 1.3130512
-0.21208709 -0.26336089 1.322952
-0.34678644 -0.25834426 1.3211347
-0.33945757 -0.2563251 1.310809
-0.33223766 -0.25433367 1.3006251
-0.3251282 -0.25237224 1.2905947
-0.31972399 -0.2516976 1.2871447
-0.31515524 -0.25167072 1.2870072
-0.31058747 -0.25164387 1.2868699
-0.30602068 -0.25161698 1.2867324
-0.30145484 -0.25159013 1.2865951
-0.29688999 -0.25156328 1.2864578
-0.29232618 -0.25153649 1.2863207
-0.28776327 -0.25150961 1.2861834
-0.28320134 -0.25148278 1.2860461
-0.27864042 -0.25145599 1.2859091
-0.27408043 -0.25142914 1.2857718
-0.26952142 -0.25140232 1.2856346
-0.26496345 -0.25137559 1.2854979
-0.26040676 -0.25134912 1.2853626
-0.2628468 -0.25819466 1.3203696
-0.23763596 -0.25121516 1.2846775
-0.23308523 -0.25118893 1.2845434
-0.22853512 -0.25116235 1.2844075
-0.22398597 -0.2511358 1.2842716
-0.22029881 -0.25209451 1.2891744
-0.2173523 -0.253959 1.2987092
-0.21436323 -0.25585288 1.3083942
-0.21194114 -0.25852162 1.3220416
-0.34329522 -0.25113544 1.3078344
-0.33606187 -0.24918874 1.2976966
-0.32964945 -0.24780545 1.2904929
-0.32506779 -0.24777894 1.2903548
-0.32048705 -0.24775241 1.2902167
-0.31590733 -0.24772587 1.2900785
-0.31132859 -0.24769939 1.2899406
-0.30675083 -0.24767289 1.2898026
-0.30217403 -0.24764638 1.2896645
-0.29759821 -0.2476199 1.2895266
-0.29302341 -0.24759342 1.2893887
-0.28844953 -0.24756692 1.2892507
-0.28387669 -0.24754046 1.2891129
-0.27930477 -0.24751398 1.288975
-0.27473387 -0.24748755 1.2888373
-0.27016392 -0.24746108 1.2886995
-0.26559496 -0.24743462 1.2885617
-0.26326033 -0.24952503 1.2994479
-0.26235107 -0.2530643 1.3178793
-0.25964338 -0.25496513 1.3277782
-0.23364031 -0.24725044 1.2876025
-0.22907931 -0.2472242 1.2874659
-0.22451928 -0.24719799 1.2873294
-0.21996021 -0.24717177 1.2871929
-0.21659006 -0.24850859 1.2941546
-0.21360563 -0.25035498 1.3037701
-0.34711546 -0.24596924 1.3048731
-0.3398689 -0.24406694 1.2947813
-0.33503196 -0.2438668 1.2937196
-0.33043826 -0.24384065 1.2935809
-0.32584554 -0.2438145 1.2934421
-0.32125378 -0.24378833 1.2933034
-0.31666303 -0.24376218 1.2931646
-0.31207323 -0.24373603 1.2930259
-0.30748445 -0.24370989 1.2928872
-0.30289662 -0.24368376 1.2927486
-0.2983098 -0.24365762 1.2926099
-0.29372394 -0.2436315 1.2924713
-0.28913912 -0.24360541 1.2923329
-0.28455523 -0.24357927 1.2921942
-0.2799727 -0.24355349 1.2920575
-0.27539113 -0.2435277 1.2919207
-0.27080977 -0.24350123 1.2917802
-0.26622939 -0.24347475 1.2916398
-0.26364222 -0.2453019 1.3013328
-0.26165244 -0.24775939 1.3143699
-0.25865296 -0.24933214 1.3227134
-0.25507459 -0.25039431 1.3283483
-0.25102612 -0.25102612 1.3317001
-0.24649188 -0.25118697 1.3325533
-0.24130777 -0.25067893 1.3298582
-0.22962572 -0.24326685 1.2905369
-0.22505495 -0.24324122 1.2904009
-0.22048511 -0.24321553 1.2902646
-0.21591608 -0.24318969 1.2901275
-0.21285336 -0.2448958 1.2991785
-0.3509185 -0.24082643 1.3019254
-0.34504831 -0.23993425 1.2971022
-0.3404415 -0.23990844 1.2969627
-0.3358357 -0.23988265 1.2968233
-0.33123085 -0.23985682 1.2966837
-0.32662717 -0.23983113 1.2965448
-0.32202443 -0.23980543 1.2964058
-0.3174229 -0.23977989 1.2962677
-0.31282204 -0.23975413 1.2961285
-0.30822188 -0.23972814 1.295988
-0.30362275 -0.23970218 1.2958477
-0.29902467 -0.23967627 1.2957076
-0.29442757 -0.23965035 1.2955675
-0.28983146 -0.23962443 1.2954273
-0.28523657 -0.23959872 1.2952883
-0.28064278 -0.23957309 1.2951498
-0.27604991 -0.23954745 1.2950112
-0.27145809 -0.23952185 1.2948728
-0.26686722 -0.23949623 1.2947342
-0.2633009 -0.24040517 1.299648
-0.26081356 -0.24234889 1.310156
-0.25758326 -0.24365985 1.3172431
-0.25384223 -0.24452694 1.3219306
-0.2496407 -0.24497452 1.3243504
-0.24492465 -0.24492465 1.3240807
-0.23938529 -0.24403355 1.3192633
-0.23017532 -0.23929118 1.2936257
-0.22559336 -0.23926568 1.2934879
-0.2210125 -0.23924035 1.2933509
-0.2164326 -0.23921499 1.2932138
-0.21283174 -0.24029389 1.2990465
-0.35049716 -0.23595561 1.3003622
-0.34587824 -0.23593019 1.3002222
-0.34126028 -0.23590475 1.300082
-0.33664334 -0.23587935 1.2999419
-0.33202735 -0.2358539 1.2998017
-0.3274124 -0.2358285 1.2996618
-0.32279843 -0.23580311 1.2995218
-0.31818545 -0.23577769 1.2993817
-0.31357345 -0.2357523 1.2992418
-0.30896246 -0.23572691 1.2991018
-0.30435246 -0.23570153 1.298962
-0.29974347 -0.23567615 1.2988222
-0.29513544 -0.23565079 1.2986823
-0.29052842 -0.23562542 1.2985425
-0.28592238 -0.23560004 1.2984027
-0.28131738 -0.23557471 1.2982631
-0.27671331 -0.23554936 1.2981234
-0.27211028 -0.23552403 1.2979838
-0.26750743 -0.23549798 1.2978402
-0.26290664 -0.23547289 1.297702
-0.25987679 -0.23687884 1.3054502
-0.25645521 -0.23797196 1.3114744
-0.25256175 -0.23865926 1.3152622
-0.24820216 -0.23892358 1.3167188
-0.24327138 -0.23863764 1.315143
-0.23711522 -0.23711522 1.3067529
-0.23072688 -0.23529574 1.2967256
-0.22613403 -0.23527075 1.2965879
-0.2215423 -0.23524594 1.2964512
-0.2169513 -0.23522088 1.296313
-0.21473631 -0.23782624 1.3106713
-0.35134232 -0.23193187 1.3034978
-0.34671217 -0.23190682 1.303357
-0.34208301 -0.23188177 1.3032162
-0.33745483 -0.2318567 1.3030754
-0.33282763 -0.23183165 1.3029346
-0.32820147 -0.23180664 1.302794
-0.3235763 -0.2317816 1.3026533
-0.31895211 -0.23175657 1.3025126
-0.31432894 -0.23173155 1.302372
-0.30970672 -0.23170651 1.3022313
-0.30508557 -0.23168153 1.3020909
-0.30046538 -0.23165652 1.3019503
-0.29584619 -0.23163152 1.3018098
-0.291228 -0.23160653 1.3016694
-0.28661078 -0.23158152 1.3015288
-0.28199512 -0.23155698 1.3013909
-0.27737841 -0.23153074 1.3012434
-0.2727651 -0.23150651 1.3011073
-0.26815176 -0.23148142 1.3009663
-0.26353952 -0.23145644 1.3008258
-0.25892839 -0.23143156 1.300686
-0.25527173 -0.23227426 1.3054222
-0.25122547 -0.23278689 1.3083032
-0.24670009 -0.23286644 1.3087503
-0.24150071 -0.23230068 1.3055706
-0.23588689 -0.23130657 1.2999835
-0.23128185 -0.23128185 1.2998446
-0.22667781 -0.23125716 1.2997059
-0.22207473 -0.23123245 1.299567
-0.21747263 -0.23120774 1.2994281
-0.21667504 -0.23531376 1.3225046
-0.3521916 -0.22788867 1.3066486
-0.34755012 -0.227864 1.3065071
-0.34290969 -0.22783932 1.3063656
-0.33827022 -0.22781464 1.3062241
-0.33363178 -0.22778998 1.3060827
-0.32899436 -0.22776532 1.3059413
-0.32435793 -0.22774066 1.3058
-0.31972247 -0.22771601 1.3056586
-0.31508806 -0.22769137 1.3055173
-0.31045464 -0.22766674 1.3053761
-0.30582222 -0.22764212 1.3052349
-0.30119079 -0.22761747 1.3050936
-0.29656038 -0.22759284 1.3049524
-0.29193011 -0.22756755 1.3048074
-0.28730267 -0.22754371 1.3046707
-0.28267491 -0.22751883 1.304528
-0.27804855 -0.22749427 1.3043872
-0.27342317 -0.2274697 1.3042463
-0.26879919 -0.22744545 1.3041073
-0.26417619 -0.22742124 1.3039684
-0.25955436 -0.22739717 1.3038305
-0.25493276 -0.22737245 1.3036888
-0.25031069 -0.22734641 1.3035394
-0.24569263 -0.22732309 1.3034056
-0.24107304 -0.22729744 1.3032587
-0.23645669 -0.22727391 1.3031237
-0.23183915 -0.22724827 1.3029767
-0.22722396 -0.22722396 1.3028374
-0.22260973 -0.22719963 1.3026978
-0.21799649 -0.2271753 1.3025583
-0.21864551 -0.23275168 1.3345317
-0.35304493 -0.22382587 1.3098146
-0.34839216 -0.2238016 1.3096725
-0.34374037 -0.22377729 1.3095303
-0.3390896 -0.22375301 1.3093882
-0.33443981 -0.2237287 1.3092459
-0.3297911 -0.22370444 1.309104
-0.32514334 -0.22368017 1.3089619
-0.32049659 -0.22365589 1.3088199
-0.31585088 -0.22363164 1.3086779
-0.31120613 -0.22360738 1.3085359
-0.30656272 -0.22358334 1.3083953
-0.3019194 -0.22355865 1.3082508
-0.29727781 -0.22353446 1.3081093
-0.29263717 -0.2235103 1.3079678
-0.28799754 -0.22348608 1.3078262
-0.2833589 -0.22346191 1.3076847
-0.2787213 -0.22343773 1.3075432
-0.27408531 -0.22341408 1.3074048
-0.26944968 -0.22338989 1.3072633
-0.26481557 -0.22336617 1.3071244
-0.26018029 -0.2233406 1.3069748
-0.25554749 -0.22331628 1.3068324
-0.25091591 -0.22329214 1.3066912
-0.2462852 -0.2232679 1.3065493
-0.24165633 -0.22324443 1.306412
-0.23702727 -0.22321986 1.3062682
-0.23239917 -0.22319523 1.3061241
-0.22777274 -0.22317128 1.3059839
-0.22314732 -0.22314732 1.3058437
-0.21852291 -0.22312339 1.3057036
-0.22065219 -0.23014261 1.3467797
-0.3539024 -0.21974331 1.3129958
-0.34923822 -0.21971941 1.312853
-0.34457508 -0.21969551 1.3127102
-0.33991292 -0.21967162 1.3125674
-0.33525175 -0.21964769 1.3124244
-0.33059162 -0.21962382 1.3122817
-0.32593253 -0.21959993 1.312139
-0.32127443 -0.21957605 1.3119963
-0.31661677 -0.21955177 1.3118513
-0.31196111 -0.21952818 1.3117104
-0.30730611 -0.21950437 1.311568
-0.30265209 -0.21948053 1.3114256
-0.29799914 -0.21945672 1.3112833
-0.29334718 -0.21943292 1.3111411
-0.2886962 -0.21940912 1.3109989
-0.28404623 -0.2193853 1.3108566
-0.27939796 -0.21936204 1.3107176
-0.2747497 -0.219338 1.3105739
-0.27010339 -0.21931471 1.3104348
-0.26545733 -0.21929084 1.3102921
-0.26081225 -0.21926694 1.3101493
-0.25616691 -0.21924195 1.3100001
-0.25152391 -0.21921809 1.3098575
-0.24688192 -0.21919423 1.3097149
-0.24224095 -0.21917039 1.3095725
-0.23760115 -0.21914668 1.3094308
-0.23296277 -0.21912341 1.3092917
-0.2283242 -0.21909899 1.3091458
-0.22368751 -0.2190754 1.3090049
-0.21905184 -0.21905184 1.3088641
-0.3547641 -0.21564092 1.3161927
-0.35008848 -0.2156174 1.3160492
-0.34541386 -0.21559389 1.3159057
-0.34074026 -0.21557038 1.3157622
-0.33606768 -0.21554686 1.3156186
-0.33139619 -0.21552341 1.3154755
-0.32672545 -0.21549977 1.3153312
-0.32205603 -0.21547633 1.3151882
-0.31738758 -0.21545288 1.315045
-0.31272012 -0.21542943 1.3149018
-0.30805376 -0.215406 1.3147589
-0.30338836 -0.21538256 1.3146158
-0.29872397 -0.21535914 1.3144728
-0.29406059 -0.21533571 1.3143299
-0.28939825 -0.2153123 1.3141869
-0.28473738 -0.21528924 1.3140461
-0.28007758 -0.21526624 1.3139058
-0.27541807 -0.21524271 1.3137622
-0.27075964 -0.21521921 1.3136188
-0.26610103 -0.21519473 1.3134694
-0.26144433 -0.21517099 1.3133245
-0.25678921 -0.2151477 1.3131824
-0.25213489 -0.21512425 1.3130392
-0.24748154 -0.21510078 1.3128959
-0.24282923 -0.21507733 1.3127527
-0.23817796 -0.21505389 1.3126097
-0.23352766 -0.21503043 1.3124665
-0.2288789 -0.21500745 1.3123263
-0.22423033 -0.21498373 1.3121815
-0.21958335 -0.21496055 1.31204
-0.35563001 -0.2115185 1.3194053
-0.35094288 -0.21149538 1.3192611
-0.34625676 -0.21147226 1.3191168
-0.34157163 -0.21144912 1.3189725
-0.3368876 -0.211426 1.3188283
-0.33220461 -0.21140294 1.3186845
-0.32752264 -0.21137986 1.3185405
-0.3228417 -0.2113568 1.3183967
-0.31816182 -0.21133375 1.3182529
-0.31348288 -0.21131068 1.318109
-0.30880502 -0.21128765 1.3179653
-0.30412817 -0.21126461 1.3178216
-0.29945236 -0.21124159 1.317678
-0.29477751 -0.21121854 1.3175342
-0.29010355 -0.21119539 1.3173898
-0.28543183 -0.21117315 1.3172511
-0.2807599 -0.21115001 1.3171067
-0.27608898 -0.21112686 1.3169624
-0.27141911 -0.21110375 1.3168182
-0.26674995 -0.21108039 1.3166724
-0.26208133 -0.21105665 1.3165244
-0.25741458 -0.21103357 1.3163804
-0.25274882 -0.21101047 1.3162364
-0.2480841 -0.2109874 1.3160925
-0.24342039 -0.21096434 1.3159486
-0.23875773 -0.2109413 1.3158048
-0.23409605 -0.21091823 1.315661
-0.22943541 -0.21089518 1.3155172
-0.22477578 -0.21087211 1.3153733
-0.22141153 -0.21208894 1.3229636
-0.35650012 -0.20737588 1.3226335
-0.35180146 -0.20735317 1.3224887
-0.34710386 -0.2073305 1.3223439
-0.34240726 -0.2073078 1.3221992
-0.33771172 -0.20728512 1.3220546
-0.3330172 -0.20726246 1.32191
-0.32832369 -0.20723979 1.3217654
-0.32363123 -0.20721711 1.3216208
-0.31893978 -0.20719446 1.3214763
-0.3142494 -0.20717183 1.321332
-0.30955997 -0.20714915 1.3211874
-0.30487162 -0.20712651 1.321043
-0.30018428 -0.20710388 1.3208987
-0.29549843 -0.20708159 1.3207564
-0.29081339 -0.20705913 1.3206133
-0.28612894 -0.20703639 1.3204682
-0.2814455 -0.20701364 1.3203231
-0.27676314 -0.20699091 1.3201782
-0.27208093 -0.20696755 1.3200291
-0.26740035 -0.20694461 1.3198829
-0.26272118 -0.20692201 1.3197386
-0.25804296 -0.20689932 1.3195939
-0.25336576 -0.20687662 1.3194492
-0.24868958 -0.20685396 1.3193046
-0.24401443 -0.20683128 1.31916
-0.23934032 -0.20680863 1.3190155
-0.23466723 -0.20678598 1.318871
-0.22999513 -0.2067633 1.3187264
-0.22532408 -0.20674065 1.3185819
-0.35737476 -0.2032131 1.3258784
-0.3526645 -0.2031908 1.3257329
-0.34795529 -0.20316853 1.3255876
-0.34324709 -0.20314623 1.3254422
-0.3385399 -0.20312394 1.3252968
-0.33383381 -0.20310169 1.3251516
-0.32912871 -0.20307942 1.3250062
-0.32442465 -0.20305716 1.3248609
-0.31972161 -0.20303489 1.3247157
-0.31501961 -0.20301265 1.3245705
-0.31031868 -0.20299041 1.3244255
-0.3056187 -0.20296815 1.3242803
-0.30091992 -0.20294599 1.3241357
-0.29622248 -0.20292406 1.3239926
-0.29152542 -0.20290171 1.3238467
-0.28682944 -0.20287935 1.3237009
-0.28213447 -0.20285702 1.3235551
-0.27744058 -0.2028347 1.3234096
-0.27274701 -0.20281188 1.3232607
-0.26805493 -0.2027894 1.3231139
-0.26336417 -0.2027671 1.3229685
-0.25867444 -0.20274483 1.3228232
-0.2539857 -0.20272253 1.3226777
-0.24929802 -0.20270027 1.3225324
-0.24461137 -0.20267799 1.3223871
-0.23992574 -0.20265572 1.3222418
-0.23524117 -0.20263349 1.3220967
-0.23055759 -0.20261121 1.3219514
-0.35353178 -0.19900794 1.3289932
-0.34881085 -0.19898607 1.3288471
-0.34409103 -0.19896419 1.328701
-0.33937219 -0.19894232 1.3285549
-0.33465439 -0.19892044 1.3284088
-0.32993767 -0.1988986 1.3282629
-0.32522196 -0.19887672 1.3281169
-0.32050729 -0.19885488 1.327971
-0.31579363 -0.19883303 1.3278251
-0.3110809 -0.19881111 1.3276787
-0.30637005 -0.19878972 1.3275359
-0.30165932 -0.19876777 1.3273892
-0.29694965 -0.19874583 1.3272427
-0.29224098 -0.19872387 1.3270961
-0.28753337 -0.19870193 1.3269496
-0.28282684 -0.19868001 1.3268032
-0.27812085 -0.19865775 1.3266546
-0.27341607 -0.19863559 1.3265066
-0.26871267 -0.19861372 1.3263605
-0.26401031 -0.19859183 1.3262143
-0.25930899 -0.19856997 1.3260683
-0.25460872 -0.19854808 1.3259221
-0.24990946 -0.1985262 1.3257761
-0.24521124 -0.19850434 1.3256301
-0.24051405 -0.19848247 1.325484
-0.34967068 -0.194783 1.3321227
-0.34493911 -0.19476154 1.3319759
-0.34020859 -0.19474009 1.3318292
-0.33547905 -0.19471861 1.3316823
-0.33075058 -0.19469716 1.3315356
-0.32602319 -0.19467571 1.331389
-0.32129681 -0.19465427 1.3312423
-0.3165713 -0.19463271 1.3310949
-0.3118476 -0.19461165 1.3309509
-0.30712414 -0.19459009 1.3308034
-0.30240172 -0.19456854 1.3306561
-0.29768038 -0.19454703 1.3305088
-0.29296005 -0.19452548 1.3303615
-0.28824079 -0.19450395 1.3302143
-0.28352261 -0.19448245 1.3300672
-0.27880469 -0.19446041 1.3299165
-0.27408865 -0.19443895 1.3297697
-0.26937363 -0.19441748 1.3296229
-0.26465964 -0.19439602 1.3294761
-0.25994667 -0.19437455 1.3293293
-0.25523475 -0.19435307 1.3291824
-0.2505239 -0.19433162 1.3290356
-0.3457914 -0.19053811 1.3352669
-0.34104908 -0.19051707 1.3351195
-0.33630779 -0.19049603 1.334972
-0.33156756 -0.19047499 1.3348246
-0.32682836 -0.19045395 1.3346771
-0.32209045 -0.19043304 1.3345306
-0.31735337 -0.19041203 1.3343834
-0.31261715 -0.1903909 1.3342353
-0.30788198 -0.19036977 1.3340873
-0.30314785 -0.19034864 1.3339392
-0.29841474 -0.19032753 1.3337911
-0.29368269 -0.1903064 1.3336431
-0.28895172 -0.19028528 1.3334951
-0.28422174 -0.19026414 1.333347
-0.27949238 -0.19024271 1.3331968
-0.27476457 -0.19022162 1.3330491
-0.27003783 -0.19020057 1.3329015
-0.26531217 -0.19017951 1.3327539
-0.26058751 -0.19015847 1.3326064
-0.34189373 -0.18627314 1.3384261
-0.33714062 -0.18625252 1.3382779
-0.33238858 -0.1862319 1.3381298
-0.32763776 -0.18621139 1.3379824
-0.32288766 -0.18619069 1.3378338
-0.31813857 -0.18616998 1.3376849
-0.31339052 -0.18614925 1.337536
-0.30864355 -0.18612856 1.3373872
-0.30389762 -0.18610784 1.3372384
-0.29915273 -0.18608715 1.3370897
-0.29440892 -0.18606643 1.3369409
-0.28966615 -0.18604575 1.3367922
-0.28492397 -0.18602474 1.3366413
-0.2801834 -0.1860041 1.336493
-0.27544385 -0.18598345 1.3363446
-0.27070534 -0.18596281 1.3361963
-0.26596791 -0.18594217 1.336048
-0.33797762 -0.18198794 1.3416003
-0.33321372 -0.18196778 1.3414516
-0.32845062 -0.18194747 1.3413019
-0.3236886 -0.18192717 1.3411523
-0.31892762 -0.18190686 1.3410026
-0.31416771 -0.18188657 1.340853
-0.30940887 -0.18186629 1.3407035
-0.30465108 -0.18184599 1.3405539
-0.29989436 -0.18182571 1.3404044
-0.29513869 -0.18180543 1.3402549
-0.29038411 -0.18178518 1.3401055
-0.28563029 -0.18176472 1.3399547
-0.28087786 -0.18174449 1.3398056
-0.27612647 -0.18172427 1.3396565
-0.33404252 -0.17768219 1.3447882
-0.32926747 -0.17766231 1.3446378
-0.3244935 -0.17764243 1.3444873
-0.31972063 -0.17762257 1.344337
-0.31494877 -0.17760269 1.3441865
-0.31017801 -0.17758283 1.3440362
-0.30540833 -0.17756298 1.343886
-0.30063969 -0.17754312 1.3437357
-0.29587215 -0.1775233 1.3435856
-0.29110548 -0.17750333 1.3434346
-0.28634009 -0.17748353 1.3432846
-0.31095099 -0.17327803 1.3473856
-0.30616933 -0.17325862 1.3472346
-0.30138871 -0.17323919 1.3470836
-0.29660922 -0.1732198 1.3469328
