# .PCD v0.7 - Point Cloud Data file format
VERSION 0.7
FIELDS x y z
SIZE 4 4 4
TYPE F F F
COUNT 1 1 1
WIDTH 1345
HEIGHT 1
VIEWPOINT 0 0 0 1 0 0 0
POINTS 1345
DATA ascii
-0.38916075 -0.076042905 0.84636909
-0.38638955 -0.076084428 0.84683126
-0.38361529 -0.076125994 0.84729385
-0.38083798 -0.076167598 0.84775692
-0.3780576 -0.07620924 0.84822041
-0.37527421 -0.076250933 0.84868449
-0.37248775 -0.076292671 0.84914905
-0.36969832 -0.076334469 0.8496142
-0.36690572 -0.076376289 0.85007972
-0.36411011 -0.076418169 0.85054582
-0.41348398 -0.072102189 0.83526373
-0.41076264 -0.072141103 0.83571458
-0.40803835 -0.07218007 0.83616596
-0.40531108 -0.072219066 0.83661771
-0.40258089 -0.072258107 0.83706999
-0.39984775 -0.072297193 0.83752275
-0.39711165 -0.072336324 0.83797604
-0.39437261 -0.072375499 0.83842987
-0.39163056 -0.072414711 0.83888412
-0.38888514 -0.072453886 0.83933794
-0.38613677 -0.072493114 0.83979237
-0.38338545 -0.072532378 0.84024727
-0.38063112 -0.072571687 0.84070265
-0.37787378 -0.072611041 0.84115851
-0.37511349 -0.07265044 0.8416149
-0.37235019 -0.072689876 0.84207177
-0.36958385 -0.072729349 0.84252906
-0.36681452 -0.072768874 0.84298694
-0.36404225 -0.072808444 0.84344536
-0.36126688 -0.072848059 0.8439042
-0.3584885 -0.072887704 0.84436351
-0.42378125 -0.068445764 0.8266468
-0.42109349 -0.068482332 0.82708842
-0.41840279 -0.068518929 0.82753038
-0.41570932 -0.068555571 0.82797295
-0.41301292 -0.06859225 0.82841599
-0.41031364 -0.068628974 0.82885945
-0.40761149 -0.068665735 0.82930344
-0.40490639 -0.068702534 0.82974786
-0.4021984 -0.068739362 0.83019269
-0.39948753 -0.068776235 0.83063805
-0.39677376 -0.06881316 0.83108395
-0.39405695 -0.0688501 0.83153009
-0.39133695 -0.068887033 0.83197612
-0.388614 -0.068923995 0.83242255
-0.38588813 -0.068961002 0.83286947
-0.38315937 -0.068998046 0.83331692
-0.38042766 -0.069035135 0.83376485
-0.377693 -0.069072261 0.83421326
-0.37495536 -0.069109417 0.83466202
-0.37221485 -0.069146633 0.83511144
-0.36947134 -0.069183879 0.83556128
-0.36672488 -0.069221161 0.83601159
-0.36397544 -0.069258481 0.83646232
-0.36122307 -0.069295853 0.83691365
-0.35846773 -0.069333263 0.83736545
-0.35607204 -0.069441438 0.83867192
-0.35382217 -0.069580093 0.84034652
-0.43386826 -0.064864025 0.81820595
-0.43121326 -0.064898312 0.8186385
-0.42855546 -0.064932644 0.81907153
-0.42589489 -0.064967014 0.8195051
-0.42323145 -0.065001421 0.81993908
-0.42056525 -0.065035865 0.82037354
-0.41789615 -0.065070339 0.82080841
-0.41522422 -0.065104842 0.8212437
-0.4125495 -0.065139398 0.82167953
-0.40987194 -0.065173984 0.82211584
-0.40719154 -0.065208606 0.82255262
-0.40450826 -0.065243267 0.82298982
-0.40182212 -0.065277964 0.82342744
-0.39913315 -0.065312698 0.82386559
-0.39644119 -0.065347448 0.82430398
-0.39374611 -0.065382197 0.82474226
-0.39104813 -0.065416969 0.82518095
-0.3883473 -0.065451793 0.82562017
-0.38564357 -0.065486647 0.82605982
-0.38293701 -0.065521546 0.8265
-0.38022751 -0.065556467 0.82694054
-0.37751514 -0.065591432 0.82738161
-0.37479988 -0.065626435 0.82782316
-0.37208173 -0.065661483 0.82826519
-0.36936063 -0.065696552 0.82870764
-0.36668697 -0.06574069 0.8292644
-0.3644833 -0.065870479 0.8309015
-0.36227092 -0.066000775 0.8325451
-0.36004978 -0.066131592 0.83419526
-0.3578198 -0.066262923 0.83585191
-0.35558096 -0.066394784 0.83751523
-0.35333318 -0.066527165 0.83918512
-0.35107642 -0.066660084 0.84086174
-0.43815798 -0.061773092 0.81545901
-0.43324298 -0.061483327 0.81163388
-0.43060902 -0.061515573 0.81205958
-0.42797226 -0.061547849 0.81248564
-0.42533275 -0.061580166 0.81291223
-0.42269051 -0.061612517 0.81333929
-0.42004547 -0.061644901 0.81376678
-0.41739765 -0.061677314 0.81419468
-0.414747 -0.061709762 0.814623
-0.41209361 -0.061742246 0.81505185
-0.40943739 -0.061774764 0.81548113
-0.40677842 -0.06180732 0.81591088
-0.4041166 -0.061839908 0.81634104
-0.40145198 -0.061872523 0.81677163
-0.39878437 -0.061905157 0.81720239
-0.39611372 -0.061937783 0.81763309
-0.39344028 -0.061970446 0.81806427
-0.39076403 -0.062003151 0.81849599
-0.38808495 -0.062035885 0.81892812
-0.38540301 -0.062068649 0.81936061
-0.38271824 -0.06210145 0.81979364
-0.38003066 -0.062134288 0.82022715
-0.3773402 -0.06216716 0.82066107
-0.37490743 -0.062243316 0.82166642
-0.37274009 -0.062365074 0.82327372
-0.37056425 -0.062487304 0.82488728
-0.36837986 -0.062610015 0.82650715
-0.36618686 -0.062733211 0.8281334
-0.36398524 -0.06285689 0.82976609
-0.36177489 -0.062981054 0.83140516
-0.35955581 -0.06310571 0.83305079
-0.35732791 -0.063230865 0.83470291
-0.35509121 -0.063356526 0.83636171
-0.35284552 -0.063482672 0.83802694
-0.35059091 -0.063609324 0.83969891
-0.43967372 -0.059103679 0.81827998
-0.43295866 -0.058585167 0.81110126
-0.42739838 -0.058217056 0.80600482
-0.42477965 -0.058247376 0.80642462
-0.42215821 -0.058277734 0.80684489
-0.41953403 -0.058308117 0.80726558
-0.4169071 -0.058338534 0.80768669
-0.41427737 -0.058368977 0.80810815
-0.41164497 -0.058399457 0.80853015
-0.40900981 -0.058429971 0.80895263
-0.40637189 -0.058460519 0.80937552
-0.4037312 -0.058491092 0.80979884
-0.40108755 -0.058521669 0.81022215
-0.3984409 -0.058552247 0.81064546
-0.39579153 -0.058582865 0.81106937
-0.39313939 -0.058613509 0.81149364
-0.39048445 -0.058644187 0.81191838
-0.38782674 -0.058674894 0.81234354
-0.38516629 -0.058705643 0.81276923
-0.38297868 -0.058809459 0.81420654
-0.38084668 -0.058923446 0.81578469
-0.3787064 -0.059037879 0.81736898
-0.37655777 -0.059152756 0.81895941
-0.37440082 -0.059268083 0.8205561
-0.37223542 -0.059383862 0.82215905
-0.37006152 -0.059500091 0.8237682
-0.36787912 -0.059616774 0.82538366
-0.36568812 -0.059733916 0.82700551
-0.36348853 -0.059851523 0.82863373
-0.36128023 -0.059969593 0.83026838
-0.35906318 -0.060088124 0.83190942
-0.35683742 -0.060207136 0.83355713
-0.35460278 -0.060326613 0.83521128
-0.35235924 -0.060446564 0.83687198
-0.35010678 -0.060566995 0.8385393
-0.34784535 -0.060687911 0.84021336
-0.44119999 -0.056415737 0.82112056
-0.43444848 -0.055919111 0.81389225
-0.42781469 -0.055431142 0.80678993
-0.42163432 -0.054995783 0.80045336
-0.4190307 -0.055024233 0.80086744
-0.4164243 -0.055052705 0.80128187
-0.41381523 -0.055081207 0.80169672
-0.41120347 -0.055109743 0.80211204
-0.40858898 -0.055138305 0.80252779
-0.40597183 -0.055166904 0.802944
-0.4033516 -0.055195484 0.80335999
-0.40072864 -0.055224087 0.80377632
-0.39810291 -0.055252716 0.80419302
-0.39547446 -0.055281375 0.80461013
-0.39299417 -0.055331308 0.80533689
-0.39090464 -0.055437386 0.80688083
-0.38880712 -0.055543873 0.80843073
-0.38670149 -0.055650771 0.80998659
-0.38458776 -0.055758078 0.81154841
-0.38246584 -0.055865794 0.81311625
-0.38033569 -0.055973932 0.81469017
-0.37819728 -0.056082487 0.81627017
-0.37605059 -0.05619147 0.81785637
-0.37389553 -0.056300871 0.81944871
-0.37173212 -0.056410708 0.82104737
-0.36956018 -0.056520969 0.82265216
-0.36737975 -0.056631662 0.82426327
-0.36519074 -0.056742784 0.82588065
-0.36299315 -0.056854349 0.82750446
-0.36078689 -0.056966353 0.82913464
-0.35857195 -0.057078797 0.83077127
-0.35634822 -0.057191689 0.83241439
-0.35411569 -0.057305027 0.83406401
-0.35187429 -0.057418816 0.83572018
-0.34962395 -0.057533056 0.83738291
-0.34736469 -0.057647757 0.83905238
-0.4496474 -0.054192033 0.83139032
-0.44273692 -0.053709067 0.82398093
-0.43594849 -0.053234633 0.81670237
-0.429279 -0.052768514 0.80955136
-0.42272511 -0.052310463 0.80252415
-0.41628402 -0.051860299 0.79561794
-0.41336033 -0.051845197 0.7953862
-0.41076893 -0.051871844 0.79579502
-0.40817481 -0.051898517 0.79620421
-0.40557772 -0.051925175 0.79661322
-0.40297791 -0.051951855 0.79702252
-0.40074545 -0.052026603 0.79816926
-0.39868927 -0.05212545 0.79968578
-0.39662531 -0.052224685 0.80120814
-0.39455342 -0.052324288 0.80273622
-0.39247364 -0.052424278 0.80427021
-0.3903859 -0.052524645 0.80581003
-0.38829014 -0.052625403 0.80735582
-0.38618633 -0.052726548 0.80890751
-0.38407442 -0.052828077 0.81046516
-0.38195437 -0.052930005 0.81202888
-0.3798261 -0.05303232 0.81359857
-0.37768957 -0.053135034 0.81517434
-0.37554476 -0.053238146 0.81675625
-0.37339163 -0.053341664 0.81834435
-0.37123013 -0.053445585 0.81993866
-0.36906016 -0.053549904 0.8215391
-0.3668817 -0.053654637 0.82314587
-0.36469471 -0.05375978 0.82475889
-0.36249915 -0.053865336 0.82637829
-0.36029491 -0.053971302 0.828004
-0.35808206 -0.0540777 0.82963628
-0.35586038 -0.0541845 0.83127481
-0.35362992 -0.054291733 0.8329199
-0.35139066 -0.05439939 0.83457154
-0.34914249 -0.054507479 0.8362298
-0.34688535 -0.054615993 0.83789456
-0.45123342 -0.051443551 0.83432287
-0.44428456 -0.050983474 0.82686126
-0.4374589 -0.050531559 0.81953198
-0.43075317 -0.050087579 0.81233144
-0.4241643 -0.049651336 0.80525637
-0.41768906 -0.049222615 0.79830325
-0.41132468 -0.048801236 0.79146922
-0.40835992 -0.048780195 0.79112798
-0.40633631 -0.048872065 0.79261798
-0.40430501 -0.048964277 0.79411346
-0.40226606 -0.049056835 0.7956146
-0.40021938 -0.049149748 0.79712147
-0.3981649 -0.049243007 0.79863399
-0.39610264 -0.049336631 0.80015236
-0.39403251 -0.049430601 0.80167639
-0.39195448 -0.049524933 0.80320632
-0.38986847 -0.049619623 0.80474204
-0.38777456 -0.049714684 0.80628377
-0.38567254 -0.049810108 0.80783135
-0.38356248 -0.049905896 0.80938488
-0.38144425 -0.050002053 0.81094438
-0.37931785 -0.050098583 0.81250989
-0.37718323 -0.050195485 0.81408149
-0.37504029 -0.05029276 0.81565911
-0.37288907 -0.050390415 0.81724292
-0.37072954 -0.050488461 0.81883299
-0.36856154 -0.050586876 0.82042915
-0.36638504 -0.050685678 0.8220315
-0.36420003 -0.050784864 0.82364017
-0.36200646 -0.050884444 0.82525516
-0.3598043 -0.050984416 0.82687652
-0.35759348 -0.051084779 0.82850426
-0.35537389 -0.051185537 0.83013839
-0.35314551 -0.051286694 0.83177894
-0.35090834 -0.051388249 0.833426
-0.34866232 -0.051490217 0.83507973
-0.34640732 -0.051592581 0.8367399
-0.34414339 -0.051695358 0.83840674
-0.45283064 -0.048675608 0.8372761
-0.4458431 -0.048238762 0.82976186
-0.43897983 -0.047809687 0.82238126
-0.43223757 -0.047388174 0.81513077
-0.42561322 -0.046974033 0.80800712
-0.41910353 -0.04656706 0.80100667
-0.41270566 -0.046167072 0.79412645
-0.40782857 -0.045932911 0.79009861
-0.4058066 -0.046019305 0.79158467
-0.40377697 -0.046106022 0.79307628
-0.40173966 -0.046193063 0.79457349
-0.39969465 -0.046280432 0.79607636
-0.39764193 -0.046368137 0.79758501
-0.39558136 -0.046456173 0.79909933
-0.39351299 -0.046544544 0.80061942
-0.39143667 -0.046633251 0.80214524
-0.3893525 -0.046722297 0.80367696
-0.38726035 -0.046811689 0.80521458
-0.38516015 -0.04690142 0.80675805
-0.38305187 -0.046991494 0.80830741
-0.38093549 -0.047081918 0.80986279
-0.37881097 -0.047172684 0.81142414
-0.3766782 -0.047263805 0.8129915
-0.3745372 -0.047355279 0.81456494
-0.37238789 -0.047447104 0.81614447
-0.37023026 -0.047539294 0.81773025
-0.36806422 -0.047631841 0.81932211
-0.3658897 -0.047724742 0.82092017
-0.36370671 -0.047818013 0.82252449
-0.36151513 -0.047911644 0.82413507
-0.35931501 -0.048005652 0.82575208
-0.35710621 -0.048100021 0.82737535
-0.35488871 -0.048194762 0.829005
-0.35266241 -0.048289876 0.83064109
-0.35042739 -0.048385371 0.83228374
-0.34818348 -0.048481241 0.83393282
-0.34593064 -0.048577495 0.83558846
-0.34366885 -0.048674129 0.83725065
-0.45443922 -0.045887999 0.84025031
-0.44741255 -0.045474719 0.83268279
-0.44051138 -0.045068823 0.82525045
-0.43373227 -0.044670101 0.81794953
-0.42707208 -0.044278376 0.81077671
-0.42052767 -0.04389346 0.80372852
-0.41409594 -0.043515164 0.79680163
-0.40777418 -0.043143343 0.78999323
-0.40527824 -0.043173973 0.79055405
-0.40325028 -0.043255221 0.79204178
-0.40121466 -0.043336775 0.79353511
-0.39917132 -0.043418635 0.79503405
-0.39712027 -0.043500807 0.79653871
-0.39506143 -0.043583289 0.79804903
-0.39299479 -0.043666087 0.79956514
-0.39092028 -0.043749202 0.80108702
-0.38883781 -0.043832626 0.80261463
-0.38674748 -0.043916378 0.8041482
-0.3846491 -0.044000451 0.80568761
-0.38254264 -0.04408484 0.80723286
-0.38042811 -0.044169556 0.80878407
-0.37830541 -0.044254594 0.81034124
-0.37617454 -0.044339966 0.81190443
-0.37403545 -0.044425666 0.8134737
-0.37188804 -0.044511698 0.81504899
-0.36973235 -0.044598065 0.81663048
-0.36756822 -0.044684768 0.81821805
-0.36539569 -0.044771805 0.81981182
-0.36321467 -0.044859182 0.82141179
-0.36102515 -0.044946905 0.82301807
-0.35882702 -0.045034971 0.82463062
-0.35662028 -0.04512338 0.82624948
-0.35440484 -0.045212138 0.82787472
-0.35218066 -0.045301247 0.8295064
-0.34994772 -0.04539071 0.83114451
-0.34770593 -0.045480523 0.83278906
-0.34545526 -0.045570694 0.83444017
-0.34319565 -0.045661222 0.83609784
-0.34092703 -0.045752112 0.83776212
-0.45605934 -0.043080524 0.84324592
-0.44899315 -0.042691153 0.83562446
-0.44205365 -0.042308766 0.82813972
-0.43523732 -0.041933164 0.82078779
-0.428541 -0.041564178 0.81356537
-0.42196146 -0.041201625 0.80646884
-0.41549566 -0.040845338 0.79949498
-0.40914068 -0.040495154 0.79264057
-0.4047513 -0.040336039 0.78952616
-0.40272495 -0.040411845 0.79100996
-0.400691 -0.040487941 0.79249942
-0.39864936 -0.040564321 0.79399449
-0.39660001 -0.040640991 0.79549515
-0.3945429 -0.040717948 0.79700154
-0.39247796 -0.0407952 0.79851365
-0.39040521 -0.040872749 0.80003154
-0.38832456 -0.040950589 0.80155516
-0.38623598 -0.041028731 0.80308467
-0.38413939 -0.041107167 0.80461997
-0.38203475 -0.041185901 0.80616111
-0.37992203 -0.04126494 0.8077082
-0.37780124 -0.041344285 0.80926126
-0.37567222 -0.041423935 0.81082028
-0.37353501 -0.041503891 0.81238532
-0.37138957 -0.04158416 0.8139565
-0.36923578 -0.041664738 0.8155337
-0.3670736 -0.041745625 0.81711698
-0.36490303 -0.041826829 0.81870645
-0.36272401 -0.04190835 0.82030213
-0.36053649 -0.041990191 0.82190406
-0.35834038 -0.042072352 0.82351226
-0.35613567 -0.042154834 0.82512671
-0.35392231 -0.042237639 0.82674754
-0.35170025 -0.042320777 0.8283748
-0.34946939 -0.042404238 0.83000845
-0.34722972 -0.042488024 0.83164847
-0.34498116 -0.042572144 0.83329505
-0.34272376 -0.042656604 0.83494824
-0.34045732 -0.042741396 0.83660787
-0.45769143 -0.040252991 0.84626359
-0.45058507 -0.039887857 0.83858716
-0.44360673 -0.039529312 0.83104926
-0.43675283 -0.039177164 0.82364583
-0.43002 -0.038831238 0.81637317
-0.42340505 -0.038491368 0.80922788
-0.41690481 -0.038157389 0.80220646
-0.41051635 -0.037829153 0.79530573
-0.40423685 -0.037506513 0.78852266
-0.40220103 -0.037575874 0.78998089
-0.40016872 -0.037646532 0.79146641
-0.39812878 -0.037717462 0.7929576
-0.39608112 -0.037788659 0.7944544
-0.39402571 -0.037860122 0.79595679
-0.39196253 -0.037931859 0.79746497
-0.38989151 -0.038003866 0.79897881
-0.38781261 -0.038076147 0.80049843
-0.38572583 -0.038148709 0.80202395
-0.38363105 -0.038221542 0.80355519
-0.38152823 -0.038294654 0.80509228
-0.37941736 -0.038368046 0.80663526
-0.37729838 -0.038441721 0.80818415
-0.37517127 -0.038515683 0.80973905
-0.37303594 -0.038589925 0.81129992
-0.37089241 -0.038664456 0.81286687
-0.36874053 -0.038739275 0.81443983
-0.36658031 -0.038814384 0.81601888
-0.36441168 -0.038889784 0.81760406
-0.36223468 -0.038965482 0.81919551
-0.36004913 -0.039041474 0.82079309
-0.35785505 -0.039117757 0.82239687
-0.35565236 -0.039194342 0.82400697
-0.35344106 -0.039271228 0.82562339
-0.35122108 -0.03934842 0.82724625
-0.34899235 -0.039425913 0.82887542
-0.34675482 -0.039503712 0.83051103
-0.34450841 -0.039581817 0.83215308
-0.34225312 -0.039660234 0.83380169
-0.33998892 -0.039738964 0.83545685
-0.33771563 -0.039818 0.83711851
-0.45933509 -0.037405137 0.84930271
-0.45218858 -0.037064638 0.84157151
-0.44517094 -0.036730275 0.83397961
-0.43827894 -0.036401905 0.82652384
-0.43150929 -0.036079373 0.81920052
-0.42485851 -0.0357625 0.81200582
-0.41832352 -0.035451148 0.80493635
-0.4119013 -0.035145164 0.79798883
-0.40558901 -0.034844417 0.79116023
-0.40167841 -0.034747269 0.78895444
-0.3996478 -0.034812525 0.79043615
-0.39760953 -0.034878027 0.7919234
-0.39556357 -0.034943778 0.79341632
-0.39350989 -0.035009779 0.79491484
-0.39144841 -0.035076022 0.79641896
-0.38937914 -0.035142522 0.79792887
-0.38730201 -0.035209272 0.7994445
-0.38521701 -0.035276283 0.80096596
-0.38312402 -0.035343546 0.80249321
-0.38102302 -0.03541106 0.80402619
-0.378914 -0.035478838 0.80556512
-0.37679687 -0.035546873 0.80710989
-0.37467161 -0.035615172 0.80866063
-0.37253821 -0.035683736 0.81021744
-0.37039655 -0.035752561 0.81178015
-0.36824659 -0.035821654 0.81334889
-0.36608833 -0.035891011 0.8149237
-0.36392167 -0.035960641 0.81650466
-0.36174664 -0.036030542 0.81809181
-0.35956311 -0.036100715 0.8196851
-0.35737106 -0.036171161 0.82128459
-0.3551704 -0.036241878 0.82289028
-0.35296118 -0.036312878 0.82450241
-0.35074323 -0.036384154 0.82612073
-0.34851661 -0.036455709 0.8277455
-0.34628117 -0.036527552 0.82937664
-0.34403694 -0.036599677 0.83101428
-0.34178379 -0.036672082 0.83265829
-0.33952177 -0.036744777 0.83430892
-0.33725071 -0.036817763 0.83596605
-0.46099067 -0.03453676 0.85236382
-0.45380345 -0.034221243 0.84457695
-0.44674644 -0.033911448 0.83693117
-0.43981597 -0.0336072 0.82942241
-0.43300891 -0.033308376 0.82204747
-0.42632204 -0.033014838 0.81480294
-0.41975194 -0.032726422 0.8076849
-0.41329569 -0.032443006 0.80069017
-0.40695021 -0.032164447 0.79381543
-0.4011572 -0.031926006 0.78793067
-0.39912823 -0.031985886 0.7894085
-0.39709166 -0.032045994 0.79089195
-0.3950474 -0.032106325 0.79238093
-0.39299539 -0.032166883 0.79387552
-0.39093566 -0.032227673 0.79537576
-0.38886815 -0.032288693 0.79688174
-0.38679278 -0.03234994 0.79839337
-0.38470957 -0.032411426 0.79991084
-0.38261834 -0.032473143 0.80143398
-0.38051915 -0.032535095 0.80296296
-0.37841195 -0.032597285 0.80449778
-0.3762967 -0.032659713 0.8060385
-0.37417331 -0.03272238 0.80758512
-0.37204179 -0.032785293 0.80913776
-0.36990201 -0.03284844 0.8106963
-0.36775398 -0.032911837 0.81226087
-0.36559767 -0.032975476 0.81383151
-0.36343303 -0.033039365 0.81540829
-0.36125991 -0.0331035 0.81699109
-0.35907838 -0.033167884 0.81858009
-0.35688832 -0.033232518 0.82017523
-0.35468975 -0.033297405 0.82177669
-0.35248256 -0.033362545 0.82338434
-0.3502667 -0.033427943 0.82499832
-0.34804216 -0.033493597 0.82661867
-0.34580883 -0.033559509 0.82824534
-0.34356675 -0.033625681 0.82987851
-0.34131575 -0.033692114 0.83151805
-0.33905587 -0.033758808 0.8331641
-0.33678702 -0.03382577 0.83481669
-0.33450916 -0.033893 0.83647591
-0.45543 -0.031357475 0.8476041
-0.44833308 -0.031072589 0.83990353
-0.44136399 -0.030792836 0.83234173
-0.43451926 -0.030518075 0.82491481
-0.42779559 -0.030248173 0.81761926
-0.42119014 -0.029983027 0.81045228
-0.41469941 -0.029722484 0.8034097
-0.40832061 -0.029466435 0.79648858
-0.40205055 -0.029214747 0.78968537
-0.39861003 -0.029166587 0.7883836
-0.39657509 -0.029221322 0.78986311
-0.39453253 -0.029276265 0.79134822
-0.39248225 -0.029331414 0.79283893
-0.39042428 -0.029386774 0.79433531
-0.38835847 -0.02944234 0.79583728
-0.38628486 -0.029498117 0.79734498
-0.38420343 -0.02955411 0.79885846
-0.38211402 -0.02961031 0.80037761
-0.38001665 -0.029666727 0.80190259
-0.37791127 -0.029723359 0.80343336
-0.37579784 -0.029780207 0.80496997
-0.37367636 -0.029837275 0.80651253
-0.37154669 -0.029894561 0.808061
-0.36940882 -0.029952066 0.80961537
-0.36726269 -0.030009793 0.81117576
-0.36510834 -0.030067746 0.81274223
-0.36294565 -0.030125922 0.81431478
-0.36077452 -0.030184323 0.81589335
-0.35859495 -0.030242948 0.817478
-0.35640693 -0.030301804 0.81906891
-0.35421041 -0.030360891 0.82066607
-0.35200524 -0.030420206 0.82226938
-0.34979144 -0.030479753 0.82387894
-0.34756899 -0.030539535 0.82549489
-0.34533781 -0.030599553 0.8271172
-0.34309784 -0.030659808 0.8287459
-0.3408953 -0.030724468 0.83049369
-0.33888105 -0.030807368 0.83273453
-0.33685598 -0.030890724 0.83498764
-0.33481976 -0.030974515 0.83725256
-0.45706815 -0.028473098 0.85065287
-0.44993106 -0.028213499 0.84289718
-0.44292289 -0.027958587 0.83528155
-0.43604025 -0.027708244 0.82780236
-0.42927974 -0.027462341 0.82045585
-0.42263821 -0.027220765 0.81323862
-0.41611278 -0.026983421 0.80614781
-0.40970016 -0.026750181 0.79917961
-0.40339735 -0.026520934 0.79233068
-0.39809316 -0.0263546 0.78736132
-0.3960599 -0.026403993 0.78883702
-0.39401901 -0.026453573 0.79031825
-0.39197046 -0.026503341 0.79180509
-0.38991418 -0.026553296 0.79329753
-0.38785014 -0.026603438 0.79479557
-0.38577831 -0.026653772 0.79629934
-0.38369861 -0.026704298 0.79780883
-0.38161102 -0.026755016 0.79932404
-0.37951547 -0.026805924 0.80084497
-0.3774119 -0.026857026 0.80237168
-0.37530032 -0.026908325 0.80390424
-0.37318069 -0.026959822 0.80544275
-0.37105289 -0.027011512 0.80698705
-0.36891693 -0.027063405 0.80853736
-0.36677274 -0.027115494 0.81009358
-0.3646203 -0.027167788 0.81165588
-0.36245954 -0.027220283 0.8132242
-0.36029041 -0.027272979 0.81479853
-0.35811284 -0.027325878 0.81637895
-0.35592684 -0.027378988 0.81796563
-0.35373232 -0.027432302 0.81955844
-0.35152921 -0.027485823 0.8211574
-0.34932548 -0.027540183 0.82278144
-0.34735259 -0.027613804 0.82498091
-0.34536907 -0.027687816 0.82719207
-0.34337497 -0.02776223 0.82941526
-0.34137008 -0.027837045 0.83165038
-0.33935437 -0.027912263 0.83389759
-0.33732757 -0.027987877 0.83615661
-0.33528975 -0.028063899 0.83842778
-0.45871818 -0.025567899 0.85372376
-0.45154041 -0.02533395 0.84591216
-0.44449285 -0.025104247 0.83824223
-0.43757191 -0.02487867 0.83071011
-0.43077427 -0.024657113 0.82331222
-0.42409661 -0.024439465 0.81604487
-0.41753578 -0.024225624 0.80890465
-0.41108903 -0.02401551 0.80188882
-0.40475321 -0.023809012 0.79499376
-0.3985253 -0.023606027 0.78821599
-0.39554605 -0.023593975 0.78781354
-0.39350685 -0.023638221 0.78929096
-0.39146 -0.023682633 0.79077393
-0.38940543 -0.023727212 0.79226243
-0.38734314 -0.02377196 0.7937566
-0.38527304 -0.02381688 0.79525644
-0.38319513 -0.023861969 0.79676199
-0.3811093 -0.023907226 0.79827315
-0.37901556 -0.023952655 0.79979008
-0.37691385 -0.023998259 0.8013128
-0.37480414 -0.024044039 0.80284142
-0.37268633 -0.02408999 0.80437577
-0.37056041 -0.024136119 0.80591601
-0.36842635 -0.024182424 0.80746216
-0.3662841 -0.02422891 0.80901432
-0.36413357 -0.024275571 0.81057239
-0.36197475 -0.024322415 0.81213647
-0.35980758 -0.024369439 0.81370664
-0.35763201 -0.024416642 0.81528282
-0.35566777 -0.024479158 0.81737024
-0.35372475 -0.024544166 0.81954086
-0.3517713 -0.024609515 0.82172292
-0.3498075 -0.024675217 0.82391673
-0.34783316 -0.02474127 0.82612228
-0.34584823 -0.024807679 0.8283397
-0.34385258 -0.024874443 0.83056897
-0.3418462 -0.024941569 0.83281034
-0.33982885 -0.025009051 0.83506358
-0.33780041 -0.025076887 0.83732867
-0.33576101 -0.025145097 0.83960623
-0.46038017 -0.022641648 0.85681689
-0.45316136 -0.022433732 0.84894884
-0.44607395 -0.022229599 0.84122396
-0.43911439 -0.02202915 0.83363849
-0.43227923 -0.021832284 0.82618856
-0.42556509 -0.021638904 0.81887054
-0.41896886 -0.021448918 0.81168103
-0.41248745 -0.02126224 0.80461663
-0.40611815 -0.021078797 0.79767472
-0.39985782 -0.020898493 0.79085153
-0.39503351 -0.020791238 0.78679276
-0.39299601 -0.020830177 0.7882663
-0.39095086 -0.020869263 0.78974539
-0.38889802 -0.020908495 0.79123008
-0.38683745 -0.020947877 0.79272038
-0.38476914 -0.020987408 0.79421633
-0.38269296 -0.021027086 0.79571784
-0.38060892 -0.021066915 0.79722506
-0.378517 -0.021106897 0.79873806
-0.3764171 -0.021147028 0.80025673
-0.37430924 -0.021187315 0.8017813
-0.37219331 -0.021227755 0.80331165
-0.37006924 -0.021268347 0.80484778
-0.36793706 -0.021309096 0.80638981
-0.36579674 -0.021350004 0.80793786
-0.36383095 -0.021401821 0.80989873
-0.36192718 -0.021458134 0.81202978
-0.3600134 -0.021514745 0.81417209
-0.35808948 -0.021571655 0.81632572
-0.35615531 -0.021628866 0.81849068
-0.35421091 -0.021686383 0.82066727
-0.35225612 -0.021744205 0.82285541
-0.35029089 -0.021802338 0.8250553
-0.34831509 -0.021860778 0.82726687
-0.34632871 -0.021919539 0.82949048
-0.34433159 -0.021978613 0.83172601
-0.34232354 -0.022037996 0.83397323
-0.34030458 -0.022097699 0.83623254
-0.33827463 -0.022157727 0.83850414
-0.33623362 -0.02221808 0.84078807
-0.45479408 -0.019512616 0.85200751
-0.44766638 -0.019334428 0.84422702
-0.44066778 -0.019159468 0.83658749
-0.43379471 -0.018987646 0.82908499
-0.4270438 -0.01881888 0.82171583
-0.42041185 -0.018653085 0.81447655
-0.41389573 -0.018490188 0.80736369
-0.40749243 -0.018330108 0.80037397
-0.40119919 -0.018172786 0.79350454
-0.39501315 -0.018018143 0.78675216
-0.39248648 -0.018029414 0.78724432
-0.39044306 -0.018063201 0.78871959
-0.38839191 -0.018097116 0.79020041
-0.38633308 -0.018131156 0.79168677
-0.38426653 -0.018165328 0.79317886
-0.38219213 -0.018199626 0.79467648
-0.38010988 -0.018234054 0.79617977
-0.37801972 -0.018268611 0.79768872
-0.3759217 -0.018303303 0.79920352
-0.37381566 -0.018338125 0.80072403
-0.37184629 -0.018380234 0.80256265
-0.36998066 -0.018428156 0.80465513
-0.36810535 -0.01847633 0.80675864
-0.36622024 -0.018524759 0.80887324
-0.36432517 -0.018573439 0.81099886
-0.36242008 -0.018622376 0.81313562
-0.36050498 -0.018671572 0.81528378
-0.35857973 -0.018721029 0.81744331
-0.35664424 -0.018770749 0.81961429
-0.35469842 -0.018820733 0.82179677
-0.35274222 -0.018870983 0.82399094
-0.35077557 -0.018921504 0.82619691
-0.34879836 -0.018972296 0.82841474
-0.34681049 -0.019023361 0.83064443
-0.34481177 -0.019074693 0.83288586
-0.34280217 -0.019126302 0.83513927
-0.34078166 -0.019178189 0.83740491
-0.33875015 -0.019230358 0.83968288
-0.33670756 -0.019282812 0.84197325
-0.44927099 -0.016418541 0.84725308
-0.44223276 -0.016269432 0.83955854
-0.43532115 -0.016123006 0.8320024
-0.42853293 -0.015979193 0.82458121
-0.42186475 -0.015837926 0.81729132
-0.41531357 -0.015699139 0.8101294
-0.40887624 -0.015562763 0.803092
-0.40254971 -0.015428735 0.79617566
-0.3963314 -0.015297001 0.78937775
-0.39197832 -0.015235906 0.78622502
-0.38993654 -0.01526442 0.78769642
-0.38788715 -0.015293042 0.78917342
-0.38583007 -0.015321772 0.79065597
-0.38376525 -0.01535061 0.79214412
-0.38169259 -0.015379556 0.79363781
-0.37971765 -0.015412893 0.79535818
-0.37788925 -0.015452719 0.79741335
-0.37605128 -0.015492749 0.79947901
-0.37420383 -0.015532989 0.80155551
-0.37234676 -0.015573439 0.80364287
-0.37047997 -0.015614099 0.80574107
-0.36860341 -0.01565497 0.80785018
-0.36671698 -0.015696058 0.80997044
-0.36482069 -0.015737362 0.8121019
-0.36291435 -0.015778884 0.81424457
-0.36099789 -0.015820624 0.8163985
-0.35907131 -0.015862588 0.81856394
-0.35713446 -0.015904773 0.82074088
-0.3551873 -0.015947185 0.82292944
-0.35322967 -0.015989821 0.82512963
-0.35126165 -0.016032688 0.82734174
-0.34928298 -0.016075786 0.8295657
-0.34729353 -0.016119108 0.8318013
-0.34529325 -0.016162664 0.83404887
-0.34328216 -0.016206453 0.8363086
-0.34126011 -0.01625048 0.83858055
-0.33922705 -0.016294749 0.84086496
-0.33718288 -0.016339257 0.84316176
-0.4438093 -0.013358808 0.84255153
-0.43685904 -0.013238152 0.83494169
-0.43003321 -0.013119657 0.82746804
-0.42332852 -0.013003265 0.82012713
-0.41674176 -0.01288892 0.81291527
-0.41026983 -0.012776569 0.80582917
-0.40390965 -0.012666157 0.79886538
-0.39765865 -0.012557641 0.79202121
-0.39151403 -0.012450976 0.78529376
-0.38943136 -0.01247289 0.78667593
-0.38744897 -0.012498354 0.78828192
-0.38565665 -0.01253036 0.79030061
-0.38385513 -0.012562532 0.79232967
-0.38204435 -0.012594868 0.79436916
-0.38022414 -0.01262737 0.79641908
-0.37839457 -0.012660041 0.79847968
-0.3765555 -0.012692883 0.800551
-0.37470689 -0.012725894 0.80263311
-0.37284857 -0.012759076 0.80472594
-0.37098059 -0.012792434 0.80682981
-0.36910284 -0.012825967 0.80894476
-0.36721516 -0.012859675 0.81107074
-0.36531752 -0.01289356 0.81320792
-0.36340991 -0.012927625 0.81535643
-0.36149216 -0.012961871 0.81751633
-0.35956424 -0.012996297 0.81968766
-0.35762602 -0.013030908 0.82187057
-0.35567752 -0.013065704 0.82406521
-0.35371852 -0.013100686 0.82627153
-0.351749 -0.013135855 0.82848966
-0.34976882 -0.013171211 0.83071959
-0.34777781 -0.013206753 0.83296126
-0.34577608 -0.013242489 0.83521515
-0.34376344 -0.013278416 0.83748114
-0.34173986 -0.01331454 0.83975953
-0.33970523 -0.01335086 0.84205025
-0.33765948 -0.013387381 0.84435362
-0.33560252 -0.0134241 0.84666955
-0.43840778 -0.010332843 0.83790171
-0.4315441 -0.01024003 0.83037531
-0.4248026 -0.010148868 0.82298291
-0.41818008 -0.010059314 0.81572092
-0.41167343 -0.009971329 0.80858606
-0.40527955 -0.0098848669 0.80157477
-0.39899561 -0.0097998921 0.79468411
-0.39281884 -0.0097163673 0.78791094
-0.38974532 -0.0097089587 0.78731018
-0.38796118 -0.0097337933 0.78932405
-0.38616776 -0.0097587518 0.79134798
-0.38436517 -0.0097838407 0.79338247
-0.38255328 -0.0098090582 0.79542738
-0.380732 -0.009834406 0.79748285
-0.37890127 -0.0098598842 0.79954892
-0.37706107 -0.0098854955 0.80162579
-0.37521124 -0.0099112401 0.80371344
-0.37335181 -0.0099371206 0.80581206
-0.37148255 -0.0099631334 0.80792153
-0.36960357 -0.0099892858 0.8100422
-0.36771464 -0.010015574 0.81217396
-0.36581579 -0.010042002 0.81431705
-0.36390683 -0.010068568 0.81647134
-0.3619878 -0.010095277 0.81863719
-0.36005855 -0.010122128 0.82081455
-0.35811901 -0.010149121 0.82300347
-0.35616904 -0.010176259 0.82520407
-0.35420868 -0.010203542 0.82741654
-0.3522377 -0.010230971 0.82964069
-0.35025594 -0.010258542 0.83187652
-0.3482635 -0.010286264 0.83412451
-0.34626028 -0.010314136 0.83638465
-0.34424609 -0.010342157 0.83865696
-0.34222096 -0.010370333 0.84094173
-0.34018481 -0.010398662 0.84323901
-0.33813748 -0.010427147 0.84554887
-0.33607891 -0.010455788 0.84787142
-0.43306559 -0.007340095 0.83330297
-0.42628694 -0.007274521 0.82585853
-0.41962838 -0.0072101094 0.81854606
-0.41308662 -0.0071468274 0.81136179
-0.40665871 -0.0070846467 0.80430257
-0.40034172 -0.0070235389 0.79736513
-0.39413276 -0.0069634765 0.79054642
-0.3902595 -0.0069441195 0.78834885
-0.38847438 -0.0069619063 0.79036814
-0.38668004 -0.006979784 0.79239774
-0.38487649 -0.0069977543 0.79443789
-0.38306355 -0.0070158159 0.7964884
-0.3812412 -0.0070339702 0.79854941
-0.37940937 -0.0070522185 0.80062109
-0.37756795 -0.0070705609 0.80270344
-0.37571698 -0.0070889997 0.80479676
-0.37385634 -0.0071075344 0.80690098
-0.37198594 -0.0071261674 0.80901629
-0.37010565 -0.0071448968 0.81114262
-0.3682155 -0.0071637258 0.81328022
-0.36631536 -0.0071826545 0.81542915
-0.36440516 -0.0072016828 0.8175894
-0.36248478 -0.0072208121 0.8197611
-0.36055419 -0.007240044 0.82194442
-0.35861328 -0.0072593782 0.82413942
-0.35666201 -0.0072788163 0.82634616
-0.35470015 -0.0072983573 0.82856458
-0.35272762 -0.0073180003 0.83079463
-0.35074443 -0.0073377495 0.83303672
-0.3487505 -0.0073576053 0.83529091
-0.34674573 -0.0073775691 0.83755732
-0.34473011 -0.0073976419 0.83983612
-0.34270346 -0.0074178241 0.84212738
-0.34066573 -0.0074381162 0.8444311
-0.33861682 -0.0074585201 0.84674752
-0.33655661 -0.0074790362 0.84907663
-0.42778176 -0.004380018 0.82875448
-0.42108673 -0.0043411003 0.82139081
-0.41450962 -0.0043028682 0.81415677
-0.40804732 -0.0042653028 0.80704898
-0.40169695 -0.0042283889 0.80006438
-0.39545548 -0.0041921074 0.79319948
-0.39077505 -0.0041719754 0.78939027
-0.38898888 -0.0041826759 0.79141492
-0.38719347 -0.0041934312 0.79344994
-0.38538885 -0.004204242 0.79549545
-0.3835749 -0.0042151087 0.79755163
-0.38175154 -0.0042260317 0.79961836
-0.37991869 -0.0042370115 0.80169588
-0.37807626 -0.0042480477 0.80378407
-0.37622407 -0.0042591402 0.80588293
-0.37436223 -0.0042702914 0.80799288
-0.37249061 -0.0042815013 0.81011391
-0.37060913 -0.0042927698 0.81224608
-0.36871773 -0.004304098 0.81438947
-0.36681631 -0.0043154862 0.81654423
-0.36490482 -0.0043269345 0.81871045
-0.36298314 -0.0043384437 0.82088816
-0.3610512 -0.0043500145 0.82307744
-0.35910895 -0.0043616472 0.82527852
-0.35715622 -0.0043733413 0.82749122
-0.35519287 -0.004385097 0.82971555
-0.35321891 -0.0043969159 0.8319518
-0.35123426 -0.0044087982 0.83420008
-0.34923887 -0.0044207452 0.83646059
-0.34723264 -0.0044327574 0.83873343
-0.3452155 -0.0044448348 0.84101862
-0.3431873 -0.0044569783 0.84331632
-0.34114802 -0.0044691879 0.84562659
-0.33909753 -0.0044814651 0.84794956
-0.33703569 -0.0044938093 0.85028523
-0.42255524 -0.0014520799 0.82425535
-0.41594246 -0.0014392473 0.81697106
-0.40944546 -0.0014266393 0.80981427
-0.40306136 -0.0014142503 0.80278188
-0.39678717 -0.0014020747 0.79587054
-0.39129195 -0.001392498 0.79043442
-0.38950473 -0.0013960743 0.79246444
-0.38770828 -0.0013996689 0.79450488
-0.38590258 -0.001403282 0.79655588
-0.38408756 -0.0014069141 0.79861754
-0.38226303 -0.0014105648 0.80068976
-0.38042909 -0.0014142345 0.80277288
-0.37858555 -0.0014179235 0.80486685
-0.37673238 -0.0014216315 0.80697173
-0.37486947 -0.0014253593 0.80908769
-0.37299666 -0.001429106 0.81121451
-0.37111399 -0.0014328725 0.81335253
-0.36922133 -0.0014366589 0.81550181
-0.36731863 -0.0014404652 0.81766242
-0.36540586 -0.0014442919 0.81983459
-0.36348286 -0.0014481388 0.82201827
-0.36154962 -0.0014520065 0.82421368
-0.35960597 -0.0014558946 0.82642072
-0.35765171 -0.0014598029 0.82863921
-0.3556869 -0.0014637322 0.83086962
-0.35371155 -0.0014676828 0.83311212
-0.35172546 -0.0014716546 0.83536673
-0.34972861 -0.0014756483 0.83763361
-0.34772092 -0.0014796635 0.83991283
-0.34570223 -0.0014837006 0.84220445
-0.34367254 -0.0014877599 0.84450865
-0.34163165 -0.0014918413 0.84682542
-0.33957955 -0.0014959452 0.84915495
-0.33751616 -0.0015000717 0.85149735
-0.41738519 0.0014442394 0.81980479
-0.41085321 0.0014315442 0.81259853
-0.40443504 0.0014190703 0.80551785
-0.39812779 0.001406812 0.79855961
-0.39192858 0.0013947636 0.79172045
-0.39002198 0.0013979282 0.79351681
-0.38822445 0.0014015323 0.79556262
-0.38641769 0.0014051552 0.7976191
-0.38460153 0.0014087969 0.79968625
-0.38277593 0.0014124573 0.80176407
-0.38094085 0.001416137 0.8038528
-0.37909615 0.0014198357 0.80595237
-0.37724182 0.001423554 0.80806297
-0.37537771 0.0014272918 0.81018466
-0.37350386 0.0014310492 0.81231755
-0.37162003 0.0014348264 0.81446159
-0.36972627 0.0014386236 0.81661707
-0.36782238 0.0014424407 0.81878376
-0.36590827 0.0014462777 0.82096183
-0.36398396 0.0014501353 0.82315153
-0.36204937 0.0014540135 0.82535297
-0.36010414 0.0014579116 0.82756561
-0.35814855 0.0014618307 0.82979029
-0.35618237 0.001465771 0.83202696
-0.35420558 0.0014697326 0.83427572
-0.35221809 0.0014737158 0.83653671
-0.35021976 0.0014777204 0.83880991
-0.34821057 0.0014817471 0.84109557
-0.34619033 0.0014857955 0.84339356
-0.3441591 0.0014898662 0.84570426
-0.34211665 0.0014939592 0.84802765
-0.34006301 0.0014980749 0.85036385
-0.337998 0.0015022133 0.85271299
-0.41227069 0.0043094498 0.81540209
-0.40581816 0.0042717704 0.80827266
-0.39947754 0.0042347442 0.80126691
-0.39324588 0.0041983547 0.7943815
-0.39054057 0.004199361 0.79457194
-0.38874203 0.0042102025 0.79662329
-0.38693416 0.0042210999 0.79868519
-0.38511693 0.0042320541 0.80075788
-0.38329026 0.0042430656 0.80284137
-0.38145396 0.0042541334 0.80493557
-0.37960815 0.00426526 0.80704087
-0.37775263 0.0042764451 0.80915719
-0.37588736 0.0042876885 0.8112846
-0.37401226 0.0042989915 0.81342328
-0.37212726 0.0043103546 0.81557328
-0.37023222 0.0043217768 0.81773454
-0.36832717 0.0043332605 0.81990743
-0.36641189 0.0043448051 0.82209176
-0.36486056 0.0043608835 0.82513398
-0.36255029 0.0043680756 0.82649487
-0.36060378 0.0043798028 0.82871383
-0.35864678 0.0043915929 0.83094466
-0.3566792 0.0044034473 0.83318758
-0.35470098 0.0044153649 0.8354426
-0.35271204 0.0044273478 0.8377099
-0.35071221 0.0044393954 0.83998942
-0.34870154 0.0044515091 0.84228152
-0.34667984 0.0044636889 0.84458607
-0.34464708 0.0044759358 0.84690338
-0.34260306 0.0044882498 0.84923333
-0.34054783 0.0045006322 0.85157621
-0.33848122 0.0045130826 0.85393202
-0.40721077 0.0071440483 0.8110463
-0.40083644 0.0070819161 0.80399257
-0.39457208 0.0070208553 0.79706049
-0.39106056 0.0070082536 0.79562986
-0.38926098 0.0070263711 0.7976867
-0.38745201 0.0070445817 0.79975408
-0.38563371 0.0070628882 0.80183238
-0.38380587 0.0070812893 0.8039214
-0.3819685 0.0070997863 0.80602133
-0.38012153 0.0071183806 0.80813229
-0.37826487 0.0071370732 0.8102544
-0.37639835 0.0071558626 0.81238753
-0.37452206 0.0071747522 0.81453204
-0.37263584 0.0071937419 0.81668788
-0.38347986 0.0074606976 0.8469947
-0.37754583 0.0074028592 0.84042847
-0.37170309 0.0073459111 0.83396327
-0.36594957 0.0072898325 0.82759678
-0.36305264 0.0072902134 0.82764006
-0.36110476 0.0073098131 0.82986516
-0.35914639 0.0073295184 0.83210224
-0.35717744 0.00734933 0.83435142
-0.35519779 0.0073692491 0.83661276
-0.35320738 0.0073892754 0.83888632
-0.35120612 0.0074094124 0.8411724
-0.34919393 0.007429658 0.84347087
-0.34717074 0.0074500157 0.84578204
-0.3451364 0.0074704848 0.84810585
-0.34309086 0.0074910671 0.85044247
-0.34103402 0.0075117629 0.85279202
-0.33896577 0.0075325728 0.85515451
-0.33688605 0.0075534992 0.85753024
-0.40220466 0.0099485246 0.80673689
-0.39590725 0.0098624583 0.79975766
-0.39158192 0.0098246355 0.79669058
-0.3897813 0.0098500689 0.79875296
-0.38797125 0.0098756319 0.80082589
-0.38615185 0.0099013289 0.80290973
-0.38432294 0.0099271601 0.80500442
-0.38248441 0.0099531254 0.80710995
-0.3806363 0.0099792285 0.80922669
-0.40946427 0.010816038 0.87708443
-0.40311262 0.010729233 0.87004536
-0.39686203 0.010643809 0.86311823
-0.39071026 0.010559737 0.85630071
-0.38465485 0.01047698 0.84958994
-0.37869361 0.010395511 0.84298348
-0.37282375 0.010315281 0.83647758
-0.36704493 0.010236313 0.83007389
-0.3635563 0.010220458 0.82878822
-0.36160713 0.010247976 0.83101964
-0.35964742 0.010275641 0.83326304
-0.35767701 0.010303454 0.83551842
-0.35569596 0.010331417 0.83778608
-0.35370412 0.010359535 0.84006613
-0.35170141 0.010387805 0.84235865
-0.34968776 0.010416231 0.84466368
-0.34766302 0.010444812 0.84698135
-0.34562716 0.01047355 0.84931177
-0.34358001 0.010502446 0.85165495
-0.34152159 0.010531503 0.85401124
-0.33945176 0.010560721 0.85638058
-0.3373704 0.010590103 0.8587631
-0.39725146 0.012723356 0.80247301
-0.39210472 0.012648539 0.79775423
-0.39030299 0.012681324 0.79982203
-0.38849193 0.012714281 0.80190063
-0.38667139 0.012747409 0.80399001
-0.4305422 0.01429845 0.90181553
-0.42383766 0.014180442 0.8943727
-0.41724285 0.014064366 0.88705164
-0.41076589 0.013950539 0.8798725
-0.40438142 0.013838148 0.8727839
-0.39810121 0.013727629 0.86581331
-0.39192057 0.013618861 0.8589533
-0.38583708 0.013511804 0.8522011
-0.37984759 0.013406386 0.84555227
-0.37395096 0.013302603 0.8390066
-0.36814681 0.013200483 0.83256584
-0.36406133 0.013158843 0.82993954
-0.36211079 0.013194321 0.83217716
-0.36014977 0.013229991 0.83442694
-0.35817802 0.013265853 0.83668876
-0.35619557 0.013301909 0.83896285
-0.35420227 0.013338161 0.84124929
-0.35219809 0.013374612 0.84354824
-0.35018295 0.013411262 0.84585983
-0.34815669 0.013448112 0.84818399
-0.34611925 0.013485166 0.85052103
-0.34407061 0.013522426 0.852871
-0.34201059 0.013559892 0.85523403
-0.33993915 0.013597566 0.85761017
-0.33785614 0.01363545 0.85999954
-0.43194711 0.017532907 0.90475821
-0.42520916 0.017387735 0.89726681
-0.41858196 0.01724495 0.8898986
-0.41206858 0.017104734 0.88266295
-0.40565833 0.016966699 0.87553984
-0.39934823 0.016830768 0.86852539
-0.39313841 0.016696999 0.86162239
-0.38702658 0.01656534 0.85482836
-0.3810083 0.016435651 0.84813601
-0.37508887 0.016308213 0.84155971
-0.36925542 0.016182508 0.83507293
-0.36456779 0.016105404 0.83109415
-0.36261594 0.016148888 0.83333802
-0.36065352 0.016192608 0.83559406
-0.35868043 0.016236562 0.83786231
-0.35669658 0.016280757 0.84014291
-0.35470185 0.016325189 0.84243578
-0.35269618 0.016369864 0.84474117
-0.35067952 0.016414786 0.84705925
-0.34865174 0.016459953 0.84939009
-0.34661284 0.016505374 0.85173386
-0.34456259 0.016551042 0.85409051
-0.34250101 0.016596965 0.85646033
-0.34042794 0.016643142 0.85884327
-0.33834323 0.016689576 0.86123943
-0.43336117 0.020788543 0.90772015
-0.42658967 0.020615857 0.90017992
-0.41992971 0.020446016 0.89276385
-0.4133786 0.020278949 0.88546902
-0.40694761 0.020115282 0.87832254
-0.40060303 0.019953407 0.87125438
-0.39436391 0.019794326 0.86430824
-0.388226 0.019637892 0.85747755
-0.38218123 0.019483749 0.85074699
-0.37623054 0.019332005 0.84412116
-0.37037066 0.019182544 0.83759505
-0.36507568 0.019060176 0.83225191
-0.36312243 0.019111708 0.83450204
-0.36115864 0.019163519 0.8367644
-0.35918415 0.019215614 0.83903903
-0.35719889 0.019267991 0.84132606
-0.35520279 0.019320654 0.84362555
-0.3531957 0.019373603 0.84593755
-0.35117751 0.019426841 0.84826219
-0.34914827 0.019480376 0.85059971
-0.34710777 0.019534204 0.8529501
-0.345056 0.019588331 0.85531354
-0.34299281 0.019642761 0.85769016
-0.34091809 0.019697489 0.86007988
-0.33883178 0.019752527 0.86248302
-0.43478554 0.024065621 0.91070366
-0.42798206 0.023865171 0.90311807
-0.42128617 0.023667762 0.89564764
-0.41470292 0.023473751 0.88830578
-0.40823209 0.023283198 0.88109481
-0.40186578 0.023095734 0.87400067
-0.39559451 0.022910878 0.86700529
-0.38942418 0.022729037 0.86012399
-0.3833521 0.022550123 0.85335338
-0.37737927 0.022374265 0.84669846
-0.37149262 0.022200754 0.84013242
-0.36569667 0.02202992 0.83366758
-0.36363038 0.022082817 0.83566934
-0.36166519 0.022142766 0.83793801
-0.3596893 0.022203043 0.84021902
-0.35770264 0.02226365 0.84251255
-0.35570511 0.022324588 0.84481859
-0.35369658 0.02238586 0.84713727
-0.35167694 0.022447465 0.84946853
-0.34964618 0.022509411 0.85181272
-0.34760416 0.022571698 0.85416985
-0.34555078 0.022634331 0.85654002
-0.34348598 0.022697311 0.85892338
-0.34140968 0.022760645 0.86132008
-0.33932176 0.022824334 0.86373019
-0.42938027 0.027135557 0.90606856
-0.42265406 0.026910558 0.89855582
-0.41604215 0.026689496 0.89117444
-0.41055182 0.026537569 0.88610154
-0.40904173 0.026642565 0.88960737
-0.39684042 0.02604744 0.8697359
-0.39063615 0.025839744 0.86280084
-0.3845419 0.025636125 0.85600191
-0.37853491 0.025435153 0.84929132
-0.37262145 0.025237309 0.84268522
-0.36679927 0.025042521 0.83618116
-0.36413974 0.02506225 0.83683991
-0.36217317 0.025130384 0.83911496
-0.36019593 0.025198892 0.84140247
-0.35820782 0.025267771 0.84370238
-0.35620883 0.025337031 0.84601498
-0.35419887 0.02540667 0.84834027
-0.3521778 0.025476692 0.85067832
-0.35014549 0.025547095 0.85302913
-0.34810191 0.02561789 0.85539299
-0.34604698 0.025689078 0.85777003
-0.34398064 0.025760664 0.86016029
-0.3419027 0.025832649 0.86256391
-0.33981314 0.025905037 0.864981
-0.43078664 0.030427311 0.90903628
-0.42403024 0.030174436 0.90148151
-0.41738254 0.02992554 0.89404559
-0.41235122 0.02978963 0.8899852
-0.4104684 0.02988084 0.89271015
-0.4085207 0.029968701 0.89533502
-0.39185858 0.028970091 0.86550087
-0.3857325 0.028740853 0.85865223
-0.37969771 0.028514849 0.85190022
-0.37375718 0.028292377 0.84525371
-0.36790857 0.028073344 0.83871001
-0.36465052 0.028050041 0.83801377
-0.36268258 0.028126404 0.8402952
-0.36070392 0.028203186 0.84258908
-0.3587144 0.028280389 0.84489554
-0.35671398 0.028358014 0.8472147
-0.3547025 0.028436067 0.84954655
-0.35267997 0.028514551 0.85189134
-0.35064626 0.028593471 0.85424912
-0.34860116 0.028672822 0.85661978
-0.34654465 0.028752614 0.8590036
-0.34447667 0.028832849 0.86140072
-0.34239715 0.028913537 0.86381131
-0.34030589 0.028994674 0.86623532
-0.42541197 0.033459369 0.90441906
-0.41873461 0.033182744 0.89694178
-0.41326869 0.03299864 0.89196539
-0.41123202 0.033087634 0.89437091
-0.40915084 0.033174392 0.89671606
-0.39308229 0.032119565 0.86820364
-0.3869305 0.031864863 0.86131901
-0.38086772 0.031613525 0.85452527
-0.37489983 0.031366121 0.84783781
-0.3690246 0.031122556 0.84125417
-0.36516273 0.031046225 0.8391909
-0.36319342 0.031130865 0.84147877
-0.36121336 0.031215969 0.84377915
-0.35922241 0.031301539 0.8460921
-0.35722053 0.031387579 0.84841782
-0.35520762 0.031474095 0.85075635
-0.3531836 0.031561088 0.85310781
-0.35114834 0.031648561 0.85547233
-0.34910178 0.031736523 0.85784996
-0.34704375 0.031824972 0.86024076
-0.34497419 0.03191391 0.86264479
-0.342893 0.032003347 0.8650623
-0.34080014 0.032093287 0.86749339
-0.33869553 0.032183737 0.86993825
-0.4268024 0.03676575 0.9073751
-0.42009157 0.036460776 0.8998484
-0.41374773 0.03618326 0.89299935
-0.41161102 0.036272235 0.89519519
-0.40943623 0.036359202 0.89734155
-0.40722251 0.036444038 0.89943528
-0.38813594 0.035008341 0.86400241
-0.38204491 0.034731358 0.85716647
-0.37604946 0.034458715 0.8504377
-0.37014744 0.034190327 0.8438139
-0.36567643 0.034050841 0.84037143
-0.36370575 0.034143806 0.84266573
-0.36172426 0.034237277 0.84497261
-0.35973191 0.034331258 0.84729213
-0.35772857 0.034425762 0.84962445
-0.3557142 0.03452079 0.85196966
-0.35368863 0.034616336 0.85432774
-0.35165188 0.034712419 0.85669905
-0.34960374 0.034809031 0.85908347
-0.34754419 0.034906186 0.86148125
-0.34547311 0.035003882 0.86389238
-0.34339032 0.035102122 0.86631691
-0.34129584 0.035200916 0.86875516
-0.3391895 0.035300266 0.87120706
-0.42820191 0.040093813 0.91035044
-0.42145762 0.039760154 0.90277451
-0.41482469 0.039432004 0.89532375
-0.41169834 0.039434705 0.89538509
-0.40944025 0.039521258 0.89735031
-0.40714899 0.03960593 0.89927286
-0.38934898 0.03817147 0.86670268
-0.3832294 0.037868518 0.859824
-0.37720624 0.037570342 0.85305375
-0.37127712 0.037276819 0.84638917
-0.36619154 0.037063919 0.84155518
-0.36421943 0.037165251 0.84385592
-0.36223659 0.037267137 0.84616935
-0.36024281 0.037369587 0.84849548
-0.35823804 0.037472598 0.85083443
-0.35622218 0.03757618 0.85318631
-0.35419518 0.037680335 0.85555124
-0.35215688 0.037785072 0.85792935
-0.35010722 0.037890393 0.86032069
-0.34804612 0.0379963 0.86272538
-0.34597343 0.038102802 0.86514354
-0.34388909 0.0382099 0.86757523
-0.34179294 0.038317595 0.87002051
-0.33968493 0.038425896 0.87247956
-0.42283264 0.043081064 0.90571988
-0.41616684 0.042724352 0.89822054
-0.41152528 0.042571582 0.89500874
-0.40919006 0.04265688 0.89680201
-0.40682393 0.042740256 0.89855492
-0.39056656 0.041354105 0.86941302
-0.38442123 0.041025192 0.86249804
-0.37837011 0.040701166 0.85568583
-0.37241369 0.040382206 0.84898019
-0.36670807 0.040085498 0.84274226
-0.36473462 0.040195245 0.84504956
-0.36275038 0.040305596 0.84736955
-0.36075515 0.040416554 0.84970224
-0.35874894 0.040528122 0.85204786
-0.35673162 0.040640313 0.85440648
-0.35470313 0.040753126 0.8567782
-0.35266331 0.040866565 0.85916311
-0.3506121 0.040980633 0.8615613
-0.34854943 0.041095346 0.86397296
-0.34647515 0.041210704 0.86639816
-0.34438923 0.041326709 0.868837
-0.34229144 0.041443359 0.87128943
-0.3401818 0.041560672 0.87375581
-0.4242166 0.046423703 0.90868437
-0.41751766 0.046038069 0.90113604
-0.41109386 0.045677096 0.89407045
-0.40867749 0.045759257 0.89567864
-0.40622401 0.045838509 0.89722991
-0.39179552 0.044557136 0.87214869
-0.3856163 0.044201076 0.8651793
-0.37954116 0.043851368 0.85833418
-0.3735573 0.043506674 0.85158724
-0.36766678 0.043167353 0.84494549
-0.3652513 0.043233827 0.8462466
-0.36326563 0.043352686 0.84857315
-0.361269 0.043472204 0.85091251
-0.35926136 0.043592382 0.85326487
-0.35724255 0.043713227 0.85563022
-0.35521254 0.043834738 0.85800868
-0.3531712 0.043956932 0.86040044
-0.35111848 0.044079807 0.8628056
-0.34905422 0.044203375 0.86522424
-0.34697837 0.044327632 0.86765647
-0.3448908 0.044452589 0.87010235
-0.34279141 0.044578254 0.87256205
-0.34068015 0.044704638 0.87503582
-0.4188773 0.049373373 0.90407062
-0.41225639 0.04896532 0.89659882
-0.40785623 0.048816767 0.8938787
-0.40529329 0.048887517 0.89517421
-0.40267134 0.0489522 0.89635861
-0.38682631 0.047397688 0.86789411
-0.38071716 0.047020845 0.86099374
-0.37470791 0.046650384 0.85421026
-0.36879039 0.046285432 0.84752768
-0.36576939 0.046281025 0.84744698
-0.36378232 0.046408445 0.84978014
-0.36178428 0.046536569 0.85212618
-0.35977519 0.046665404 0.85448527
-0.35775495 0.046794951 0.85685742
-0.35572344 0.046925217 0.85924274
-0.35368058 0.047056217 0.86164141
-0.35162631 0.047187943 0.86405349
-0.3495605 0.047320414 0.86647916
-0.34748304 0.047453634 0.86891848
