# .PCD v0.7 - Point Cloud Data file format
VERSION 0.7
FIELDS x y z
SIZE 4 4 4
TYPE F F F
COUNT 1 1 1
WIDTH 677
HEIGHT 1
VIEWPOINT 0 0 0 1 0 0 0
POINTS 677
DATA ascii
0.29574609 -0.32834801 1.3218633
0.30018502 -0.32810923 1.320902
0.30461755 -0.32787079 1.3199421
0.30904365 -0.32763273 1.3189837
0.31346408 -0.3273958 1.3180299
0.31787977 -0.32716092 1.3170843
0.32228914 -0.32692641 1.3161402
0.32669219 -0.32669219 1.3151973
0.33108896 -0.32645833 1.3142558
0.33641058 -0.32713029 1.3169609
0.28451824 -0.32152873 1.3130349
0.28858572 -0.32090732 1.3104972
0.29263738 -0.32028815 1.3079686
0.29667339 -0.31967133 1.3054497
0.3006939 -0.31905687 1.3029405
0.30469897 -0.31844479 1.3004409
0.30868876 -0.31783509 1.297951
0.31266326 -0.31722769 1.2954706
0.31662259 -0.31662259 1.2929995
0.32137752 -0.31681895 1.2938014
0.32790139 -0.31872934 1.3016028
0.33450446 -0.32066292 1.309499
0.34118828 -0.32262021 1.3174921
0.28075731 -0.31788224 1.3170946
0.2848444 -0.31726572 1.3145401
0.28891623 -0.31665218 1.311998
0.29297173 -0.31604037 1.309463
0.29701173 -0.31543106 1.3069385
0.30103618 -0.31482407 1.3044236
0.30504513 -0.31421942 1.3019183
0.30903876 -0.31361711 1.2994226
0.31301716 -0.31301716 1.2969369
0.3169798 -0.31241894 1.2944583
0.32092777 -0.31182343 1.2919909
0.32606506 -0.31238401 1.2943135
0.33261982 -0.31426838 1.3021212
0.33925414 -0.31617564 1.3100235
0.34597114 -0.31810769 1.3180287
0.27697301 -0.31421307 1.3211793
0.28108016 -0.31360182 1.3186091
0.28517133 -0.31299293 1.3160489
0.28924674 -0.31238645 1.3134989
0.29330587 -0.31178185 1.3109566
0.29735032 -0.31118056 1.3084284
0.3013792 -0.31058162 1.30591
0.30539206 -0.30998442 1.303399
0.30938935 -0.30938935 1.3008969
0.31337151 -0.30879673 1.2984051
0.31733763 -0.3082056 1.2959195
0.32128954 -0.30761763 1.2934473
0.3252264 -0.3070319 1.2909844
0.33075634 -0.30794555 1.294826
0.33734202 -0.3098039 1.3026398
0.34400845 -0.3116855 1.3105515
0.35075787 -0.31359148 1.3185656
0.2731652 -0.31052113 1.3252895
0.27729249 -0.30991516 1.3227032
0.28140375 -0.30931154 1.3201271
0.28549898 -0.30871028 1.3175609
0.28957897 -0.30811203 1.3150076
0.29364315 -0.30751604 1.312464
0.30008537 -0.30939034 1.3204634
0.30942774 -0.31415182 1.3407851
0.30973974 -0.30515099 1.3023701
0.31372666 -0.30456674 1.2998766
0.31769642 -0.30398291 1.2973847
0.32165211 -0.30340236 1.294907
0.3255927 -0.30282399 1.2924385
0.32951832 -0.30224785 1.2899796
0.3354513 -0.30350354 1.2953389
0.34206799 -0.30533585 1.303159
0.34876719 -0.3071923 1.3110822
0.3555485 -0.30907157 1.3191029
0.2693336 -0.30680609 1.3294253
0.27348128 -0.30620554 1.326823
0.27761275 -0.30560729 1.3242308
0.28172806 -0.30501136 1.3216486
0.28582743 -0.30441782 1.3190767
0.2899116 -0.30382735 1.3165181
0.2962321 -0.30556226 1.3240356
0.3041065 -0.30882132 1.3381575
0.31408289 -0.30032745 1.3013526
0.31805602 -0.29975066 1.2988533
0.32201552 -0.29917753 1.2963699
0.32595986 -0.2986066 1.293896
0.32988921 -0.29803783 1.2914314
0.33380359 -0.29747123 1.2889763
0.34015 -0.29905805 1.2958522
0.34679902 -0.30086538 1.3036835
0.35352984 -0.30269548 1.3116136
0.26547801 -0.3030678 1.3335871
0.2696462 -0.30247271 1.3309684
0.27379808 -0.30187991 1.32836
0.27793366 -0.30128944 1.3257617
0.28205317 -0.30070132 1.3231738
0.28615659 -0.30011544 1.3205957
0.29061365 -0.29991329 1.3197062
0.29798114 -0.30267379 1.3318532
0.30530456 -0.30530456 1.3434293
0.31443784 -0.29607651 1.3028232
0.31841648 -0.29550883 1.3003253
0.32237974 -0.29494315 1.2978362
0.32632783 -0.29437965 1.2953566
0.33026084 -0.29381827 1.2928864
0.33417892 -0.29325905 1.2904257
0.33825347 -0.29285032 1.288627
0.34485289 -0.29460943 1.2963676
0.35153395 -0.29639137 1.3042088
0.3582963 -0.298195 1.3121452
0.26159814 -0.29930598 1.3377745
0.26578698 -0.29871634 1.335139
0.26995912 -0.29812875 1.3325129
0.27411488 -0.2975435 1.329897
0.27825448 -0.29696065 1.327292
0.28237775 -0.29637995 1.3246964
0.28648499 -0.29580155 1.3221112
0.29147449 -0.29613808 1.3236153
0.29849222 -0.29849222 1.3341374
0.30548373 -0.30074754 1.3442178
0.31877783 -0.29125744 1.301801
0.32274479 -0.29069921 1.2993058
0.32669663 -0.29014316 1.2968205
0.33063343 -0.28958929 1.2943449
0.33455518 -0.28903747 1.2918786
0.33846208 -0.28848782 1.2894218
0.34292886 -0.2884236 1.2891349
0.3495605 -0.29015806 1.2968872
0.35627273 -0.29191378 1.3047345
0.36385056 -0.29432499 1.3155116
0.26190346 -0.29493633 1.3393359
0.26609659 -0.29435462 1.3366944
0.27027321 -0.2937752 1.3340632
0.27443343 -0.29319811 1.3314425
0.27857733 -0.29262322 1.3288319
0.28270462 -0.29205021 1.3262298
0.28681582 -0.2914795 1.3236381
0.29148135 -0.29148135 1.3236465
0.29820466 -0.29350853 1.3328521
0.30490524 -0.29545081 1.3416722
0.31157011 -0.29729971 1.3500683
0.31913954 -0.28699601 1.3032781
0.32311031 -0.28644529 1.3007773
0.32706586 -0.28589672 1.2982862
0.33100626 -0.28535023 1.2958045
0.33493236 -0.28480643 1.293335
0.3388429 -0.28426418 1.2908726
0.34273851 -0.28372392 1.2884192
0.34865382 -0.28484789 1.2935233
0.35652748 -0.28752217 1.3056674
0.36455029 -0.29024705 1.3180414
0.2622095 -0.29055649 1.340901
0.26640692 -0.28998277 1.3382534
0.27058777 -0.28941128 1.335616
0.2747522 -0.28884208 1.3329891
0.27890027 -0.28827506 1.3303725
0.28303212 -0.28771034 1.3277662
0.28714779 -0.28714779 1.32517
0.29124737 -0.28658742 1.322584
0.29722008 -0.28785884 1.3284515
0.30358621 -0.2894659 1.3358681
0.30985984 -0.2909371 1.3426576
0.31600234 -0.29224277 1.3486831
0.315512 -0.28326991 1.3072739
0.31950268 -0.28272539 1.3047611
0.32347733 -0.28218237 1.3022549
0.32743672 -0.28164136 1.2997583
0.33138096 -0.28110248 1.2972714
0.33531013 -0.28056562 1.2947937
0.33922437 -0.28003085 1.2923259
0.34312367 -0.27949807 1.2898672
0.34931308 -0.28082034 1.2959692
0.35720792 -0.28346178 1.3081594
0.3652527 -0.28615338 1.320581
0.26251626 -0.28616637 1.3424697
0.26671797 -0.28560066 1.3398159
0.27090311 -0.28503719 1.3371724
0.27507177 -0.28447592 1.3345394
0.27922401 -0.28391686 1.3319167
0.28336 -0.28336 1.3293043
0.28747979 -0.28280532 1.3267022
0.2915847 -0.28225401 1.3241159
0.29567119 -0.28170246 1.3215286
0.30133545 -0.282648 1.3259642
0.30696115 -0.28352901 1.3300972
0.31205252 -0.2838974 1.3318255
0.31186342 -0.27952203 1.3112996
0.31587249 -0.27898225 1.3087674
0.3198663 -0.27844477 1.3062459
0.32384476 -0.27790934 1.3037341
0.32780793 -0.27737594 1.3012319
0.33175597 -0.27684462 1.2987393
0.33568883 -0.27631527 1.2962561
0.3396067 -0.27578801 1.2937825
0.34350973 -0.27526274 1.2913184
0.34997487 -0.27677751 1.2984245
0.35789102 -0.27938589 1.310661
0.36595786 -0.28204393 1.3231305
0.26282376 -0.281766 1.3440422
0.26702979 -0.28120837 1.3413821
0.27121916 -0.28065288 1.3387325
0.27539206 -0.2800996 1.3360933
0.2795485 -0.2795485 1.3334645
0.2836886 -0.27899954 1.330846
0.28781253 -0.27845278 1.3282379
0.29192105 -0.27790886 1.3256433
0.29601094 -0.27736458 1.323047
0.30008826 -0.27682558 1.3204761
0.30414775 -0.27628687 1.3179064
0.30819103 -0.27574986 1.3153448
0.31222138 -0.27521735 1.3128047
0.31623283 -0.27468401 1.3102605
0.32023072 -0.27415437 1.3077341
0.32421303 -0.2736266 1.3052167
0.32817999 -0.27310082 1.3027087
0.33213174 -0.27257711 1.3002105
0.33606842 -0.27205539 1.2977219
0.33998996 -0.27153561 1.2952425
0.34389663 -0.27101788 1.2927729
0.35063916 -0.27271935 1.300889
0.35857674 -0.27529439 1.3131722
0.26313198 -0.27735531 1.3456184
0.26734227 -0.27680573 1.3429519
0.27153596 -0.27625832 1.3402961
0.27571306 -0.27571306 1.3376508
0.27987373 -0.27516997 1.3350159
0.28401804 -0.27462903 1.3323914
0.288147 -0.27409106 1.3297814
0.29225922 -0.27355462 1.3271788
0.29635268 -0.27301782 1.3245746
0.30043474 -0.27248731 1.3220007
0.3044973 -0.27195561 1.3194211
0.30854526 -0.27142704 1.3168566
0.31257725 -0.27090028 1.314301
0.31659523 -0.27037695 1.3117621
0.32059604 -0.26985422 1.3092259
0.32458213 -0.26933411 1.3067026
0.32855293 -0.26881602 1.3041891
0.33250844 -0.26829991 1.3016851
0.33644882 -0.26778579 1.2991908
0.34037408 -0.2672736 1.2967058
0.34428439 -0.26676342 1.2942306
0.35130638 -0.26864603 1.3033644
0.35926512 -0.27118722 1.3156931
0.26344088 -0.27293426 1.3471981
0.26765552 -0.27239278 1.3445255
0.27185351 -0.27185351 1.3418635
0.27603486 -0.27131629 1.3392119
0.28019974 -0.27078125 1.336571
0.28434822 -0.27024829 1.3339403
0.28848076 -0.26971778 1.3313217
0.29259542 -0.26918778 1.3287055
0.29669604 -0.26866177 1.3261092
0.30078065 -0.26813781 1.3235229
0.30484793 -0.2676146 1.3209404
0.3089003 -0.26709422 1.3183719
0.31293556 -0.26657474 1.3158077
0.31695732 -0.26605907 1.3132623
0.32096213 -0.26554421 1.310721
0.32495207 -0.26503181 1.3081919
0.32892665 -0.26452145 1.3056726
0.33288595 -0.26401299 1.3031629
0.33683008 -0.26350653 1.300663
0.34075901 -0.26300192 1.2981724
0.34467301 -0.26249933 1.2956915
0.35197613 -0.26455721 1.3058492
0.35995612 -0.26706421 1.3182237
0.26375055 -0.26850283 1.3487817
0.26796952 -0.26796952 1.3461028
0.2721718 -0.26743835 1.3434346
0.27635738 -0.26690927 1.3407768
0.28052646 -0.26638228 1.3381295
0.28467977 -0.26585796 1.3354957
0.28881457 -0.26533371 1.3328623
0.29293469 -0.26481295 1.3302462
0.2970401 -0.26429552 1.327647
0.30112752 -0.26377836 1.3250492
0.30519924 -0.26326346 1.3224627
0.3092556 -0.26275101 1.3198884
0.31329477 -0.26223934 1.3173181
0.31732008 -0.26173115 1.3147653
0.32132894 -0.26122424 1.3122189
0.32532287 -0.26071975 1.3096846
0.32930127 -0.2602171 1.3071597
0.33326435 -0.25971636 1.3046443
0.3372122 -0.25921753 1.3021386
0.34114495 -0.25872067 1.2996426
0.34506255 -0.25822562 1.2971559
0.35264841 -0.26045275 1.3083434
0.36064976 -0.2629253 1.3207639
0.26406094 -0.26406094 1.350369
0.26828423 -0.26353583 1.3476837
0.2724908 -0.26301286 1.3450092
0.27668068 -0.26249191 1.3423452
0.28085399 -0.26197305 1.3396918
0.28501055 -0.26145595 1.3370475
0.28915051 -0.2609407 1.3344126
0.29327473 -0.26042795 1.3317904
0.29738367 -0.259918 1.3291826
0.30147561 -0.25940925 1.3265809
0.30555135 -0.25890228 1.3239883
0.30961144 -0.25839752 1.3214071
0.31365481 -0.25789395 1.3188319
0.31768352 -0.25739321 1.3162712
0.32169697 -0.25689471 1.3137219
0.3256945 -0.25639781 1.3111808
0.32967672 -0.25590292 1.30865
0.33364362 -0.25540993 1.306129
0.33759519 -0.25491881 1.3036175
0.34153166 -0.25442964 1.3011159
0.34545296 -0.25394225 1.2986234
0.35332322 -0.25633255 1.310847
0.3613461 -0.25877044 1.3233141
0.26437202 -0.25960857 1.3519598
0.26859972 -0.25909176 1.3492684
0.27281055 -0.25857696 1.3465875
0.27700472 -0.25806421 1.3439174
0.28118271 -0.25755391 1.3412598
0.28534263 -0.25704417 1.3386053
0.28948724 -0.2565375 1.3359666
0.29361558 -0.25603279 1.3333383
0.29772919 -0.25553134 1.330727
0.30182451 -0.25503001 1.3281162
0.30590427 -0.25453103 1.3255177
0.30996814 -0.25403404 1.3229294
0.31401566 -0.25353858 1.3203492
0.31804833 -0.25304577 1.3177828
0.32206631 -0.25255558 1.3152301
0.326067 -0.25206599 1.3126804
0.33005303 -0.25157887 1.3101437
0.33402371 -0.25109369 1.3076169
0.33797908 -0.25061032 1.3050998
0.34191924 -0.25012884 1.3025924
0.34610704 -0.24983886 1.3010823
0.35400069 -0.25219658 1.3133605
0.36204514 -0.25459948 1.3258741
0.26468387 -0.25514573 1.3535546
0.26891589 -0.25463718 1.3508568
0.27313107 -0.25413063 1.3481696
0.27732953 -0.25362614 1.3454932
0.28151211 -0.25312436 1.3428311
0.28567594 -0.25262251 1.340169
0.28982475 -0.25212398 1.3375242
0.29395723 -0.25162739 1.3348898
0.29807508 -0.25113413 1.332273
0.30217421 -0.25064063 1.3296549
0.30625802 -0.25014967 1.3270504
0.31032568 -0.24966051 1.3244554
0.3143774 -0.24917319 1.3218702
0.31841394 -0.24868825 1.3192976
0.32243481 -0.24820521 1.316735
0.3264409 -0.24772465 1.3141856
0.33043018 -0.24724497 1.3116409
0.33440468 -0.2467676 1.3091084
0.33836383 -0.24629204 1.3065856
0.34230772 -0.2458183 1.3040724
0.3467657 -0.24572138 1.3035582
0.35468075 -0.2480447 1.3158835
0.36274689 -0.25041237 1.328444
0.26499647 -0.25067234 1.3551531
0.26923287 -0.25017214 1.3524489
0.27345234 -0.24967389 1.3497554
0.27765554 -0.24917804 1.3470749
0.28184059 -0.24868287 1.3443979
0.28601006 -0.24819054 1.3417363
0.29016304 -0.24770017 1.3390853
0.29429972 -0.24721175 1.336445
0.29842082 -0.24672586 1.3338182
0.30252472 -0.24624105 1.3311973
0.30661258 -0.24575818 1.3285868
0.31068438 -0.24527714 1.3259863
0.31473994 -0.24479772 1.3233945
0.31878042 -0.24432077 1.320816
0.32280523 -0.24384567 1.3182477
0.3268154 -0.24337317 1.3156933
0.33080825 -0.24290116 1.3131416
0.3347865 -0.24243161 1.3106031
0.33874944 -0.24196388 1.3080746
0.34269708 -0.24149795 1.3055557
0.34742686 -0.24158822 1.3060437
0.3553634 -0.24387686 1.3184162
0.36345175 -0.24620925 1.3310254
0.37966257 -0.25391448 1.3726803
0.38430637 -0.25378722 1.3719925
0.26530981 -0.24618839 1.3567555
0.26955053 -0.24569651 1.3540448
0.27377442 -0.24520664 1.3513451
0.27798089 -0.24471824 1.3486534
0.28217125 -0.24423227 1.3459753
0.28634498 -0.24374819 1.3433075
0.29050213 -0.24326602 1.3406502
0.29464385 -0.24278653 1.3380077
0.29876804 -0.24230793 1.3353702
0.30287606 -0.24183127 1.3327433
0.30696794 -0.24135648 1.3301266
0.31104395 -0.24088366 1.327521
0.31510335 -0.24041218 1.3249226
0.31914774 -0.23994319 1.322338
0.32317641 -0.23947605 1.3197635
0.32718948 -0.23901075 1.3171992
0.33118704 -0.23854731 1.3146452
0.33516923 -0.23808572 1.3121014
0.33913594 -0.23762587 1.3095671
0.34308735 -0.23716776 1.3070425
0.34809056 -0.23743926 1.3085387
0.35604867 -0.2396929 1.3209586
0.36415935 -0.24198976 1.3336167
0.37334704 -0.24493469 1.3498464
0.38085368 -0.24671654 1.3596662
0.26562387 -0.24169379 1.3583616
0.269869 -0.24121034 1.3556445
0.27409744 -0.24072906 1.3529396
0.27830812 -0.24024889 1.3502409
0.28250271 -0.2397712 1.3475562
0.28668064 -0.23929541 1.3448822
0.290842 -0.23882148 1.3422186
0.29498753 -0.23834993 1.3395685
0.29911613 -0.23787975 1.336926
0.30322823 -0.23741125 1.3342929
0.30732417 -0.23694459 1.3316702
0.3114039 -0.23647965 1.3290572
0.31546757 -0.23601648 1.326454
0.31951594 -0.23555554 1.3238635
0.32354853 -0.23509641 1.3212831
0.32756543 -0.23463908 1.3187128
0.3315672 -0.23418383 1.3161542
0.33555284 -0.23372991 1.3136032
0.33952332 -0.23327793 1.3110629
0.3434785 -0.23282771 1.3085326
0.34875679 -0.23327442 1.3110431
0.35673666 -0.23549283 1.323511
0.36486971 -0.23775382 1.3362182
0.37315992 -0.24005829 1.3491697
0.38161159 -0.24240735 1.3623719
0.2659387 -0.23718856 1.3599715
0.27018821 -0.23671356 1.3572479
0.27442038 -0.23624016 1.3545337
0.27863604 -0.23576896 1.3518319
0.28283492 -0.23529963 1.3491409
0.28701711 -0.23483218 1.3464607
0.2911827 -0.23436655 1.3437909
0.29533303 -0.23390377 1.3411374
0.29946497 -0.2334412 1.3384852
0.30358121 -0.23298092 1.3358461
0.30768117 -0.23252241 1.3332171
0.3117651 -0.23206577 1.3305988
0.31583261 -0.23161058 1.327989
0.31988496 -0.23115773 1.3253925
0.3239215 -0.23070668 1.3228062
0.32794228 -0.23025735 1.3202299
0.33194745 -0.22980978 1.3176637
0.33593732 -0.2293641 1.3151083
0.33991158 -0.22892006 1.3125622
0.34387052 -0.22847773 1.310026
0.34942558 -0.2290936 1.3135573
0.35742727 -0.23127648 1.3260733
0.36558282 -0.23350129 1.3388298
0.37389663 -0.23576921 1.3518333
0.3823725 -0.23808099 1.3650885
0.26625425 -0.23267262 1.3615851
0.27050847 -0.23220639 1.3588568
0.27474478 -0.23174123 1.3561348
0.27896479 -0.23127849 1.3534268
0.28316793 -0.23081756 1.3507295
0.28735432 -0.23035842 1.3480426
0.29152417 -0.22990118 1.3453668
0.29567802 -0.22944614 1.3427041
0.29981467 -0.22899231 1.3400482
0.30393499 -0.22854026 1.3374028
0.30803907 -0.22809 1.3347679
0.31212699 -0.22764149 1.3321433
0.31619856 -0.22719452 1.3295276
0.32025483 -0.22674978 1.326925
0.32429528 -0.22630678 1.3243327
0.32832 -0.22586553 1.3217505
0.33232906 -0.225426 1.3191785
0.33632302 -0.22498851 1.3166182
0.34030074 -0.22455218 1.3140649
0.34426343 -0.22411782 1.311523
0.35009694 -0.22489671 1.316081
0.35812056 -0.22704375 1.3286453
0.36629871 -0.22923209 1.3414514
0.37463588 -0.23146293 1.3545061
0.38313648 -0.23373735 1.3678159
0.26657054 -0.22814596 1.3632027
0.27082866 -0.22768782 1.3604653
0.27506995 -0.22723171 1.3577399
0.27929425 -0.22677739 1.3550253
0.28350171 -0.2263249 1.3523216
0.28769237 -0.22587417 1.3496284
0.29186642 -0.22542529 1.3469464
0.29602438 -0.22497854 1.3442769
0.30016515 -0.22453299 1.3416147
0.30428961 -0.22408924 1.3389633
0.30839777 -0.22364724 1.3363222
0.31248975 -0.22320695 1.3336915
0.3165653 -0.22276817 1.3310697
0.32062557 -0.22233161 1.3284612
0.32466996 -0.22189674 1.3258628
0.32869858 -0.22146359 1.3232746
0.33271149 -0.22103211 1.3206965
0.33670881 -0.22060232 1.3181285
0.34069082 -0.22017434 1.3155712
0.34465727 -0.21974793 1.3130233
0.35077089 -0.22068366 1.3186145
0.35881653 -0.22279459 1.3312275
0.36701733 -0.22494611 1.3440832
0.37537804 -0.22713958 1.3571894
0.38390341 -0.22937626 1.3705539
0.26260766 -0.22405975 1.3675781
0.26688746 -0.2236084 1.3648233
0.27115023 -0.22315904 1.3620806
0.27539587 -0.22271146 1.3593487
0.27962452 -0.22226565 1.3566276
0.28383628 -0.22182162 1.3539175
0.28803122 -0.22137937 1.3512181
0.2922098 -0.22093913 1.348531
0.29637155 -0.22050044 1.3458534
0.30051649 -0.22006325 1.3431851
0.30464503 -0.21962781 1.3405273
0.30875731 -0.21919411 1.3378801
0.31285334 -0.21876211 1.3352433
0.31693295 -0.21833159 1.3326156
0.32099715 -0.21790318 1.3300008
0.3250455 -0.21747649 1.3273964
0.32907805 -0.21705148 1.3248023
0.33309484 -0.2166281 1.3222182
0.33709604 -0.21620642 1.3196443
0.34108177 -0.21578643 1.3170809
0.34505197 -0.21536802 1.314527
0.35144743 -0.21645439 1.3211578
0.35951516 -0.21852882 1.3338194
0.36773881 -0.22064328 1.3467253
0.37612319 -0.22279909 1.3598835
0.38467297 -0.2249974 1.3733013
0.26292101 -0.21950287 1.36921
0.26720536 -0.21906026 1.3664491
0.27147251 -0.21861947 1.3636996
0.27572259 -0.21818049 1.3609613
0.27995557 -0.21774322 1.3582337
0.28417164 -0.21730772 1.3555171
0.28837088 -0.21687397 1.3528116
0.29255369 -0.21644217 1.350118
0.29671952 -0.21601181 1.3474336
0.30086863 -0.21558304 1.344759
0.30500132 -0.21515597 1.342095
0.30911767 -0.21473059 1.3394417
0.31321776 -0.21430689 1.3367987
0.31730136 -0.21388462 1.3341646
0.32136965 -0.2134645 1.331544
0.32542193 -0.21304601 1.3289336
0.32945839 -0.21262917 1.3263334
0.33347908 -0.21221396 1.3237435
0.33748406 -0.21180035 1.3211634
0.34147352 -0.21138838 1.3185936
0.34544766 -0.21097811 1.3160344
0.3521266 -0.21220875 1.3237109
0.36021644 -0.21424639 1.3364213
0.36846313 -0.21632351 1.3493779
0.37687126 -0.21844129 1.3625882
0.267524 -0.21450123 1.3680786
0.27179563 -0.21406911 1.3653226
0.27605006 -0.21363874 1.3625777
0.28028741 -0.21321009 1.3598437
0.28450778 -0.21278313 1.3571206
0.28871131 -0.21235792 1.3544086
0.29289848 -0.21193466 1.3517091
0.29706833 -0.21151264 1.3490175
0.30122164 -0.21109232 1.3463367
0.30535847 -0.21067366 1.3436666
0.30947891 -0.21025665 1.3410069
0.31358305 -0.20984128 1.3383577
0.31767124 -0.2094277 1.3357198
0.32174298 -0.2090155 1.3330909
0.32579923 -0.20860526 1.3304744
0.32983959 -0.20819663 1.3278681
0.33386421 -0.20778961 1.3252722
0.3378731 -0.20738417 1.3226863
0.34186637 -0.20698032 1.3201106
0.34584418 -0.20657808 1.3175451
0.35280833 -0.20794663 1.3262737
0.36092052 -0.20994723 1.3390334
0.37367144 -0.21455973 1.3684517
0.27211949 -0.20950791 1.3669494
0.2763783 -0.20908619 1.3641979
0.28062004 -0.20866618 1.3614575
0.28484476 -0.20824786 1.3587281
0.28905258 -0.20783119 1.3560095
0.29324389 -0.2074164 1.3533032
0.29741797 -0.20700289 1.3506052
0.30157542 -0.20659104 1.347918
0.3057164 -0.20618083 1.3452415
0.30984095 -0.20577224 1.3425757
0.31394917 -0.20536524 1.3399203
0.31804127 -0.20495993 1.3372757
0.32211718 -0.20455617 1.3346413
0.32617742 -0.20415421 1.3320187
0.33022171 -0.20375381 1.3294064
0.33425021 -0.20335501 1.3268044
0.33826295 -0.20295778 1.3242126
0.34226003 -0.20256206 1.3216307
0.34624165 -0.20216794 1.3190593
0.35473317 -0.20438267 1.3335094
0.37242827 -0.21177293 1.3817277
0.27670732 -0.20452282 1.365822
0.28095344 -0.20411147 1.363075
0.28518251 -0.20370179 1.3603392
0.28939462 -0.20329376 1.3576142
0.29359007 -0.20288745 1.3549008
0.29776838 -0.20248251 1.3521966
0.30193007 -0.20207918 1.3495032
0.30607519 -0.20167744 1.3468204
0.31020388 -0.20127732 1.3441483
0.31431618 -0.20087877 1.3414867
0.31841233 -0.20048183 1.338836
0.32249224 -0.20008643 1.3361953
0.32655644 -0.1996928 1.3335667
0.3306047 -0.19930071 1.3309482
0.33463711 -0.19891016 1.3283402
0.33865377 -0.19852118 1.3257425
0.34265471 -0.19813368 1.3231547
0.35333368 -0.2015662 1.3460774
0.37116563 -0.20893429 1.3952823
0.27703717 -0.19994856 1.36745
0.28128767 -0.19954595 1.3646965
0.28552109 -0.19914497 1.3619542
0.28973749 -0.19874556 1.3592227
0.29393715 -0.19834782 1.3565025
0.29811966 -0.19795147 1.3537918
0.30228552 -0.19755667 1.3510919
0.30643478 -0.19716348 1.3484027
0.31056762 -0.19677186 1.3457245
0.314684 -0.19638175 1.3430566
0.31878415 -0.19599321 1.3403994
0.3228682 -0.19560628 1.3377531
0.32693639 -0.19522102 1.3351183
0.33098862 -0.19483726 1.3324938
0.33502489 -0.19445501 1.3298795
0.33904544 -0.19407429 1.3272758
0.35190764 -0.19869614 1.3588847
0.28162265 -0.19496953 1.3663218
0.28586045 -0.19457728 1.363573
0.29008138 -0.19418672 1.3608359
0.29428497 -0.19379742 1.3581078
0.29847175 -0.1934097 1.3553907
0.30264184 -0.19302353 1.3526845
0.3067953 -0.1926389 1.3499891
0.31093222 -0.19225581 1.3473043
0.31505278 -0.19187424 1.3446304
0.31915694 -0.19149417 1.3419669
0.32324502 -0.19111566 1.3393143
0.32731721 -0.1907388 1.3366734
0.33137336 -0.19036342 1.3340428
0.3354136 -0.18998954 1.3314226
0.35046574 -0.19577742 1.3719833
0.28620061 -0.18999872 1.3651955
0.29042578 -0.18961681 1.3624514
0.29463369 -0.18923627 1.359717
0.2988247 -0.18885721 1.3569934
0.30299899 -0.18847969 1.3542808
0.30715662 -0.18810366 1.351579
0.31129768 -0.18772914 1.3488879
0.31542233 -0.18735611 1.3462076
0.31953058 -0.18698457 1.3435379
0.3236227 -0.18661456 1.3408793
0.32769892 -0.18624614 1.3382322
0.33206314 -0.18604957 1.3368196
0.29077095 -0.18503606 1.3640708
0.29498318 -0.18466426 1.3613299
0.29917845 -0.18429394 1.3585999
0.30335698 -0.18392509 1.3558809
0.30751881 -0.18355775 1.3531728
0.31166404 -0.18319184 1.3504753
0.31579277 -0.1828274 1.3477887
0.31990513 -0.18246441 1.3451128
0.32400128 -0.18210292 1.3424479
0.33044598 -0.18305279 1.3494503
0.32028052 -0.17793363 1.3466913
