# .PCD v0.7 - Point Cloud Data file format
VERSION 0.7
FIELDS x y z
SIZE 4 4 4
TYPE F F F
COUNT 1 1 1
WIDTH 706
HEIGHT 1
VIEWPOINT 0 0 0 1 0 0 0
POINTS 706
DATA ascii
-0.30239522 -0.10527834 1.2714884
-0.29629022 -0.10470406 1.2645527
-0.29206163 -0.10478547 1.265536
-0.3137272 -0.10156636 1.2811755
-0.30751348 -0.10100807 1.2741332
-0.30136809 -0.10045603 1.2671696
-0.29528928 -0.099909909 1.2602807
-0.28927615 -0.099369675 1.2534661
-0.28666282 -0.099998653 1.2614002
-0.28528774 -0.10108621 1.2751188
-0.32523316 -0.097797386 1.2910113
-0.3189083 -0.097255722 1.2838609
-0.31265312 -0.096720032 1.2767893
-0.306467 -0.096190371 1.2697973
-0.30034786 -0.095666356 1.2628798
-0.29429504 -0.095148019 1.2560374
-0.2883074 -0.094635256 1.2492684
-0.28269753 -0.094232507 1.2439518
-0.28129914 -0.095243022 1.2572914
-0.27987048 -0.096275449 1.2709204
-0.33691713 -0.093970083 1.3009992
-0.3304784 -0.093445614 1.293738
-0.32411116 -0.092926979 1.2865576
-0.31781423 -0.092414066 1.2794564
-0.31158713 -0.091906995 1.272436
-0.30542734 -0.091405265 1.2654897
-0.2993345 -0.090908997 1.258619
-0.29330748 -0.090418093 1.2518225
-0.28734514 -0.089932449 1.2450988
-0.28144652 -0.089451998 1.2384471
-0.27742061 -0.089560978 1.2399559
-0.27597031 -0.090518266 1.2532094
-0.27448875 -0.091496252 1.2667494
-0.27297482 -0.092495598 1.2805852
-0.34878334 -0.090083115 1.3111429
-0.34222797 -0.089576446 1.3037685
-0.3357459 -0.089075446 1.2964765
-0.32933596 -0.088580012 1.2892656
-0.32299691 -0.08809007 1.2821345
-0.31672853 -0.08760576 1.2750856
-0.31052792 -0.087126538 1.2681105
-0.30439475 -0.086652517 1.2612113
-0.29832798 -0.086183637 1.2543868
-0.29232651 -0.085719801 1.2476357
-0.28638926 -0.085260928 1.2409569
-0.28051534 -0.084806964 1.2343496
-0.27591795 -0.084730707 1.2332397
-0.27247554 -0.085012376 1.2373393
-0.27067602 -0.085824102 1.2491539
-0.26914224 -0.086748332 1.2626058
-0.26757511 -0.087692685 1.2763507
-0.26597351 -0.088657834 1.2903982
-0.36083597 -0.086135037 1.3214459
-0.35416108 -0.085646801 1.3139555
-0.34756142 -0.085164055 1.3065495
-0.34103572 -0.084686726 1.2992265
-0.33458278 -0.084214717 1.2919852
-0.32820135 -0.083747938 1.284824
-0.32189143 -0.083286591 1.2777463
-0.3156496 -0.082830042 1.2707421
-0.3094759 -0.082378469 1.2638143
-0.3033691 -0.0819318 1.2569617
-0.29732817 -0.081489943 1.2501829
-0.29135144 -0.081052661 1.2434742
-0.28543985 -0.080620416 1.236843
-0.27959016 -0.080192529 1.2302785
-0.275628 -0.080301069 1.2319437
-0.27218831 -0.08056774 1.2360349
-0.26872566 -0.080836177 1.2401531
-0.2654157 -0.081160165 1.2451236
-0.26383057 -0.082031354 1.258489
-0.26221105 -0.082921445 1.2721443
-0.26055589 -0.083831027 1.2860987
-0.35956198 -0.081191413 1.3167803
-0.35291767 -0.0807328 1.3093424
-0.34634802 -0.080279343 1.3019881
-0.33985177 -0.079830952 1.294716
-0.33342767 -0.079387538 1.2875247
-0.3270759 -0.078949355 1.280418
-0.32079265 -0.078515679 1.2733847
-0.314578 -0.078086741 1.266428
-0.30843094 -0.077662468 1.2595471
-0.30235034 -0.077242792 1.2527406
-0.29633537 -0.076827683 1.2460084
-0.29038429 -0.076416917 1.2393465
-0.28449652 -0.076010518 1.2327554
-0.2787531 -0.075630687 1.2265952
-0.27533871 -0.075880744 1.2306507
-0.27190164 -0.076132461 1.2347331
-0.26844171 -0.076385848 1.2388426
-0.26495868 -0.076640941 1.2429798
-0.26145229 -0.076897733 1.2471445
-0.2585533 -0.077344999 1.2543983
-0.25688204 -0.07818149 1.2679647
-0.25517425 -0.079036266 1.2818277
-0.25342861 -0.079909921 1.2959968
-0.36498848 -0.076717325 1.3196257
-0.3582969 -0.076282568 1.3121474
-0.35168299 -0.075853191 1.3047616
-0.34514308 -0.07542862 1.2974585
-0.33867601 -0.07500878 1.2902368
-0.33228207 -0.074593931 1.283101
-0.32595706 -0.07418333 1.2760382
-0.31970134 -0.073777229 1.2690527
-0.31351373 -0.073375553 1.2621434
-0.30739188 -0.07297793 1.2553039
-0.30133876 -0.072585255 1.2485493
-0.29534882 -0.072196379 1.2418603
-0.28942272 -0.071811646 1.2352425
-0.28355941 -0.071430996 1.2286948
-0.27846175 -0.071234405 1.2253132
-0.27504998 -0.071469679 1.2293602
-0.27161559 -0.071706519 1.2334341
-0.26815838 -0.07194493 1.2375351
-0.26467806 -0.072184928 1.2416633
-0.2611745 -0.072426543 1.2458193
-0.25764737 -0.072669767 1.2500031
-0.25409645 -0.072914638 1.2542151
-0.2515879 -0.073472567 1.2638122
-0.24982809 -0.074273214 1.2775842
-0.24802946 -0.075091489 1.2916595
-0.24619079 -0.075927995 1.3060484
-0.3704364 -0.072223455 1.322476
-0.36369967 -0.071813308 1.314966
-0.3570407 -0.071408145 1.307547
-0.35045686 -0.071007602 1.3002127
-0.34394652 -0.070611537 1.2929604
-0.33751005 -0.07022021 1.2857949
-0.33114311 -0.069832899 1.2787029
-0.32484591 -0.069449812 1.2716882
-0.31861681 -0.069070779 1.2647477
-0.31245711 -0.068696246 1.2578897
-0.3063626 -0.068325475 1.2511005
-0.3003335 -0.067958675 1.2443842
-0.29436877 -0.067595795 1.2377394
-0.28846744 -0.067236766 1.2311654
-0.28262842 -0.066881537 1.2246608
-0.27817106 -0.066847309 1.2240341
-0.27476189 -0.067067862 1.2280725
-0.27133015 -0.067289881 1.2321379
-0.26787561 -0.067513369 1.2362301
-0.26439807 -0.067738347 1.2403498
-0.26089728 -0.067964837 1.2444969
-0.25737298 -0.06819284 1.2486719
-0.25382495 -0.068422377 1.252875
-0.25025296 -0.068653464 1.2571064
-0.24665678 -0.068886124 1.2613666
-0.24451715 -0.069541574 1.2733685
-0.24266624 -0.070305176 1.2873507
-0.24077421 -0.071085721 1.3016431
-0.37590793 -0.067710124 1.3253387
-0.36912915 -0.067325443 1.317809
-0.36241964 -0.066943757 1.310338
-0.35579324 -0.066567764 1.3029785
-0.34923926 -0.066195674 1.2956953
-0.34276006 -0.065828092 1.2885003
-0.33635083 -0.065464251 1.2813786
-0.3300119 -0.065104388 1.2743348
-0.3237406 -0.064748123 1.2673613
-0.31754151 -0.06439653 1.2604793
-0.31140703 -0.064048253 1.2536622
-0.30533847 -0.063703716 1.2469183
-0.29933491 -0.063362867 1.2402467
-0.29339525 -0.063025646 1.233646
-0.28751844 -0.062691987 1.2271152
-0.28170359 -0.062361863 1.2206533
-0.27788094 -0.062469359 1.2227575
-0.27447438 -0.062675253 1.2267876
-0.2710453 -0.062882513 1.2308444
-0.26759344 -0.063091144 1.234928
-0.26411864 -0.063301161 1.2390389
-0.26062062 -0.063512586 1.2431773
-0.25709915 -0.063725427 1.2473434
-0.25355399 -0.063939705 1.2515376
-0.24998492 -0.064155422 1.25576
-0.24639168 -0.064372599 1.260011
-0.24277402 -0.064591251 1.2642908
-0.2392412 -0.064841069 1.2691807
-0.23733869 -0.065550685 1.2830704
-0.23539409 -0.066276006 1.2972677
-0.37457848 -0.062817506 1.3206514
-0.36783105 -0.062461875 1.3131747
-0.36115256 -0.062109038 1.3057568
-0.35455453 -0.061761111 1.2984421
-0.34803227 -0.06141746 1.2912173
-0.34158039 -0.061077289 1.2840657
-0.33519924 -0.060740799 1.2769915
-0.32888934 -0.060408246 1.27
-0.32264689 -0.060079075 1.2630796
-0.31647211 -0.059753478 1.2562344
-0.31036392 -0.059431389 1.249463
-0.3043212 -0.05911275 1.242764
-0.29834297 -0.05879752 1.2361367
-0.29242811 -0.05848562 1.2295794
-0.2865757 -0.05817702 1.2230916
-0.28097311 -0.057910487 1.2174881
-0.27759144 -0.058100529 1.2214835
-0.27418748 -0.058291826 1.2255052
-0.27076107 -0.05848439 1.2295536
-0.26731193 -0.058678228 1.2336287
-0.26383981 -0.058873348 1.2377309
-0.26034456 -0.059069775 1.2418605
-0.25682592 -0.059267521 1.2460178
-0.25328362 -0.059466586 1.2502029
-0.24971747 -0.059667006 1.2544165
-0.24612717 -0.059868772 1.2586583
-0.24251252 -0.060071908 1.262929
-0.23887326 -0.06027643 1.2672287
-0.23520911 -0.060482346 1.2715578
-0.23204644 -0.060827706 1.2788186
-0.23004998 -0.061498512 1.2929213
-0.3800514 -0.05829009 1.3235062
-0.37325841 -0.057959378 1.3159972
-0.36653578 -0.057631414 1.3085506
-0.35989234 -0.057307698 1.3012005
-0.35332668 -0.056988176 1.2939456
-0.34683183 -0.056671869 1.2867637
-0.34040645 -0.056358684 1.2796526
-0.33405691 -0.056049816 1.2726396
-0.32777336 -0.055743769 1.2656907
-0.32155803 -0.055441041 1.2588171
-0.3154099 -0.055141587 1.2520179
-0.30932778 -0.054845348 1.2452916
-0.30331069 -0.054552279 1.2386373
-0.29735756 -0.054262325 1.2320538
-0.29146734 -0.053975433 1.2255397
-0.28563911 -0.053691562 1.2190943
-0.28068164 -0.0535652 1.2162251
-0.27730256 -0.053740803 1.2202123
-0.27390119 -0.053917557 1.2242256
-0.27047738 -0.054095477 1.2282654
-0.26703095 -0.054274585 1.2323321
-0.26356158 -0.054454874 1.2364256
-0.2600691 -0.054636367 1.2405466
-0.25655326 -0.05481907 1.2446949
-0.25301385 -0.05500301 1.2488713
-0.24945056 -0.055188179 1.2530757
-0.24586321 -0.0553746 1.2573085
-0.24225156 -0.055562284 1.26157
-0.23861533 -0.055751245 1.2658604
-0.23495431 -0.055941503 1.2701803
-0.23126818 -0.056133054 1.2745296
-0.22755677 -0.056325931 1.278909
-0.38554806 -0.053743061 1.3263735
-0.37870869 -0.053437423 1.3188304
-0.37194639 -0.053135198 1.3113714
-0.36746883 -0.053155869 1.3118817
-0.36291504 -0.053165898 1.3121291
-0.35210609 -0.052248001 1.2894756
-0.34564036 -0.051959012 1.2823433
-0.33924603 -0.051673237 1.2752904
-0.33292106 -0.051390499 1.2683125
-0.32666492 -0.051110838 1.2614105
-0.32047656 -0.050834212 1.2545834
-0.31435472 -0.050560553 1.2478294
-0.30829835 -0.050289802 1.2411474
-0.30230656 -0.05002195 1.2345368
-0.29637781 -0.049756855 1.2279943
-0.29051256 -0.049494736 1.2215252
-0.28475574 -0.049243473 1.215324
-0.28095758 -0.049328431 1.2174208
-0.27714634 -0.049413688 1.219525
-0.27361551 -0.049552411 1.2229487
-0.27019435 -0.049715761 1.2269801
-0.26675057 -0.049880192 1.2310382
-0.26328394 -0.050045706 1.2351232
-0.25979424 -0.050212331 1.2392354
-0.2562812 -0.050380066 1.2433751
-0.25274462 -0.050548926 1.2475425
-0.24918425 -0.050718918 1.251738
-0.24559985 -0.050890058 1.2559617
-0.24199119 -0.051062364 1.2602141
-0.23835799 -0.051235829 1.2644953
-0.23470004 -0.051410485 1.2688057
-0.23101707 -0.051586334 1.2731457
-0.22730882 -0.051763397 1.2775155
-0.38417998 -0.048895631 1.321667
-0.37737095 -0.048618346 1.3141718
-0.37264788 -0.048606243 1.3138447
-0.36858499 -0.048681036 1.3158664
-0.36438835 -0.048739843 1.3174559
-0.35089403 -0.047540486 1.2850368
-0.34445682 -0.047278386 1.2779522
-0.33808979 -0.047019109 1.2709439
-0.33179262 -0.04676272 1.2640135
-0.32556337 -0.046509054 1.2571568
-0.3193998 -0.046257902 1.2503681
-0.31330481 -0.046009798 1.2436618
-0.30727485 -0.045764338 1.2370269
-0.3013089 -0.045521487 1.2304626
-0.29540592 -0.045281202 1.2239676
-0.28956494 -0.045043435 1.2175406
-0.28526822 -0.045042351 1.2175113
-0.28146413 -0.045120202 1.2196157
-0.27764684 -0.045198325 1.2217274
-0.27381635 -0.04527672 1.2238464
-0.26997253 -0.045355383 1.2259728
-0.26647082 -0.045495015 1.2297471
-0.26300693 -0.045645829 1.2338235
-0.25951993 -0.045797635 1.237927
-0.25600973 -0.045950465 1.242058
-0.25247601 -0.046104312 1.2462165
-0.24891852 -0.046259195 1.250403
-0.24533707 -0.04641512 1.2546178
-0.24173136 -0.046572097 1.2588609
-0.23810124 -0.04673015 1.2631332
-0.23444635 -0.046889268 1.2674342
-0.23076652 -0.047049485 1.2717649
-0.22706142 -0.04721079 1.2761251
-0.3828243 -0.044082798 1.3170031
-0.37693098 -0.043936741 1.3126396
-0.37314528 -0.044035777 1.3155984
-0.36925602 -0.044124935 1.318262
-0.35616636 -0.043102939 1.2877291
-0.34968841 -0.04286503 1.2806215
-0.34327629 -0.042629082 1.2735724
-0.33693838 -0.042396221 1.2666155
-0.33066931 -0.042165887 1.2597342
-0.32446802 -0.041938044 1.2529272
-0.31833345 -0.04171266 1.2461936
-0.31226441 -0.041489676 1.2395319
-0.30625987 -0.041269064 1.2329409
-0.30031887 -0.041050781 1.2264196
-0.29444039 -0.040834799 1.219967
-0.28957945 -0.040755626 1.2176017
-0.28578255 -0.040826079 1.2197064
-0.28197247 -0.04089677 1.2218184
-0.27814919 -0.040967707 1.2239377
-0.27431262 -0.041038893 1.2260644
-0.27046266 -0.041110326 1.2281985
-0.26659933 -0.041182008 1.2303401
-0.26273045 -0.041255198 1.2325267
-0.25924626 -0.041392259 1.2366215
-0.25573882 -0.041530237 1.2407436
-0.25220793 -0.041669138 1.2448934
-0.24865335 -0.04180897 1.249071
-0.24507484 -0.041949749 1.2532768
-0.24147214 -0.042091474 1.257511
-0.237845 -0.04223416 1.2617738
-0.23419321 -0.042377818 1.2660657
-0.23051648 -0.042522456 1.2703869
-0.22681457 -0.042668086 1.2747377
-0.38830084 -0.039527629 1.3198456
-0.38147715 -0.039303705 1.3123686
-0.37692165 -0.039310846 1.312607
-0.37331179 -0.039418016 1.3161855
-0.3695899 -0.039515901 1.319454
-0.35493979 -0.038432971 1.2832944
-0.34848857 -0.038221326 1.2762275
-0.34210896 -0.038012106 1.2692416
-0.33579886 -0.03780517 1.2623318
-0.32955709 -0.037600476 1.255497
-0.32338253 -0.037397981 1.2487355
-0.31727412 -0.037197657 1.2420467
-0.31123081 -0.036999468 1.235429
-0.30525157 -0.03680338 1.2288816
-0.29933536 -0.036609359 1.2224032
-0.29389131 -0.036468267 1.217692
-0.29010159 -0.036531311 1.2197971
-0.28629869 -0.036594573 1.2219094
-0.28248265 -0.036658056 1.2240292
-0.27865332 -0.036721755 1.2261561
-0.27481067 -0.036785677 1.2282906
-0.27095461 -0.036849827 1.2304325
-0.26708508 -0.036914196 1.2325819
-0.26320198 -0.036978792 1.2347387
-0.2593053 -0.037043616 1.2369032
-0.25546849 -0.037119351 1.2394321
-0.25194043 -0.03724337 1.2435731
-0.24838877 -0.037368223 1.2477419
-0.24481317 -0.037493911 1.2519387
-0.24121346 -0.037620448 1.2561638
-0.23758933 -0.037747838 1.2604175
-0.23394062 -0.037876099 1.2647002
-0.23026699 -0.038005233 1.269012
-0.22656825 -0.038135249 1.2733533
-0.38693151 -0.034754325 1.3151911
-0.38013756 -0.034557961 1.3077601
-0.37648901 -0.034646228 1.3111005
-0.37311837 -0.03476258 1.3155035
-0.36021945 -0.033982966 1.286001
-0.35372373 -0.033795264 1.2788978
-0.34730464 -0.033610124 1.2718917
-0.34094959 -0.03342643 1.2649403
-0.33466703 -0.033245068 1.258077
-0.32845226 -0.033065666 1.2512879
-0.32230428 -0.032888193 1.2445719
-0.31622189 -0.032712609 1.2379274
-0.31020409 -0.032538891 1.2313535
-0.30424985 -0.032367006 1.224849
-0.29835823 -0.032196932 1.2184129
-0.29442129 -0.032235909 1.2198879
-0.2906256 -0.032291733 1.2220005
-0.28681678 -0.032347757 1.2241205
-0.28299469 -0.032403972 1.2262478
-0.27915931 -0.032460384 1.2283826
-0.27531052 -0.032516994 1.2305248
-0.27144831 -0.032573797 1.2326745
-0.26757258 -0.032630805 1.2348317
-0.26368326 -0.032688007 1.2369964
-0.25978029 -0.032745413 1.2391689
-0.25586358 -0.032803021 1.2413489
-0.25193304 -0.032860834 1.2435366
-0.24812472 -0.032936908 1.2464155
-0.24455206 -0.033047576 1.2506034
-0.24095531 -0.033158988 1.2548195
-0.23733421 -0.033271153 1.2590641
-0.23368855 -0.033384077 1.2633375
-0.23001803 -0.033497773 1.26764
-0.38557181 -0.030014573 1.3105695
-0.37881336 -0.029845899 1.3032045
-0.3752465 -0.029927634 1.3067734
-0.36551726 -0.029513815 1.2887043
-0.35898057 -0.029350612 1.2815781
-0.35251677 -0.029189287 1.2745339
-0.34612361 -0.029029721 1.2675666
-0.33979967 -0.028871868 1.260674
-0.33354506 -0.0287158 1.2538594
-0.32735491 -0.028561167 1.2471074
-0.32123315 -0.028408375 1.2404358
-0.31517658 -0.028257212 1.2338353
-0.30918407 -0.028107643 1.2273046
-0.30325472 -0.027959654 1.2208427
-0.29874164 -0.027939864 1.2199786
-0.29495317 -0.027988255 1.2220916
-0.29115152 -0.028036814 1.2242118
-0.28733668 -0.028085541 1.2263395
-0.2835086 -0.028134441 1.2284746
-0.27966714 -0.028183509 1.2306172
-0.27581221 -0.028232746 1.2327671
-0.27194384 -0.028282158 1.2349247
-0.26806188 -0.028331744 1.2370898
-0.2641663 -0.028381502 1.2392625
-0.26025704 -0.02843144 1.2414429
-0.25633392 -0.028481545 1.2436308
-0.252397 -0.028531834 1.2458266
-0.24844612 -0.028582297 1.2480301
-0.24448127 -0.028632941 1.2502414
-0.24069771 -0.028707067 1.2534781
-0.23707964 -0.028804068 1.2577136
-0.23343703 -0.028901728 1.2619778
-0.22976965 -0.029000053 1.2662711
-0.39102742 -0.025451489 1.3133842
-0.38422176 -0.02530802 1.3059807
-0.37749082 -0.025166055 1.2986548
-0.3708367 -0.025025791 1.2914166
-0.36425748 -0.024887156 1.2842627
-0.35775113 -0.024750078 1.2771889
-0.35131606 -0.024614502 1.2701927
-0.34495109 -0.024480401 1.2632726
-0.33865511 -0.024347754 1.2564276
-0.33242702 -0.024216538 1.2496564
-0.32626566 -0.024086727 1.2429577
-0.32017019 -0.023958314 1.2363312
-0.31413817 -0.023831172 1.2297702
-0.3081708 -0.023705445 1.2232823
-0.30306259 -0.023643183 1.2200693
-0.29928136 -0.023684135 1.2221826
-0.29548696 -0.02372523 1.2243032
-0.29167938 -0.023766467 1.2264313
-0.28785852 -0.023807848 1.2285666
-0.28402436 -0.023849372 1.2307094
-0.28017679 -0.023891045 1.2328598
-0.27631575 -0.023932859 1.2350177
-0.27244118 -0.023974823 1.2371831
-0.26855299 -0.024016934 1.2393562
-0.26465109 -0.024059189 1.2415367
-0.26073545 -0.024101596 1.2437251
-0.25680599 -0.024144154 1.2459211
-0.25286266 -0.024186863 1.2481251
-0.24890532 -0.024229722 1.2503368
-0.24493395 -0.024272734 1.2525563
-0.24094844 -0.024315897 1.2547837
-0.23694873 -0.024359215 1.257019
-0.23318607 -0.024429016 1.2606211
-0.22952178 -0.024512036 1.2649051
-0.38965461 -0.020750837 1.3087732
-0.38287979 -0.02063424 1.3014193
-0.37618023 -0.020518921 1.2941461
-0.36955622 -0.020404944 1.2869574
-0.36300737 -0.020292336 1.2798551
-0.3565301 -0.020180948 1.2728298
-0.35012352 -0.020070774 1.2658811
-0.34378651 -0.019961797 1.2590077
-0.33751795 -0.019853998 1.2522087
-0.33131677 -0.019747358 1.2454828
-0.32518181 -0.019641854 1.2388287
-0.31911209 -0.019537475 1.2322453
-0.31310651 -0.019434197 1.2257315
-0.30747926 -0.019351842 1.2205373
-0.30361018 -0.019379374 1.2222737
-0.29982302 -0.019413002 1.2243947
-0.29602268 -0.019446746 1.2265229
-0.29220912 -0.019480608 1.2286587
-0.28838223 -0.019514587 1.2308018
-0.28454199 -0.019548686 1.2329525
-0.28068832 -0.019582905 1.2351106
-0.27682111 -0.019617245 1.2372764
-0.27294034 -0.019651704 1.2394499
-0.26904586 -0.019686284 1.2416308
-0.26513767 -0.019720985 1.2438195
-0.26121572 -0.01975581 1.2460159
-0.25727987 -0.019790759 1.2482202
-0.25333005 -0.019825829 1.2504321
-0.24936622 -0.019861028 1.252652
-0.2453883 -0.019896349 1.2548798
-0.24139617 -0.019931793 1.2571154
-0.23738983 -0.01996737 1.2593591
-0.23336914 -0.020003069 1.2616107
-0.22933407 -0.020038899 1.2638706
-0.38829169 -0.016083088 1.3041954
-0.38154763 -0.015993014 1.2968912
-0.37487864 -0.015903942 1.2896683
-0.36828557 -0.015815945 1.2825325
-0.36176577 -0.015728947 1.2754776
-0.35531735 -0.015642902 1.2685002
-0.34893903 -0.015557791 1.2615985
-0.34262976 -0.015473601 1.2547715
-0.33638844 -0.015390321 1.2480181
-0.3302139 -0.015307929 1.2413369
-0.32410514 -0.015226416 1.2347269
-0.31889671 -0.015185557 1.2314136
-0.31426224 -0.015171281 1.230256
-0.30963653 -0.015157034 1.2291006
-0.30501971 -0.015142822 1.2279482
-0.30041191 -0.015128656 1.2267995
-0.29656032 -0.015152717 1.2287506
-0.29274076 -0.015179151 1.2308941
-0.28890783 -0.015205675 1.233045
-0.28506148 -0.015232293 1.2352035
-0.28120166 -0.015259004 1.2373695
-0.27732828 -0.015285811 1.2395433
-0.27344128 -0.015312712 1.2417247
-0.26954055 -0.015339705 1.2439137
-0.26562604 -0.015366795 1.2461104
-0.26169768 -0.015393982 1.248315
-0.2577554 -0.015421263 1.2505273
-0.25379914 -0.015448643 1.2527475
-0.2498288 -0.01547612 1.2549757
-0.24584429 -0.015503694 1.2572117
-0.24184556 -0.015531367 1.2594557
-0.23783253 -0.015559138 1.2617077
-0.23380513 -0.015587009 1.2639678
-0.38022465 -0.011383972 1.2923944
-0.37358606 -0.011320789 1.2852215
-0.36702332 -0.011258384 1.2781367
-0.3605327 -0.011196667 1.2711302
-0.35411277 -0.011135622 1.2641999
-0.34776253 -0.01107524 1.2573448
-0.34148076 -0.011015508 1.2505636
-0.33526641 -0.010956419 1.2438554
-0.33051938 -0.010944351 1.2424853
-0.32583231 -0.01093397 1.2413068
-0.32115415 -0.01092361 1.2401307
-0.31648481 -0.01091327 1.2389567
-0.31182429 -0.010902947 1.2377849
-0.3071726 -0.010892645 1.2366153
-0.30253011 -0.010882378 1.2354497
-0.29789653 -0.010872137 1.234287
-0.29327434 -0.010862012 1.2331376
-0.28943533 -0.010881027 1.2352964
-0.28558287 -0.01090011 1.2374628
-0.28171691 -0.01091926 1.2396368
-0.27783734 -0.010938478 1.2418185
-0.27394405 -0.010957762 1.2440078
-0.27003703 -0.010977115 1.246205
-0.2661162 -0.010996537 1.2484099
-0.26218143 -0.011016027 1.2506225
-0.25823271 -0.011035586 1.252843
-0.25426996 -0.011055215 1.2550715
-0.25029308 -0.011074915 1.2573079
-0.24630198 -0.011094684 1.2595522
-0.24229664 -0.011114525 1.2618047
-0.23827691 -0.011134435 1.2640651
-0.37891087 -0.006806782 1.2879288
-0.3723034 -0.0067691524 1.2808088
-0.36576968 -0.0067319577 1.273771
-0.35930794 -0.0066951788 1.2668121
-0.35291639 -0.0066587999 1.2599287
-0.34710297 -0.0066325408 1.2549602
-0.34235299 -0.0066261869 1.253758
-0.33761215 -0.006619846 1.2525581
-0.33288032 -0.0066135158 1.2513604
-0.32815754 -0.0066071986 1.2501651
-0.32344374 -0.0066008926 1.2489719
-0.318739 -0.0065946002 1.2477813
-0.31404319 -0.0065883184 1.2465928
-0.3093563 -0.0065820492 1.2454065
-0.30467838 -0.0065757926 1.2442226
-0.30000991 -0.0065695602 1.2430434
-0.29535025 -0.0065633394 1.2418664
-0.29069945 -0.0065571303 1.2406915
-0.2861062 -0.0065520504 1.2397304
-0.28223404 -0.0065635825 1.2419124
-0.27834821 -0.0065751546 1.244102
-0.27444869 -0.0065867687 1.2462995
-0.27053535 -0.0065984232 1.2485046
-0.26660812 -0.0066101188 1.2507176
-0.262667 -0.0066218567 1.2529386
-0.25871181 -0.0066336361 1.2551674
-0.25474253 -0.0066454574 1.2574041
-0.25075907 -0.0066573205 1.2596488
-0.24676137 -0.0066692261 1.2619015
-0.24274938 -0.0066811754 1.2641624
-0.37102851 -0.0022486576 1.276423
-0.36452457 -0.0022363472 1.269435
-0.35920846 -0.0022311085 1.2664614
-0.35440329 -0.0022289515 1.265237
-0.34960744 -0.0022267988 1.2640151
-0.3448208 -0.0022246502 1.2627954
-0.3400434 -0.0022225059 1.2615782
-0.33527517 -0.0022203655 1.2603632
-0.33051616 -0.0022182292 1.2591506
-0.3257663 -0.0022160972 1.2579404
-0.32102555 -0.0022139694 1.2567326
-0.31629393 -0.0022118455 1.255527
-0.31157133 -0.0022097258 1.2543237
-0.30685773 -0.0022076096 1.2531226
-0.30215347 -0.0022054997 1.2519249
-0.29745853 -0.0022033965 1.250731
-0.2927725 -0.0022012971 1.2495393
-0.28809544 -0.0021992018 1.24835
-0.28342727 -0.0021971108 1.2471629
-0.27886102 -0.0021957562 1.246394
-0.27495518 -0.0021996414 1.2485995
-0.27103552 -0.0022035406 1.2508129
-0.26710191 -0.0022074538 1.2530341
-0.26315436 -0.002211381 1.2552633
-0.25919265 -0.0022153219 1.2575003
-0.25521684 -0.002219277 1.2597454
-0.25122681 -0.002223246 1.2619984
-0.24722251 -0.0022272298 1.2642597
-0.2432038 -0.0022312275 1.266529
-0.37153786 0.0022517447 1.2781752
-0.36667627 0.0022495477 1.2769282
-0.36182415 0.0022473549 1.2756835
-0.35698152 0.0022451668 1.2744414
-0.35214823 0.0022429824 1.2732015
-0.34732443 0.0022408026 1.2719642
-0.34250993 0.0022386271 1.2707292
-0.33770478 0.0022364554 1.2694966
-0.33290896 0.0022342883 1.2682663
-0.32812244 0.0022321253 1.2670386
-0.32334512 0.0022299665 1.2658131
-0.31857708 0.0022278118 1.26459
-0.31381825 0.0022256612 1.2633693
-0.30906856 0.0022235147 1.2621509
-0.30432805 0.0022213727 1.2609349
-0.29959711 0.0022192379 1.2597232
-0.29487541 0.0022171084 1.2585144
-0.29016274 0.0022149826 1.2573078
-0.28545913 0.0022128613 1.2561036
-0.28076449 0.002210744 1.2549018
-0.27607885 0.0022086308 1.2537022
-0.27153754 0.0022076224 1.2531297
-0.26759753 0.0022115498 1.2553592
-0.26364347 0.0022154914 1.2575965
-0.25967529 0.0022194472 1.2598419
-0.25569296 0.0022234172 1.2620955
-0.25169635 0.0022274011 1.264357
-0.24768534 0.0022313995 1.2666266
-0.36447829 0.0067915209 1.2850412
-0.35959753 0.0067848591 1.2837807
-0.35472631 0.0067782099 1.2825226
-0.34986466 0.0067715743 1.281267
-0.34501252 0.0067649516 1.2800139
-0.34016988 0.006758342 1.2787633
-0.33533666 0.006751745 1.2775151
-0.33051288 0.006745161 1.2762693
-0.32569849 0.0067385896 1.275026
-0.3208935 0.0067320312 1.273785
-0.3160978 0.0067254854 1.2725464
-0.29700902 0.0066994517 1.2676206
-0.29226005 0.0066929781 1.2663957
-0.28752029 0.0066865184 1.2651734
-0.28278983 0.0066800746 1.2639542
-0.27806845 0.0066736429 1.2627372
-0.27335617 0.0066672233 1.2615225
-0.26865295 0.0066608167 1.2603103
-0.26413447 0.0066588521 1.2599386
-0.26015979 0.0066707637 1.2621924
-0.25617084 0.0066827177 1.2644542
-0.25216758 0.0066947145 1.2667242
-0.35734248 0.011380333 1.2919813
-0.35244241 0.01136911 1.2907072
-0.34755197 0.011357907 1.2894354
-0.34267122 0.011346729 1.2881663
-0.33780006 0.011335572 1.2868997
-0.33293846 0.011324437 1.2856356
-0.32808638 0.011313324 1.2843739
-0.28961247 0.01122529 1.2743796
-0.28484535 0.011214384 1.2731415
-0.28008753 0.011203501 1.271906
-0.27533892 0.011192638 1.2706728
-0.27059948 0.011181797 1.269442
-0.26586926 0.011170977 1.2682136
-0.26114833 0.011160186 1.2669885
-0.25665051 0.011158718 1.2668219
-0.2526406 0.011178787 1.2691003
-0.3501291 0.016018979 1.2989967
-0.34520963 0.016003096 1.2977087
-0.28213656 0.015799647 1.2812109
-0.27735126 0.015784217 1.2799597
-0.27257526 0.015768817 1.2787108
-0.26780859 0.015753446 1.2774644
-0.26305121 0.015738105 1.2762204
