# .PCD v0.7 - Point Cloud Data file format
VERSION 0.7
FIELDS x y z
SIZE 4 4 4
TYPE F F F
COUNT 1 1 1
WIDTH 524
HEIGHT 1
VIEWPOINT 0 0 0 1 0 0 0
POINTS 524
DATA ascii
-0.15467396 -0.49952084 1.4393243
-0.14962216 -0.49958584 1.4395115
-0.14456902 -0.49965084 1.4396988
-0.13951457 -0.49971583 1.4398861
-0.13445881 -0.49978086 1.4400735
-0.12940173 -0.49984589 1.4402609
-0.15981871 -0.49467698 1.4399862
-0.15476517 -0.49474114 1.440173
-0.14971039 -0.49480551 1.4403604
-0.14465429 -0.49486992 1.4405479
-0.13959686 -0.49493435 1.4407355
-0.13453813 -0.49499875 1.440923
-0.12947807 -0.49506322 1.4411106
-0.1244167 -0.49512768 1.4412982
-0.11935403 -0.49519226 1.4414862
-0.11428998 -0.49525654 1.4416734
-0.16496816 -0.48982856 1.4406486
-0.15991303 -0.4898923 1.4408361
-0.15485656 -0.48995602 1.4410235
-0.14979875 -0.49001965 1.4412106
-0.14473964 -0.49008334 1.4413979
-0.13967925 -0.49014717 1.4415857
-0.13461754 -0.49021104 1.4417735
-0.12955454 -0.490275 1.4419616
-0.12449004 -0.49033833 1.4421479
-0.11942442 -0.4904024 1.4423363
-0.11435743 -0.49046633 1.4425243
-0.10928912 -0.49053025 1.4427123
-0.17012236 -0.48497567 1.4413115
-0.16506556 -0.48503882 1.4414991
-0.16000745 -0.48510194 1.4416867
-0.15494803 -0.48516512 1.4418745
-0.14988723 -0.48522818 1.4420619
-0.14482519 -0.48529142 1.4422499
-0.1399157 -0.48588911 1.4440261
-0.13481404 -0.48583928 1.4438781
-0.12963086 -0.48548031 1.4428113
-0.12456354 -0.48554361 1.4429994
-0.11949497 -0.48560724 1.4431884
-0.11442498 -0.48567048 1.4433764
-0.10935368 -0.48573378 1.4435645
-0.10428105 -0.48579708 1.4437526
-0.1752813 -0.48011836 1.4419751
-0.17022285 -0.48018086 1.4421629
-0.16516308 -0.48024341 1.4423507
-0.16010199 -0.48030597 1.4425386
-0.15503959 -0.48036858 1.4427266
-0.14997561 -0.48043036 1.4429122
-0.14669509 -0.48641002 1.4608713
-0.14284585 -0.4908703 1.4742672
-0.13801213 -0.49215645 1.47813
-0.1319959 -0.48916128 1.4691344
-0.12463728 -0.48074383 1.4438536
-0.11956558 -0.48080629 1.4440413
-0.11449262 -0.480869 1.4442296
-0.10941832 -0.48093167 1.4444178
-0.10434269 -0.48099434 1.4446061
-0.099265747 -0.48105708 1.4447944
-0.180445 -0.47525656 1.4426394
-0.17538489 -0.47531849 1.4428273
-0.17032346 -0.47538042 1.4430153
-0.1652607 -0.47544232 1.4432032
-0.16019653 -0.47550398 1.4433904
-0.15513112 -0.47556591 1.4435784
-0.15154518 -0.48032117 1.4580129
-0.12797649 -0.48840007 1.4825364
-0.11963629 -0.47599971 1.4448951
-0.11456031 -0.47606176 1.4450835
-0.10948303 -0.47612387 1.4452721
-0.10440442 -0.47618601 1.4454607
-0.09932448 -0.47624815 1.4456493
-0.094243206 -0.47631025 1.4458379
-0.18561341 -0.47039017 1.4433038
-0.18055166 -0.4704515 1.4434921
-0.17548853 -0.47051275 1.4436799
-0.17042409 -0.47057396 1.4438678
-0.16535828 -0.47063509 1.4440553
-0.16029118 -0.4706963 1.4442432
-0.15522274 -0.47075751 1.4444309
-0.15329678 -0.48067635 1.4748651
-0.11970711 -0.47118756 1.4457505
-0.11462813 -0.47124898 1.4459389
-0.10954782 -0.47131038 1.4461273
-0.10446621 -0.47137195 1.4463162
-0.099383257 -0.4714334 1.4465048
-0.094298996 -0.471495 1.4466938
-0.18572316 -0.46557996 1.4441571
-0.18065839 -0.46564063 1.4443454
-0.1755923 -0.46570131 1.4445336
-0.1705249 -0.46576205 1.4447219
-0.16545619 -0.46582282 1.4449104
-0.16038613 -0.46588352 1.4450988
-0.1553148 -0.46594441 1.4452876
-0.11977793 -0.46636939 1.4466058
-0.11469594 -0.46643016 1.4467943
-0.10961264 -0.46649098 1.446983
-0.10452806 -0.46655208 1.4471725
-0.099442132 -0.46661308 1.4473617
-0.09435486 -0.46667403 1.4475508
-0.08926627 -0.46673506 1.4477401
-0.18583299 -0.46076399 1.4450113
-0.18076526 -0.4608241 1.4451997
-0.17569618 -0.46088418 1.4453882
-0.17062579 -0.46094429 1.4455767
-0.16555409 -0.46100447 1.4457654
-0.16048105 -0.46106461 1.445954
-0.1554067 -0.46112478 1.4461427
-0.15033104 -0.46118501 1.4463316
-0.12493262 -0.4614858 1.4472749
-0.11984885 -0.46154556 1.4474623
-0.11476389 -0.46160588 1.4476515
-0.10967762 -0.46166626 1.4478408
-0.10459001 -0.46172667 1.4480302
-0.099501081 -0.46178705 1.4482197
-0.094410807 -0.46184745 1.4484091
-0.089319207 -0.46190789 1.4485986
-0.18594296 -0.45594233 1.4458663
-0.18087225 -0.45600185 1.4460551
-0.17580019 -0.45606136 1.4462438
-0.17072681 -0.45612085 1.4464325
-0.1656521 -0.45618039 1.4466213
-0.16057609 -0.45624 1.4468102
-0.15549874 -0.45629957 1.4469992
-0.15041989 -0.45635867 1.4471866
-0.14534 -0.45641857 1.4473766
-0.13009192 -0.45659712 1.4479427
-0.12500668 -0.45665702 1.4481328
-0.1199199 -0.45671624 1.4483205
-0.11483195 -0.45677596 1.4485099
-0.10974266 -0.45683575 1.4486995
-0.10465205 -0.45689556 1.4488891
-0.099560097 -0.45695531 1.4490787
-0.094466813 -0.45701513 1.4492683
-0.089372203 -0.45707497 1.4494581
-0.18605307 -0.45111498 1.4467225
-0.18097936 -0.4511739 1.4469115
-0.17590433 -0.45123285 1.4471005
-0.17082796 -0.45129177 1.4472895
-0.16575027 -0.45135072 1.4474785
-0.16067123 -0.45140967 1.4476676
-0.15559068 -0.45146802 1.4478548
-0.15050916 -0.45152751 1.4480455
-0.14542609 -0.45158631 1.4482341
-0.14034186 -0.45164564 1.4484243
-0.1352562 -0.45170465 1.4486136
-0.13016918 -0.45176366 1.4488028
-0.12508076 -0.45182234 1.4489911
-0.11999109 -0.45188135 1.4491802
-0.11490008 -0.45194033 1.4493694
-0.10980778 -0.45199949 1.4495591
-0.10471416 -0.4520587 1.449749
-0.099619187 -0.45211786 1.4499388
-0.094522893 -0.45217708 1.4501287
-0.089425266 -0.45223632 1.4503187
-0.18616332 -0.44628194 1.4475799
-0.18108661 -0.44634023 1.4477689
-0.17600858 -0.44639856 1.4479581
-0.17092922 -0.44645691 1.4481474
-0.16584852 -0.44651523 1.4483366
-0.1607665 -0.44657362 1.4485259
-0.15568313 -0.44663194 1.4487151
-0.15059839 -0.44669014 1.4489039
-0.14551246 -0.44674876 1.4490941
-0.14042512 -0.44680718 1.4492835
-0.13533644 -0.44686559 1.449473
-0.13024645 -0.44692406 1.4496627
-0.12515505 -0.44698229 1.4498515
-0.12006236 -0.44704068 1.4500409
-0.1149683 -0.44709894 1.4502299
-0.10987298 -0.44715747 1.4504198
-0.10477635 -0.44721609 1.4506099
-0.09967836 -0.44727468 1.4507999
-0.094579041 -0.44733331 1.4509901
-0.089478388 -0.44739196 1.4511803
-0.18627369 -0.44144315 1.448438
-0.18119398 -0.44150084 1.4486274
-0.17611295 -0.44155857 1.4488168
-0.17103058 -0.4416163 1.4490062
-0.1659469 -0.44167405 1.4491957
-0.16086189 -0.44173187 1.4493854
-0.15577547 -0.44178945 1.4495744
-0.15068783 -0.44184735 1.4497644
-0.14559883 -0.4419052 1.4499542
-0.14050847 -0.44196302 1.4501438
-0.13541679 -0.44202083 1.4503336
-0.13032377 -0.44207868 1.4505234
-0.12522943 -0.44213656 1.4507133
-0.12013363 -0.44219398 1.4509017
-0.11503661 -0.44225189 1.4510916
-0.10993826 -0.44230977 1.4512815
-0.10483859 -0.44236773 1.4514718
-0.099737599 -0.44242576 1.4516622
-0.094635248 -0.44248375 1.4518524
-0.089531578 -0.44254181 1.4520429
-0.1863842 -0.4365986 1.4492973
-0.18130149 -0.4366557 1.4494869
-0.17621745 -0.43671283 1.4496765
-0.17113209 -0.43676996 1.4498662
-0.16604543 -0.43682721 1.4500562
-0.16095734 -0.43688419 1.4502454
-0.15586801 -0.43694147 1.4504355
-0.1507773 -0.43699861 1.4506252
-0.14568529 -0.43705586 1.4508152
-0.14059192 -0.43711308 1.4510051
-0.13549721 -0.43717027 1.451195
-0.13040119 -0.43722755 1.4513851
-0.12530383 -0.4372848 1.4515752
-0.12020514 -0.43734211 1.4517654
-0.115105 -0.437399 1.4519542
-0.1100037 -0.43745661 1.4521455
-0.10490093 -0.43751362 1.4523348
-0.099796899 -0.43757102 1.4525253
-0.09469153 -0.43762845 1.4527159
-0.089584835 -0.43768591 1.4529066
-0.18649484 -0.43174833 1.4501576
-0.18140912 -0.43180484 1.4503474
-0.17632209 -0.43186137 1.4505373
-0.17123374 -0.43191794 1.4507273
-0.16614398 -0.43197438 1.4509169
-0.16105297 -0.43203098 1.451107
-0.15596059 -0.43208754 1.451297
-0.15086688 -0.43214414 1.4514871
-0.14577185 -0.43220073 1.4516772
-0.14067547 -0.43225735 1.4518673
-0.13557775 -0.43231398 1.4520576
-0.13047871 -0.43237063 1.4522479
-0.12537833 -0.43242729 1.4524381
-0.12027662 -0.432484 1.4526286
-0.11517354 -0.43254063 1.4528189
-0.11006907 -0.43259707 1.4530084
-0.10496333 -0.43265375 1.4531988
-0.09985628 -0.43271053 1.4533895
-0.094747879 -0.43276733 1.4535803
-0.089638144 -0.43282416 1.4537712
-0.1866056 -0.42689228 1.4510189
-0.18151689 -0.42694816 1.4512089
-0.17642677 -0.42700395 1.4513985
-0.17133546 -0.42706001 1.4515891
-0.16624273 -0.42711595 1.4517792
-0.16114868 -0.42717189 1.4519694
-0.1560533 -0.42722791 1.4521598
-0.15095659 -0.42728388 1.45235
-0.14585851 -0.42733985 1.4525403
-0.14075911 -0.42739585 1.4527307
-0.13565838 -0.42745191 1.4529212
-0.13055632 -0.42750791 1.4531115
-0.12545291 -0.427564 1.4533021
-0.12034816 -0.42762008 1.4534928
-0.11524206 -0.42767611 1.4536833
-0.11013465 -0.42773223 1.453874
-0.10502586 -0.42778823 1.4540644
-0.099915721 -0.42784426 1.4542547
-0.094804287 -0.42790043 1.4544457
-0.08969152 -0.4279567 1.4546369
-0.18671648 -0.42203042 1.4518812
-0.18162477 -0.42208573 1.4520714
-0.17653172 -0.42214108 1.4522618
-0.17143732 -0.42219639 1.4524522
-0.16634159 -0.42225173 1.4526426
-0.16124451 -0.42230704 1.4528328
-0.15614611 -0.42236242 1.4530233
-0.15104638 -0.42241782 1.4532139
-0.14594528 -0.42247319 1.4534044
-0.14084287 -0.42252859 1.453595
-0.1357391 -0.42258403 1.4537857
-0.13063402 -0.42263949 1.4539765
-0.12552758 -0.42269489 1.4541671
-0.1204198 -0.42275038 1.454358
-0.1153107 -0.42280588 1.454549
-0.11020023 -0.42286134 1.4547397
-0.10508844 -0.42291689 1.4549308
-0.099975266 -0.42297229 1.4551214
-0.09486077 -0.42302775 1.4553123
-0.089744955 -0.42308336 1.4555036
-0.18682753 -0.41716284 1.4527446
-0.18173279 -0.41721755 1.4529351
-0.17663671 -0.41727224 1.4531256
-0.17153929 -0.41732696 1.4533161
-0.16644055 -0.41738167 1.4535067
-0.16134046 -0.41743642 1.4536973
-0.15623903 -0.4174912 1.4538881
-0.15113626 -0.41754594 1.4540788
-0.14603217 -0.41760075 1.4542696
-0.14092672 -0.41765553 1.4544604
-0.13581994 -0.41771036 1.4546514
-0.13071181 -0.4177652 1.4548423
-0.12560233 -0.41782001 1.4550332
-0.12049153 -0.4178749 1.4552243
-0.11537939 -0.41792977 1.4554154
-0.11026589 -0.41798463 1.4556065
-0.10515105 -0.41803953 1.4557977
-0.10003487 -0.41809446 1.4559889
-0.094917312 -0.41814926 1.4561797
-0.089798465 -0.41820431 1.4563714
-0.18694656 -0.40131193 1.4149055
-0.18198515 -0.40136454 1.415091
-0.17702249 -0.40141717 1.4152766
-0.17205849 -0.40146983 1.4154623
-0.1670932 -0.40152246 1.4156479
-0.16212662 -0.40157515 1.4158336
-0.15715872 -0.40162784 1.4160193
-0.15218952 -0.40168053 1.4162052
-0.147219 -0.40173322 1.4163909
-0.14224719 -0.40178594 1.4165767
-0.13727409 -0.40183872 1.4167628
-0.13229968 -0.40189144 1.4169488
-0.12732396 -0.40194422 1.4171349
-0.12234691 -0.40199697 1.4173208
-0.11736859 -0.40204984 1.4175072
-0.11238892 -0.40210262 1.4176933
-0.10740797 -0.40215543 1.4178795
-0.10242571 -0.40220827 1.4180658
-0.097442135 -0.40226111 1.4182521
-0.092457257 -0.40231401 1.4184386
-0.089852035 -0.41331938 1.4572402
-0.18705778 -0.39656249 1.4157474
-0.18209346 -0.39661452 1.4159331
-0.17712784 -0.39666659 1.416119
-0.17216091 -0.39671859 1.4163047
-0.16719268 -0.39677069 1.4164907
-0.16222313 -0.39682275 1.4166765
-0.1572523 -0.39687485 1.4168625
-0.15228015 -0.39692697 1.4170486
-0.1473067 -0.39697906 1.4172345
-0.14233194 -0.39703122 1.4174207
-0.13735586 -0.39708334 1.4176068
-0.1323785 -0.3971355 1.417793
-0.12739982 -0.39718768 1.4179794
-0.12241983 -0.39723986 1.4181657
-0.11743855 -0.39729211 1.4183521
-0.11245593 -0.39734429 1.4185385
-0.10747202 -0.39739653 1.418725
-0.1024868 -0.39744881 1.4189116
-0.097500257 -0.39750105 1.4190981
-0.092512414 -0.39755335 1.4192848
-0.088553801 -0.40228727 1.4361851
-0.18716915 -0.39180744 1.4165903
-0.18220188 -0.39185882 1.4167762
-0.17723332 -0.39191028 1.4169623
-0.17226344 -0.39196172 1.4171482
-0.16729227 -0.39201322 1.4173344
-0.16231978 -0.39206469 1.4175205
-0.15734601 -0.39211625 1.4177068
-0.1523709 -0.39216772 1.4178929
-0.14739449 -0.39221925 1.4180793
-0.14241678 -0.39227077 1.4182656
-0.13743776 -0.39232233 1.418452
-0.13245744 -0.39237392 1.4186385
-0.1274758 -0.39242548 1.4188249
-0.12249285 -0.39247707 1.4190115
-0.1175086 -0.39252871 1.4191982
-0.11252303 -0.39258033 1.4193848
-0.10753617 -0.39263204 1.4195718
-0.10254797 -0.39268371 1.4197586
-0.097558476 -0.39273542 1.4199455
-0.092567652 -0.39278707 1.4201323
-0.088863283 -0.3986153 1.4412044
-0.18728065 -0.38704669 1.4174342
-0.18231045 -0.38709754 1.4176204
-0.17733893 -0.38714838 1.4178066
-0.17236611 -0.38719925 1.4179929
-0.16739197 -0.3872501 1.4181792
-0.16241653 -0.38730097 1.4183655
-0.15743981 -0.38735193 1.418552
-0.15246175 -0.3874028 1.4187384
-0.14748241 -0.38745376 1.418925
-0.14250173 -0.38750473 1.4191116
-0.13751976 -0.38755569 1.4192983
-0.13253649 -0.38760671 1.4194851
-0.12755188 -0.38765767 1.4196718
-0.12256598 -0.38770872 1.4198587
-0.11757875 -0.38775972 1.4200455
-0.11259022 -0.38781077 1.4202324
-0.10760038 -0.38786185 1.4204195
-0.10260922 -0.3879129 1.4206065
-0.097616747 -0.38796398 1.4207935
-0.092622958 -0.38801509 1.4209807
-0.08917287 -0.39490843 1.4462253
-0.18739228 -0.38228026 1.4182791
-0.18241912 -0.38233051 1.4184655
-0.17744467 -0.38238075 1.4186519
-0.1724689 -0.38243103 1.4188385
-0.16749181 -0.38248131 1.4190249
-0.16251343 -0.38253161 1.4192116
-0.15753374 -0.38258192 1.4193983
-0.15255274 -0.38263229 1.4195851
-0.14757043 -0.38268262 1.4197719
-0.1425868 -0.38273299 1.4199587
-0.13760187 -0.38278335 1.4201456
-0.13261563 -0.38283378 1.4203327
-0.12762806 -0.38288414 1.4205196
-0.12263918 -0.38293457 1.4207066
-0.117649 -0.38298506 1.4208939
-0.1126575 -0.38303551 1.4210811
-0.10766467 -0.38308594 1.4212682
-0.10267054 -0.38313642 1.4214555
-0.097675093 -0.38318691 1.4216428
-0.092678331 -0.38323742 1.4218302
-0.089480355 -0.39115697 1.4512122
-0.18750407 -0.37750816 1.4191251
-0.18252794 -0.37755781 1.4193116
-0.17755052 -0.37760746 1.4194983
-0.17257181 -0.37765715 1.4196851
-0.1675918 -0.37770689 1.419872
-0.16261046 -0.3777566 1.420059
-0.15762781 -0.37780634 1.4202459
-0.15264384 -0.37785608 1.4204329
-0.14765857 -0.37790585 1.42062
-0.14267197 -0.37795559 1.420807
-0.13768408 -0.37800539 1.4209942
-0.13269486 -0.37805516 1.4211813
-0.12770434 -0.37810498 1.4213686
-0.12271249 -0.37815481 1.4215559
-0.11771932 -0.37820461 1.4217432
-0.11272484 -0.37825447 1.4219306
-0.10772905 -0.37830433 1.4221179
-0.10273193 -0.37835416 1.4223053
-0.097733498 -0.37840405 1.4224929
-0.092733756 -0.37845397 1.4226805
-0.089789979 -0.38737962 1.4562337
-0.18263693 -0.37277949 1.4201591
-0.17765658 -0.37282857 1.4203461
-0.17267488 -0.37287766 1.4205331
-0.16769189 -0.37292674 1.4207201
-0.1627076 -0.37297589 1.4209073
-0.15772198 -0.373025 1.4210944
-0.15273504 -0.37307411 1.4212816
-0.1477468 -0.37312329 1.4214689
-0.14275725 -0.37317243 1.4216561
-0.13776638 -0.37322164 1.4218435
-0.13277419 -0.37327084 1.4220309
-0.12778068 -0.37332001 1.4222183
-0.12278586 -0.37336925 1.4224058
-0.11778972 -0.37341845 1.4225934
-0.11279226 -0.37346771 1.422781
-0.10779349 -0.37351698 1.4229686
-0.1027934 -0.37356624 1.4231564
-0.097791985 -0.37361553 1.4233441
-0.092789248 -0.37366483 1.4235319
-0.090101741 -0.38357601 1.46129
-0.17776272 -0.36804396 1.4211948
-0.17277808 -0.36809245 1.4213821
-0.16779213 -0.36814094 1.4215693
-0.16280487 -0.36818948 1.4217567
-0.15781629 -0.368238 1.4219441
-0.15282638 -0.36828655 1.4221315
-0.14783518 -0.3683351 1.4223191
-0.14284264 -0.36838365 1.4225066
-0.13784879 -0.36843222 1.4226941
-0.13285363 -0.3684808 1.4228817
-0.12785715 -0.36852944 1.4230695
-0.12285934 -0.36857802 1.4232571
-0.11786022 -0.36862665 1.4234449
-0.11285979 -0.36867529 1.4236327
-0.10785802 -0.36872396 1.4238206
-0.10285494 -0.3687726 1.4240085
-0.097850546 -0.36882129 1.4241965
-0.093494728 -0.37145203 1.434355
-0.091360554 -0.38371432 1.4817057
-0.17288141 -0.36330152 1.422232
-0.16789249 -0.36334941 1.4224195
-0.16290225 -0.36339733 1.4226072
-0.15791069 -0.36344522 1.4227947
-0.15291783 -0.3634932 1.4229825
-0.14792363 -0.36354113 1.4231701
-0.14292812 -0.36358908 1.4233578
-0.13793129 -0.36363706 1.4235456
-0.13293315 -0.36368504 1.4237335
-0.12793368 -0.36373302 1.4239213
-0.12293291 -0.36378106 1.4241093
-0.11793081 -0.36382908 1.4242973
-0.11292738 -0.36387712 1.4244854
-0.10792264 -0.36392519 1.4246736
-0.10291657 -0.36397323 1.4248617
-0.098683849 -0.36690149 1.4363251
-0.0967182 -0.37903079 1.4838082
-0.16799296 -0.35855213 1.4232708
-0.16299975 -0.35859945 1.4234586
-0.15800522 -0.35864678 1.4236465
-0.15300938 -0.35869414 1.4238344
-0.14801221 -0.35874146 1.4240223
-0.14301373 -0.35878882 1.4242103
-0.13801391 -0.35883617 1.4243983
-0.13301279 -0.35888356 1.4245864
-0.12801035 -0.35893095 1.4247745
-0.12300657 -0.35897839 1.4249628
-0.11800148 -0.35902581 1.425151
-0.11299507 -0.35907322 1.4253392
-0.10798734 -0.35912067 1.4255276
-0.10388725 -0.36233845 1.4383006
-0.10209319 -0.3743417 1.4859474
-0.16309737 -0.35379583 1.424311
-0.15809985 -0.35384253 1.424499
-0.15310103 -0.35388926 1.4246873
-0.14810088 -0.35393602 1.4248755
-0.14309941 -0.35398275 1.4250636
-0.13809663 -0.35402954 1.425252
-0.13309251 -0.3540763 1.4254402
-0.12808707 -0.35412309 1.4256285
-0.12308032 -0.35416991 1.425817
-0.11807223 -0.35421669 1.4260054
-0.11306283 -0.35426351 1.426194
-0.10910498 -0.35776284 1.4402815
-0.10748476 -0.3696427 1.4881074
-0.1581946 -0.34903255 1.4253528
-0.15319279 -0.34907866 1.4255412
-0.14818966 -0.34912482 1.4257296
-0.1431852 -0.34917092 1.425918
-0.13817942 -0.34921709 1.4261065
-0.13317233 -0.34926331 1.4262952
-0.1281639 -0.34930947 1.4264838
-0.12315416 -0.34935567 1.4266723
-0.11814307 -0.34940186 1.426861
-0.11433723 -0.35317498 1.4422694
-0.11289201 -0.36492997 1.4902736
-0.15602532 -0.35041752 1.4518994
-0.15062971 -0.3497673 1.4492053
-0.14525406 -0.3491194 1.4465208
-0.13989826 -0.34847385 1.443846
-0.13456221 -0.34783062 1.4411809
-0.12924585 -0.34718984 1.4385259
-0.12394903 -0.34655136 1.4358805
-0.11958735 -0.34858441 1.4443041
-0.11831503 -0.36020353 1.4924462
