# .PCD v0.7 - Point Cloud Data file format
VERSION 0.7
FIELDS x y z
SIZE 4 4 4
TYPE F F F
COUNT 1 1 1
WIDTH 1404
HEIGHT 1
VIEWPOINT 0 0 0 1 0 0 0
POINTS 1404
DATA ascii
-0.29587644 0.069081284 0.73987061
-0.29426634 0.069316074 0.74238527
-0.29264531 0.069552466 0.74491709
-0.29101312 0.069790475 0.74746621
-0.28936973 0.070030116 0.75003278
-0.28771502 0.07027141 0.75261706
-0.28604886 0.070514373 0.75521922
-0.28437117 0.070759028 0.7578395
-0.28268179 0.071005374 0.76047796
-0.28098059 0.071253449 0.76313484
-0.27926746 0.071503259 0.76581037
-0.27754229 0.071754836 0.76850474
-0.27580571 0.072008386 0.77122033
-0.27405703 0.072263792 0.77395576
-0.27229497 0.07252077 0.77670807
-0.27052039 0.072779596 0.7794801
-0.26873302 0.073040262 0.78227186
-0.26693287 0.073302805 0.78508377
-0.26511967 0.073567241 0.78791589
-0.26329339 0.0738336 0.79076862
-0.26145384 0.074101888 0.79364204
-0.25959992 0.074371867 0.79653358
-0.25773293 0.07464397 0.79944777
-0.25585285 0.07491824 0.80238527
-0.25395891 0.075194538 0.80534446
-0.25205094 0.075472876 0.80832553
-0.25012878 0.075753286 0.81132877
-0.24819228 0.076035783 0.81435436
-0.2462413 0.076320402 0.81740266
-0.24427566 0.07660716 0.82047385
-0.32029983 0.072495848 0.74820691
-0.30894235 0.070505515 0.72766531
-0.30563086 0.070333458 0.72588956
-0.30243829 0.070186101 0.72436869
-0.30088401 0.070419662 0.72677922
-0.29931936 0.070654787 0.72920585
-0.29774421 0.070891485 0.73164874
-0.29615822 0.071129709 0.73410738
-0.29456168 0.071369573 0.73658293
-0.29295433 0.071611054 0.73907524
-0.29133603 0.071854182 0.74158442
-0.28970671 0.072098956 0.7441107
-0.28806627 0.072345413 0.74665427
-0.28641459 0.072593562 0.74921536
-0.28475153 0.072843418 0.75179404
-0.28307697 0.073094994 0.75439048
-0.28139082 0.073348321 0.75700498
-0.27969292 0.073603399 0.75963759
-0.27798319 0.073860265 0.76228863
-0.27626148 0.074118935 0.76495826
-0.27452767 0.074379414 0.76764661
-0.27278161 0.074641734 0.77035391
-0.27102542 0.074906521 0.77308673
-0.26925427 0.075172514 0.77583194
-0.26747084 0.075440496 0.77859765
-0.26567462 0.075710386 0.7813831
-0.26386553 0.07598222 0.78418863
-0.26204336 0.076256007 0.78701431
-0.26020804 0.076531775 0.78986043
-0.25835937 0.076809548 0.79272723
-0.25649536 0.077088773 0.795609
-0.25462005 0.077370733 0.79851902
-0.2527307 0.077654682 0.8014496
-0.25082743 0.077940732 0.80440181
-0.24891014 0.078228906 0.80737597
-0.2469786 0.07851921 0.81037211
-0.24503268 0.078811683 0.81339061
-0.24307218 0.079106331 0.81643164
-0.241097 0.079403207 0.81949556
-0.23910692 0.079702303 0.82258248
-0.3290461 0.076553583 0.7623632
-0.31224853 0.073243484 0.72939938
-0.30892107 0.07306432 0.72761518
-0.30560985 0.072886027 0.72583967
-0.30231473 0.072708607 0.72407275
-0.29957026 0.07266172 0.72360587
-0.29800808 0.072903261 0.72601128
-0.29643551 0.073146425 0.72843283
-0.29485241 0.073391214 0.73087054
-0.29325867 0.073637635 0.73332459
-0.29165459 0.073885828 0.73579621
-0.29003847 0.074135393 0.73828149
-0.28841203 0.074386813 0.7407853
-0.28677455 0.074639954 0.74330622
-0.28512585 0.074894816 0.74584424
-0.28346589 0.075151421 0.74839973
-0.28179452 0.0754098 0.75097275
-0.28011161 0.075669959 0.75356358
-0.27841702 0.075931914 0.7561723
-0.27671066 0.076195695 0.75879914
-0.27499244 0.076461315 0.76144433
-0.27326214 0.076728784 0.76410794
-0.27151975 0.076998137 0.76679033
-0.26976508 0.077269398 0.76949167
-0.26799798 0.077542566 0.77221203
-0.26622027 0.07781823 0.7749573
-0.2644282 0.078095376 0.77771723
-0.26262313 0.078374445 0.78049636
-0.26080519 0.078655533 0.78329557
-0.25897408 0.078938618 0.78611475
-0.25712976 0.079223767 0.78895438
-0.25527209 0.079510972 0.79181457
-0.25339943 0.079799823 0.79469109
-0.25151432 0.080091149 0.79759228
-0.24961583 0.080384761 0.80051619
-0.24770333 0.080680512 0.80346149
-0.24577676 0.080978468 0.80642867
-0.24383587 0.081278622 0.80941778
-0.24188054 0.081581011 0.81242913
-0.2399106 0.081885658 0.81546295
-0.23792592 0.082192592 0.81851959
-0.23592627 0.082501829 0.82159913
-0.23391157 0.082813412 0.82470208
-0.3205975 0.077205114 0.74278873
-0.31222698 0.075808197 0.72934908
-0.30889979 0.075622767 0.72756505
-0.30558881 0.075438246 0.72578973
-0.30229399 0.075254619 0.7240231
-0.29901516 0.075071894 0.72226506
-0.29670826 0.075132132 0.72284466
-0.29513824 0.075381622 0.725245
-0.29355776 0.075632788 0.72766143
-0.29196671 0.075885624 0.73009396
-0.29036498 0.07614015 0.73254275
-0.2887525 0.076396398 0.73500812
-0.28712907 0.076654367 0.73749006
-0.28549445 0.076914035 0.73998827
-0.28384867 0.077175446 0.74250335
-0.28219181 0.07743869 0.74503595
-0.28052363 0.077703729 0.74758589
-0.27884394 0.077970579 0.7501533
-0.27715269 0.078239277 0.75273842
-0.27544975 0.07850983 0.75534141
-0.27373499 0.07878226 0.75796247
-0.2720083 0.079056606 0.76060188
-0.27026954 0.079332851 0.76325965
-0.26851857 0.079611033 0.76593608
-0.26675528 0.079891175 0.76863128
-0.26497954 0.080173291 0.77134556
-0.26319206 0.08045768 0.77408159
-0.2613906 0.080743693 0.77683336
-0.25957859 0.08103247 0.77961165
-0.25775179 0.081322752 0.78240448
-0.2559118 0.081615113 0.78521729
-0.25405854 0.081909582 0.78805035
-0.2521919 0.082206205 0.7909041
-0.25031081 0.082504682 0.7937758
-0.24841584 0.082805276 0.79666781
-0.2465082 0.083108477 0.79958487
-0.24458653 0.083413906 0.80252337
-0.2426507 0.083721586 0.80548358
-0.24070051 0.084031545 0.80846566
-0.23873587 0.084343806 0.81146997
-0.23675653 0.084658399 0.81449664
-0.2347624 0.084975347 0.81754601
-0.23275326 0.085294671 0.82061821
-0.23072897 0.08561641 0.82371366
-0.22868936 0.085940585 0.82683253
-0.32928282 0.081320859 0.75673425
-0.31554866 0.07856518 0.73109114
-0.3122054 0.078372553 0.72929865
-0.30887851 0.078180864 0.72751492
-0.30556783 0.077990115 0.7257399
-0.30227324 0.077800289 0.72397345
-0.29899472 0.077611394 0.72221565
-0.29573205 0.077423409 0.72046638
-0.2938523 0.077597357 0.72208506
-0.29227442 0.07785476 0.72448033
-0.2906861 0.078113884 0.72689164
-0.28908715 0.078374736 0.72931898
-0.28747749 0.078637339 0.73176265
-0.28585702 0.078901708 0.73422277
-0.28422558 0.079167858 0.7366994
-0.28258312 0.07943581 0.73919284
-0.28092948 0.079705574 0.74170315
-0.2792652 0.079977356 0.74423224
-0.27758771 0.080250472 0.74677372
-0.2758998 0.080525778 0.74933559
-0.27420029 0.080802985 0.75191516
-0.27248901 0.081082098 0.75451243
-0.27076587 0.081363142 0.7571277
-0.26903075 0.081646144 0.75976121
-0.2672835 0.081931122 0.76241308
-0.26552406 0.082218111 0.76508367
-0.26375219 0.082507104 0.76777285
-0.26196787 0.082798131 0.77048105
-0.26017088 0.083091222 0.77320844
-0.25836259 0.083386868 0.77595955
-0.25654033 0.083684281 0.77872711
-0.25470531 0.083983913 0.78151536
-0.25285652 0.084285505 0.78432184
-0.25099438 0.084589265 0.78714854
-0.24911878 0.084895223 0.78999561
-0.24723062 0.085203774 0.79286683
-0.24532507 0.085513316 0.79574728
-0.24340779 0.085825868 0.79865575
-0.24147698 0.086140908 0.8015874
-0.23953195 0.086458281 0.80454069
-0.23757254 0.086777993 0.8075158
-0.23559858 0.087100081 0.81051302
-0.23360991 0.087424569 0.81353253
-0.23160638 0.087751485 0.81657469
-0.22958779 0.088080853 0.81963962
-0.22755401 0.08841271 0.82272768
-0.22550483 0.088747062 0.82583904
-0.2234401 0.089083962 0.82897407
-0.33830702 0.085595757 0.77122825
-0.32089084 0.081846654 0.73744839
-0.31552684 0.081135474 0.7310406
-0.31218386 0.080936551 0.72924829
-0.30885726 0.080738619 0.72746485
-0.30554682 0.080541633 0.72569001
-0.30225256 0.080345616 0.72392386
-0.29897428 0.080150552 0.7221663
-0.29571185 0.079956427 0.7204172
-0.29257748 0.079793863 0.71895248
-0.29100233 0.080057405 0.72132707
-0.28941667 0.080322683 0.72371727
-0.28782052 0.080589749 0.72612351
-0.2862137 0.080858581 0.72854573
-0.28459615 0.081129216 0.73098421
-0.28296772 0.081401676 0.73343909
-0.28132829 0.081675962 0.73591042
-0.27967781 0.081952102 0.73839849
-0.27801609 0.082230113 0.74090344
-0.27634311 0.082510032 0.74342549
-0.27465922 0.082792014 0.7459662
-0.27296397 0.083075993 0.7485249
-0.2712543 0.083361082 0.75109357
-0.26953474 0.083648711 0.75368518
-0.26780328 0.083938345 0.75629479
-0.26605979 0.084229983 0.75892252
-0.26430413 0.084523655 0.76156855
-0.2625362 0.084819384 0.76423305
-0.26075581 0.085117184 0.76691628
-0.25896296 0.085417099 0.76961857
-0.25715736 0.085719116 0.77233976
-0.25533897 0.086023286 0.77508038
-0.25351059 0.086330637 0.77784961
-0.25166577 0.086639032 0.78062832
-0.24980818 0.086949803 0.78342843
-0.24793719 0.087262809 0.78624862
-0.24605268 0.087578073 0.7890892
-0.24415517 0.087895863 0.79195249
-0.24224059 0.088214785 0.79482603
-0.24031457 0.088536948 0.79772878
-0.23837468 0.08886157 0.80065364
-0.2364205 0.089188568 0.80359995
-0.23445189 0.089517996 0.80656815
-0.23246868 0.089849859 0.80955827
-0.23047075 0.090184204 0.81257075
-0.22845784 0.09052103 0.81560558
-0.22642986 0.090860389 0.8186633
-0.22438662 0.091202304 0.82174397
-0.22232795 0.091546804 0.82484794
-0.22025365 0.091893904 0.82797539
-0.32951808 0.086018771 0.75119233
-0.31886417 0.08391162 0.73279083
-0.31550497 0.083705403 0.73098993
-0.31216231 0.083500206 0.72919798
-0.30883595 0.083296008 0.72741473
-0.30552584 0.083092801 0.72564018
-0.30223182 0.082890585 0.72387421
-0.29895383 0.082689352 0.72211689
-0.2956917 0.082489096 0.72036809
-0.2924453 0.082289807 0.71862769
-0.28974119 0.082240954 0.71820104
-0.2881583 0.082512289 0.72057062
-0.28656495 0.082785428 0.72295588
-0.28496099 0.083060376 0.725357
-0.28334633 0.083337158 0.72777408
-0.28172091 0.083615795 0.73020738
-0.28008455 0.083896294 0.73265696
-0.2784372 0.084178694 0.7351231
-0.27677873 0.084462993 0.73760587
-0.27510896 0.084749214 0.74010539
-0.2734279 0.085037388 0.74262202
-0.27173534 0.085327528 0.74515575
-0.27003121 0.085619658 0.74770689
-0.26831603 0.085914001 0.7502774
-0.26658884 0.086210318 0.75286508
-0.26484722 0.086507879 0.75546366
-0.26309535 0.086808115 0.75808555
-0.26133135 0.087110445 0.7607258
-0.25955498 0.087414891 0.76338446
-0.25776613 0.08772146 0.76606172
-0.25596473 0.088030197 0.76875788
-0.25415057 0.088341102 0.77147299
-0.25232357 0.088654228 0.77420747
-0.25048429 0.088969827 0.77696353
-0.24863321 0.089288168 0.77974361
-0.24676679 0.089608051 0.7825371
-0.24488699 0.089930251 0.78535086
-0.24299365 0.090254784 0.78818494
-0.24108657 0.090581663 0.79103953
-0.23916291 0.090909876 0.79390579
-0.23722851 0.09124174 0.79680389
-0.23527959 0.091575891 0.79972202
-0.23331632 0.091912486 0.80266148
-0.23133858 0.092251584 0.80562276
-0.22934617 0.092593178 0.80860585
-0.22733897 0.092937313 0.81161118
-0.22531678 0.093284018 0.81463891
-0.22327946 0.093633324 0.81768936
-0.22122681 0.093985245 0.82076263
-0.2191585 0.094339751 0.8238585
-0.21707538 0.094697312 0.82698107
-0.33847719 0.090350486 0.76546782
-0.32221749 0.086701095 0.73454946
-0.31884202 0.086487509 0.73273993
-0.31548315 0.086274989 0.73093939
-0.31214076 0.086063504 0.72914767
-0.30881467 0.085853048 0.7273646
-0.30550486 0.085643627 0.72559035
-0.30221111 0.085435212 0.72382462
-0.29893339 0.085227817 0.72206753
-0.29567152 0.085021421 0.72031891
-0.29242542 0.084816031 0.71857882
-0.28919497 0.084611624 0.71684706
-0.28691083 0.084682934 0.71745116
-0.28532025 0.084962025 0.71981573
-0.28371918 0.085242987 0.72219604
-0.28210747 0.085525796 0.72459209
-0.28048506 0.085810497 0.72700411
-0.27885181 0.086097099 0.72943228
-0.27720755 0.086385608 0.73187661
-0.2755523 0.086676076 0.73433751
-0.27388585 0.086968489 0.73681486
-0.27220812 0.087262891 0.73930913
-0.27051902 0.087559298 0.74182034
-0.26881835 0.087857708 0.74434853
-0.26710612 0.088158183 0.74689418
-0.26538208 0.088460691 0.74945712
-0.26364622 0.088765308 0.75203788
-0.26189843 0.089072056 0.7546367
-0.26013932 0.089381203 0.75725585
-0.25836509 0.089691512 0.75988489
-0.25658035 0.09000463 0.76253766
-0.25478309 0.090319939 0.76520902
-0.2529732 0.09063746 0.76789916
-0.25115055 0.090957224 0.77060825
-0.24931496 0.091279253 0.77333653
-0.24746634 0.091603562 0.77608418
-0.24560584 0.09193068 0.77885556
-0.24373117 0.092259817 0.78164411
-0.24184376 0.092591614 0.78445512
-0.23994158 0.092925355 0.78728265
-0.2380257 0.093261525 0.79013079
-0.23609386 0.093599342 0.79299283
-0.23414963 0.093940273 0.79588127
-0.23219171 0.094283909 0.7987926
-0.23021938 0.094630055 0.80172521
-0.22823253 0.094978757 0.80467951
-0.22623098 0.095330037 0.80765563
-0.2242146 0.095683932 0.81065392
-0.22218317 0.096040465 0.81367451
-0.22013737 0.096400023 0.81672078
-0.21807507 0.096761778 0.81978565
-0.21599792 0.097126581 0.82287633
-0.21390432 0.097493805 0.82598752
-0.32974982 0.090648361 0.74573088
-0.32219511 0.089282982 0.73449838
-0.31881988 0.089063048 0.73268908
-0.31546134 0.08884421 0.73088878
-0.31211922 0.088626444 0.72909731
-0.30879343 0.088409737 0.72731453
-0.30548388 0.088194087 0.72554046
-0.30219042 0.087979488 0.72377503
-0.29891294 0.087765932 0.72201818
-0.29565135 0.087553404 0.7202698
-0.29240552 0.087341905 0.71852988
-0.28917533 0.087131433 0.71679842
-0.28596067 0.086921968 0.71507519
-0.28408635 0.087119818 0.71670282
-0.28248814 0.087406643 0.71906245
-0.28087941 0.087695383 0.72143781
-0.27926001 0.08798603 0.72382885
-0.27762982 0.088278607 0.72623575
-0.27598876 0.088573135 0.72865874
-0.2743367 0.088869631 0.73109794
-0.27267355 0.089168124 0.73355353
-0.27099916 0.089468628 0.73602563
-0.26931351 0.089771166 0.73851454
-0.26761639 0.090075761 0.74102032
-0.2659077 0.09038242 0.74354309
-0.26418737 0.090691186 0.7460832
-0.2624552 0.091002055 0.7486406
-0.26071116 0.091315076 0.7512157
-0.25895506 0.09163025 0.7538085
-0.2571874 0.091947824 0.75642109
-0.25540558 0.09226694 0.75904632
-0.25361428 0.092589341 0.7616986
-0.25180671 0.092912637 0.76435822
-0.24998836 0.093238905 0.76704234
-0.24815722 0.093567476 0.76974535
-0.24631315 0.093898386 0.77246761
-0.24445595 0.09423162 0.77520907
-0.24258554 0.094567239 0.77797008
-0.24070397 0.094906136 0.78075802
-0.23880504 0.095245942 0.78355348
-0.23689654 0.095589831 0.78638256
-0.23497182 0.09593524 0.78922409
-0.23303121 0.096282355 0.79207969
-0.23107816 0.096632689 0.79496175
-0.22911099 0.096985631 0.79786527
-0.22712967 0.097341292 0.80079114
-0.22513378 0.09769956 0.80373853
-0.22312312 0.098060481 0.80670768
-0.22109759 0.098424084 0.80969894
-0.21905705 0.098790437 0.81271273
-0.21700241 0.099160038 0.81575334
-0.21493112 0.099531859 0.81881219
-0.21284389 0.099906318 0.82189268
-0.21074088 0.10028359 0.82499641
-0.33864483 0.095034711 0.7597928
-0.32556427 0.092091881 0.73626518
-0.32217267 0.091864496 0.73444724
-0.3187978 0.09163823 0.7326383
-0.31543949 0.091413081 0.73083824
-0.31209767 0.091189034 0.729047
-0.30877218 0.090966076 0.72726446
-0.3054629 0.090744205 0.72549063
-0.30216971 0.090523414 0.72372544
-0.29889253 0.090303697 0.72196883
-0.2956312 0.090085037 0.72022069
-0.29238561 0.089867443 0.718481
-0.28915572 0.089650899 0.71674979
-0.2859413 0.089435391 0.7150268
-0.28286305 0.089259014 0.71361667
-0.28126779 0.089551628 0.71595609
-0.27966195 0.089846149 0.71831077
-0.27804559 0.09014263 0.72068113
-0.27641848 0.09044107 0.7230671
-0.2747806 0.0907415 0.72546899
-0.27313179 0.091043934 0.72788692
-0.27147192 0.091348372 0.73032087
-0.26980093 0.091654867 0.73277128
-0.26811871 0.091963418 0.73523813
-0.2664251 0.092274062 0.73772168
-0.26471999 0.0925868 0.74022198
-0.26300332 0.092901677 0.74273938
-0.26127493 0.093218699 0.74527395
-0.25953472 0.093537889 0.74782586
-0.25778255 0.093859285 0.75039536
-0.25601825 0.094182879 0.7529825
-0.25424176 0.094508722 0.75558758
-0.25245297 0.094836824 0.75821072
-0.25065294 0.095167696 0.76085597
-0.24883789 0.095499948 0.76351231
-0.24701242 0.095835425 0.7661944
-0.24517061 0.096171893 0.76888448
-0.24331804 0.096511625 0.77160054
-0.24145232 0.096853755 0.77433586
-0.23957336 0.09719833 0.77709073
-0.23768145 0.097545564 0.77986681
-0.2357786 0.097896375 0.78267151
-0.23385729 0.098247737 0.78548062
-0.23192495 0.098602824 0.78831947
-0.22997615 0.098959431 0.79117054
-0.22801453 0.099319212 0.79404694
-0.2260374 0.099681087 0.79694009
-0.22404714 0.1000462 0.79985917
-0.22204223 0.10041401 0.8027997
-0.22002427 0.10078531 0.80576825
-0.21798801 0.10115784 0.80874658
-0.21594052 0.10153495 0.8117615
-0.2138748 0.1019135 0.81478798
-0.2117939 0.10229502 0.81783819
-0.20969738 0.10267941 0.82091135
-0.20758504 0.1030667 0.82400769
-0.34788641 0.099591009 0.77440572
-0.32997826 0.095211118 0.74034828
-0.32554156 0.094679423 0.73621386
-0.32215029 0.094445668 0.73439622
-0.31877568 0.094213061 0.73258752
-0.31541768 0.093981601 0.73078769
-0.31207612 0.093751259 0.72899663
-0.3087509 0.093522057 0.7272144
-0.30544192 0.093293972 0.7254408
-0.302149 0.09306699 0.72367585
-0.29887208 0.092841119 0.72191948
-0.29561105 0.092616342 0.72017163
-0.29236576 0.092392638 0.71843219
-0.28913608 0.092170015 0.71670109
-0.28592199 0.091948479 0.71497846
-0.28272325 0.091727987 0.71326393
-0.28005788 0.091678135 0.71287632
-0.27845505 0.091978364 0.71521086
-0.2768417 0.092280567 0.71756071
-0.27521771 0.092584759 0.71992606
-0.27358297 0.092890956 0.72230703
-0.27193737 0.093199193 0.72470385
-0.27028084 0.09350948 0.72711658
-0.26861322 0.093821846 0.72954547
-0.26693445 0.094136305 0.73199069
-0.26524436 0.094452873 0.73445225
-0.26354289 0.094771579 0.73693049
-0.26182988 0.095092446 0.73942548
-0.26010525 0.095415495 0.74193746
-0.25836885 0.095740743 0.74446654
-0.25662056 0.096068211 0.74701291
-0.25486028 0.096397929 0.74957675
-0.25308785 0.096729912 0.75215822
-0.25130323 0.097064212 0.75475764
-0.24950618 0.097400807 0.757375
-0.24769664 0.097739756 0.7600106
-0.24587448 0.098081075 0.76266468
-0.24404043 0.098425142 0.76534009
-0.24219289 0.098771401 0.76803255
-0.24033217 0.099120043 0.77074355
-0.23845546 0.09946999 0.77346468
-0.23656793 0.099823467 0.77621323
-0.23466697 0.10017946 0.77898145
-0.23275368 0.10053857 0.78177381
-0.23082748 0.10090064 0.78458917
-0.22888505 0.1012643 0.78741693
-0.22692926 0.1016309 0.79026759
-0.22495551 0.10199846 0.79312569
-0.22297095 0.10237031 0.79601711
-0.22097261 0.10274523 0.79893243
-0.21895863 0.10312245 0.8018657
-0.2169313 0.10350317 0.80482608
-0.21488778 0.10388614 0.80780405
-0.21282881 0.10427184 0.81080312
-0.21075425 0.10466027 0.81382358
-0.20866415 0.10505161 0.81686652
-0.20655838 0.10544588 0.8199324
-0.20443673 0.10584313 0.82302129
-0.33881009 0.099650025 0.75420153
-0.32892671 0.097507924 0.73798901
-0.32551888 0.0972666 0.73616254
-0.32212788 0.097026467 0.73434514
-0.31875357 0.09678752 0.73253667
-0.31539586 0.096549757 0.73073715
-0.31205457 0.096313141 0.72894633
-0.30872965 0.096077695 0.72716433
-0.30542094 0.095843397 0.72539103
-0.30212829 0.095610224 0.72362626
-0.29885167 0.09537819 0.72187012
-0.29559088 0.095147274 0.72012246
-0.29234585 0.094917491 0.71838331
-0.28911647 0.094688803 0.71665251
-0.28590262 0.094461218 0.71493
-0.28270414 0.09423472 0.71321577
-0.27952099 0.094009303 0.7115097
-0.27725855 0.094092272 0.71213764
-0.27564818 0.094400063 0.71446717
-0.27402729 0.094709896 0.71681213
-0.27239576 0.095021777 0.7191726
-0.27075338 0.0953357 0.72154856
-0.26910016 0.095651716 0.72394031
-0.26743594 0.095969833 0.72634798
-0.2657606 0.096290074 0.72877175
-0.26407406 0.096612461 0.73121172
-0.26237619 0.096937016 0.73366809
-0.26066685 0.097263753 0.73614103
-0.25894594 0.097592689 0.73863059
-0.25721338 0.097923882 0.74113721
-0.25546899 0.098257311 0.74366075
-0.25371271 0.098593026 0.74620163
-0.25194442 0.098931052 0.74875998
-0.25016388 0.099271387 0.7513358
-0.24837111 0.099614084 0.7539295
-0.24656589 0.09995915 0.75654113
-0.24474815 0.10030662 0.75917095
-0.2429177 0.1006565 0.76181906
-0.24107444 0.10100885 0.76448578
-0.23921888 0.10136393 0.76717323
-0.23734932 0.10172113 0.76987672
-0.23546875 0.10208183 0.77260661
-0.23357213 0.10244392 0.77534711
-0.23165986 0.10280763 0.77809989
-0.22973666 0.10317514 0.7808814
-0.22780137 0.10354608 0.78368878
-0.22585164 0.10391947 0.78651482
-0.22491883 0.10477585 0.79299635
-0.22311892 0.10524477 0.79654539
-0.2209179 0.10553402 0.79873461
-0.21849509 0.10572343 0.8001681
-0.21591681 0.10584158 0.80106229
-0.21384525 0.10621452 0.80388498
-0.21179299 0.10660721 0.80685699
-0.20972474 0.10700241 0.80984813
-0.20764107 0.10740054 0.81286138
-0.20554182 0.10780165 0.81589717
-0.20342685 0.10820577 0.81895572
-0.34798542 0.10426023 0.7685979
-0.3323282 0.10035009 0.73977268
-0.3289037 0.10010113 0.73793739
-0.3254962 0.099853411 0.73611122
-0.3221055 0.099606924 0.73429412
-0.31873149 0.099361636 0.73248589
-0.31537405 0.099117562 0.7306866
-0.31203309 0.098874681 0.72889608
-0.3087084 0.098632976 0.72711426
-0.30539995 0.098392449 0.72534114
-0.3021076 0.098153107 0.72357672
-0.29883125 0.097914919 0.72182083
-0.29557073 0.097677879 0.7200734
-0.292326 0.097442001 0.7183345
-0.28909686 0.097207241 0.71660388
-0.28588325 0.096973613 0.7148816
-0.28268507 0.09674111 0.71316761
-0.27984604 0.09662845 0.71233708
-0.27748835 0.096681468 0.7127279
-0.27512813 0.096734546 0.71311921
-0.2728475 0.096816853 0.71372598
-0.27121919 0.097134322 0.7160663
-0.26958019 0.09745387 0.718422
-0.26793036 0.097775534 0.72079331
-0.26626962 0.098099329 0.72318029
-0.26459745 0.098425142 0.72558212
-0.26291397 0.09875305 0.72799945
-0.26121977 0.099083364 0.73043448
-0.25951523 0.099416286 0.73288876
-0.25779727 0.099750705 0.73535407
-0.25606823 0.10008758 0.73783749
-0.25432777 0.10042687 0.74033868
-0.25257546 0.10076845 0.7428568
-0.25081122 0.10111237 0.7453922
-0.24903487 0.10145865 0.74794489
-0.24724631 0.1018073 0.75051516
-0.24544543 0.10215837 0.7531032
-0.24363206 0.10251185 0.75570905
-0.24180613 0.1028678 0.75833309
-0.23996747 0.10322623 0.76097536
-0.23811595 0.10358717 0.76363617
-0.23625144 0.10395063 0.76631564
-0.23437378 0.10431665 0.76901388
-0.23248456 0.10468603 0.77173692
-0.2305782 0.10505635 0.77446681
-0.22866324 0.10543155 0.77723283
-0.22673084 0.10580772 0.78000593
-0.22753996 0.1074882 0.79239428
-0.22599499 0.10808456 0.7967906
-0.22389275 0.10842605 0.799308
-0.22153448 0.10865067 0.80096388
-0.21899408 0.10879061 0.80199552
-0.21632184 0.10886785 0.80256498
-0.21353568 0.10888906 0.80272126
-0.21076751 0.10892012 0.80295026
-0.2087052 0.10932177 0.80591124
-0.20662794 0.10972656 0.80889529
-0.20453522 0.11013435 0.81190145
-0.2024269 0.11054518 0.81493008
-0.20030276 0.11095908 0.81798136
-0.35751793 0.10904987 0.78355473
-0.33897495 0.10419852 0.74869639
-0.33230495 0.10294937 0.73972088
-0.32888073 0.10269398 0.73788583
-0.32547352 0.10243987 0.73605996
-0.32208312 0.10218702 0.73424309
-0.31870937 0.10193539 0.73243511
-0.31535223 0.101685 0.730636
-0.31201154 0.10143585 0.72884578
-0.30868715 0.1011879 0.72706419
-0.30537897 0.10094117 0.72529137
-0.30208689 0.10069562 0.72352707
-0.29881081 0.1004513 0.72177148
-0.29555058 0.10020813 0.72002429
-0.2923061 0.099966154 0.71828556
-0.28907725 0.099725343 0.7165553
-0.28586394 0.09948568 0.71483326
-0.28271285 0.099263623 0.7132377
-0.28035375 0.099318147 0.71362948
-0.27799207 0.09937273 0.71402168
-0.27562785 0.099427402 0.71441448
-0.27326101 0.099482112 0.71480763
-0.27089155 0.099536896 0.71520126
-0.26851949 0.099591739 0.7155953
-0.26677021 0.099880792 0.71767223
-0.26511285 0.10021012 0.72003853
-0.26344451 0.10054162 0.72242051
-0.26176512 0.10087534 0.72481835
-0.26007453 0.10121127 0.7272321
-0.25837263 0.10154945 0.729662
-0.25665933 0.10188989 0.73210818
-0.25493452 0.10223263 0.73457086
-0.25319809 0.10257769 0.73705018
-0.25144893 0.10292469 0.7395435
-0.24968824 0.1032742 0.74205482
-0.24791567 0.10362612 0.74458355
-0.24613123 0.10398057 0.74713033
-0.24433571 0.10433795 0.74969822
-0.24252784 0.10469782 0.75228393
-0.24070682 0.10505988 0.75488549
-0.23887144 0.10542371 0.75749969
-0.23702377 0.10579027 0.76013356
-0.23516402 0.10615975 0.76278841
-0.23329124 0.10653184 0.76546192
-0.23140527 0.10690653 0.7681542
-0.22950602 0.10728388 0.77086556
-0.22759327 0.10766388 0.77359599
-0.22566836 0.10804727 0.77635074
-0.22882631 0.11090355 0.79687393
-0.22684789 0.11131045 0.79979765
-0.22455856 0.11157312 0.80168498
-0.2220692 0.11174183 0.80289721
-0.21943581 0.11184148 0.80361319
-0.21668141 0.11188125 0.80389899
-0.21381761 0.11186484 0.80378109
-0.21085088 0.11179342 0.8032679
-0.20778182 0.11166506 0.80234557
-0.20562348 0.11202934 0.80496305
-0.20353857 0.11244439 0.80794525
-0.20143671 0.11286171 0.81094384
-0.19931933 0.11328222 0.81396532
-0.19718611 0.11370586 0.81700933
-0.34808296 0.10885992 0.76287651
-0.33572263 0.10581141 0.74151295
-0.33228165 0.10554828 0.73966902
-0.32885778 0.10528649 0.73783433
-0.32545084 0.10502596 0.73600864
-0.32206073 0.10476674 0.73419207
-0.31868726 0.10450878 0.73238426
-0.31533042 0.10425209 0.73058546
-0.31198996 0.10399666 0.72879541
-0.3086659 0.10374248 0.72701418
-0.30535799 0.10348953 0.72524154
-0.30206621 0.10323782 0.72347754
-0.29879043 0.10298733 0.72172219
-0.29553044 0.10273805 0.71997523
-0.29228622 0.10248997 0.71823674
-0.28905761 0.10224309 0.7165066
-0.28584456 0.1019974 0.71478486
-0.28322643 0.10196152 0.71453339
-0.28086334 0.10201763 0.7149266
-0.27849764 0.1020738 0.71532023
-0.27612934 0.10213003 0.71571434
-0.2737585 0.10218634 0.71610898
-0.27138501 0.10224272 0.71650404
-0.26900887 0.10229915 0.71689951
-0.26663017 0.10235566 0.71729547
-0.26424879 0.10241221 0.71769178
-0.26230121 0.10263961 0.71928537
-0.26062533 0.1029788 0.72166234
-0.25893834 0.10332023 0.72405505
-0.25724015 0.10366394 0.72646374
-0.2555306 0.10400994 0.72888851
-0.25380963 0.10435827 0.73132956
-0.25207707 0.10470893 0.73378694
-0.25033283 0.10506196 0.73626095
-0.2485768 0.10541739 0.73875171
-0.24680883 0.10577521 0.74125928
-0.24502882 0.10613548 0.74378401
-0.24323666 0.10649821 0.74632597
-0.2414322 0.10686343 0.74888539
-0.23961486 0.10723096 0.75146097
-0.23778446 0.10760079 0.7540527
-0.23594178 0.10797336 0.75666362
-0.23408648 0.1083486 0.75929326
-0.23221813 0.10872641 0.7619409
-0.23033674 0.10910688 0.76460719
-0.22844355 0.10949069 0.76729691
-0.22653697 0.10987721 0.77000558
-0.22461693 0.11026649 0.77273363
-0.22268328 0.11065856 0.77548116
-0.22756985 0.11449166 0.80234307
-0.22513868 0.11469329 0.80375606
-0.22254561 0.11481652 0.80461967
-0.21982177 0.1148746 0.80502665
-0.21698599 0.11487493 0.80502898
-0.21404585 0.1148193 0.8046391
-0.21100344 0.11470657 0.8038491
-0.20785317 0.11453134 0.80262113
-0.20463026 0.1143107 0.80107486
-0.20255028 0.11473127 0.80402225
-0.20045522 0.11515512 0.80699253
-0.19834481 0.11558224 0.80998564
-0.19621913 0.11601277 0.81300282
-0.19407685 0.11644612 0.81603962
-0.33915693 0.10868736 0.74331379
-0.33569905 0.10841643 0.74146092
-0.33225837 0.10814685 0.73961723
-0.3288348 0.10787861 0.73778278
-0.32542816 0.1076117 0.73595738
-0.32203835 0.10734612 0.73414105
-0.31866518 0.10708182 0.73233354
-0.3153086 0.10681883 0.73053497
-0.31196848 0.10655713 0.72874516
-0.30864465 0.1062967 0.72696412
-0.30533704 0.10603756 0.72519177
-0.30204552 0.10577966 0.72342801
-0.29876998 0.10552301 0.72167283
-0.29551029 0.10526762 0.71992618
-0.29226634 0.10501345 0.71818793
-0.28903803 0.10476051 0.71645802
-0.28610638 0.10461158 0.71543956
-0.28374186 0.10466922 0.71583372
-0.28137475 0.10472693 0.71622837
-0.27900505 0.1047847 0.71662349
-0.2766327 0.10484254 0.71701902
-0.27425778 0.10490044 0.71741503
-0.27188024 0.10495842 0.71781158
-0.26950008 0.10501646 0.71820849
-0.26711723 0.10507455 0.71860582
-0.26473182 0.10513273 0.71900368
-0.26234373 0.10519097 0.71940196
-0.25995299 0.10524926 0.71980059
-0.25781208 0.10541086 0.72090578
-0.25611755 0.10575999 0.72329348
-0.25441179 0.10611144 0.7256971
-0.25269461 0.10646524 0.72811669
-0.25096595 0.10682141 0.73055255
-0.24922571 0.10717997 0.73300475
-0.24747372 0.10754094 0.73547339
-0.2457099 0.10790434 0.73795879
-0.24393412 0.10827023 0.74046105
-0.24214625 0.10863859 0.7429803
-0.24034621 0.10900948 0.74551684
-0.23853381 0.10938291 0.74807066
-0.23670894 0.1097589 0.75064206
-0.23487151 0.11013748 0.75323123
-0.23302132 0.11051869 0.75583827
-0.2311583 0.11090254 0.75846344
-0.22928229 0.11128906 0.76110691
-0.22739317 0.1116783 0.76376891
-0.22548972 0.11206974 0.76644593
-0.2235731 0.11246405 0.76914263
-0.22164319 0.11286126 0.77185917
-0.22819868 0.1176428 0.80456012
-0.22564825 0.11779123 0.80557525
-0.22296143 0.11787133 0.80612308
-0.22015667 0.11789035 0.80625314
-0.217244 0.11785132 0.80598623
-0.21422791 0.11775441 0.80532348
-0.21110094 0.11759313 0.8042205
-0.20785227 0.11735877 0.80261767
-0.20445111 0.11703064 0.80037355
-0.20157178 0.11699621 0.80013812
-0.19948348 0.11742645 0.8030805
-0.19737977 0.11785986 0.80604464
-0.19526064 0.1182966 0.80903149
-0.19312598 0.11873671 0.81204146
-0.34817907 0.11339165 0.75723976
-0.33913305 0.11129849 0.74326146
-0.33567548 0.11102107 0.74140882
-0.33223513 0.11074504 0.73956549
-0.32881185 0.11047038 0.73773128
-0.32540548 0.11019708 0.73590612
-0.32201594 0.10992512 0.73408997
-0.31864309 0.1096545 0.73228276
-0.31528682 0.10938522 0.73048449
-0.31194696 0.10911725 0.72869492
-0.30862343 0.10885058 0.72691411
-0.30531609 0.10858522 0.725142
-0.30202484 0.10832115 0.72337848
-0.29874957 0.10805836 0.72162354
-0.29549015 0.10779683 0.71987706
-0.29224649 0.10753658 0.71813911
-0.28901842 0.10727758 0.71640944
-0.28662771 0.10732757 0.71674323
-0.2842592 0.10738681 0.71713889
-0.28188804 0.10744612 0.71753496
-0.27951428 0.1075055 0.71793151
-0.27713788 0.10756493 0.71832842
-0.27475893 0.10762446 0.71872598
-0.27237728 0.10768405 0.71912384
-0.26999307 0.10774371 0.7195223
-0.26760617 0.10780343 0.71992111
-0.26521659 0.10786321 0.72032034
-0.26282442 0.10792307 0.72072005
-0.26042956 0.10798299 0.72112024
-0.25803205 0.10804298 0.72152084
-0.25563186 0.10810303 0.72192186
-0.25330266 0.10819461 0.72253346
-0.25158936 0.10855377 0.72493201
-0.24986462 0.10891534 0.7273466
-0.24812831 0.1092793 0.72977716
-0.2463804 0.10964573 0.73222417
-0.24462074 0.11001462 0.73468763
-0.24284917 0.11038598 0.73716766
-0.24106562 0.11075988 0.73966455
-0.23926996 0.11113632 0.74217844
-0.23746201 0.11151531 0.74470937
-0.23564172 0.1118969 0.74725771
-0.23380889 0.11228111 0.74982345
-0.23196349 0.11266798 0.75240701
-0.2301053 0.11305752 0.7550084
-0.22823419 0.11344974 0.75762773
-0.2263501 0.11384472 0.76026541
-0.22445281 0.11424244 0.76292145
-0.22254224 0.11464297 0.76559621
-0.22061822 0.11504631 0.76828974
-0.21868059 0.11545249 0.77100223
-0.22610129 0.12087176 0.80719262
-0.22332768 0.12090989 0.80744725
-0.22044139 0.12088721 0.8072958
-0.21744898 0.12080499 0.80674672
-0.2143499 0.12066054 0.80578208
-0.21113402 0.12044558 0.80434656
-0.2077726 0.12014062 0.80230999
-0.20420466 0.11970618 0.79940879
-0.20060332 0.11923973 0.7962938
-0.19852272 0.11967682 0.79921269
-0.19642533 0.1201162 0.80214697
-0.19431287 0.12055907 0.80510449
-0.19218478 0.12100523 0.80808395
-0.34258375 0.11419459 0.74507076
-0.33910918 0.11390926 0.74320912
-0.3356519 0.11362536 0.74135679
-0.33221185 0.11334287 0.7395137
-0.32878891 0.11306179 0.73767978
-0.32538283 0.1127821 0.73585486
-0.32199356 0.11250377 0.73403895
-0.31862098 0.11222683 0.73223197
-0.31526497 0.11195124 0.73043388
-0.31192544 0.11167701 0.72864467
-0.30860218 0.11140411 0.7268641
-0.30529511 0.11113253 0.72509217
-0.30200416 0.11086228 0.72332895
-0.29872915 0.11059335 0.72157425
-0.29547 0.11032571 0.71982801
-0.29222658 0.11005937 0.71809024
-0.28952095 0.10999268 0.71765512
-0.28715098 0.11005346 0.71805167
-0.28477842 0.11011431 0.71844876
-0.28240323 0.11017525 0.71884632
-0.28002542 0.11023625 0.7192443
-0.27764496 0.11029731 0.7196427
-0.27526188 0.11035845 0.72004163
-0.2728762 0.11041967 0.72044104
-0.27048787 0.11048096 0.72084093
-0.26809683 0.1105423 0.72124118
-0.2657032 0.11060372 0.7216419
-0.26330689 0.11066521 0.7220431
-0.26090789 0.11072677 0.72244471
-0.25850624 0.11078839 0.72284681
-0.25610191 0.11085007 0.72324926
-0.25369489 0.11091184 0.72365224
-0.25128523 0.11097368 0.72405571
-0.24887283 0.11103557 0.72445953
-0.24704057 0.11136026 0.726578
-0.24529672 0.11173201 0.72900355
-0.24354114 0.11210624 0.73144519
-0.24177383 0.11248301 0.73390347
-0.23999457 0.11286231 0.73637825
-0.23820326 0.11324418 0.73886973
-0.23639981 0.11362863 0.74137819
-0.23458408 0.11401572 0.74390376
-0.2327559 0.11440544 0.74644649
-0.2309152 0.11479784 0.74900675
-0.22906183 0.11519294 0.75158459
-0.22719565 0.11559077 0.75418025
-0.22531654 0.11599135 0.75679392
-0.22342435 0.11639472 0.7594257
-0.22151898 0.11680092 0.76207596
-0.21960025 0.11720995 0.7647447
-0.21766803 0.11762185 0.76743221
-0.21572097 0.11803599 0.77013433
-0.21376309 0.1184547 0.77286619
-0.22067247 0.12386132 0.80814207
-0.21760115 0.12373399 0.8073113
-0.21441528 0.12353728 0.80602783
-0.21109036 0.1232541 0.8041802
-0.20758352 0.12285555 0.80157983
-0.203747 0.1222482 0.79761714
-0.19964468 0.12146215 0.79248852
-0.19757001 0.1219049 0.79537725
-0.19547965 0.12235057 0.79828507
-0.19337393 0.1227995 0.80121416
-0.19125269 0.12325174 0.80416477
-0.34827378 0.11785691 0.75168574
-0.34255961 0.11681151 0.74501824
-0.33908531 0.11651967 0.74315685
-0.33562836 0.11622927 0.74130476
-0.33218864 0.11594034 0.73946196
-0.32876593 0.11565283 0.73762822
-0.32536012 0.11536674 0.73580354
-0.32197121 0.11508208 0.73398799
-0.31859893 0.1147988 0.73218125
-0.31524318 0.11451691 0.7303834
-0.31190392 0.11423641 0.72859436
-0.30858096 0.11395729 0.72681409
-0.30527416 0.1136795 0.7250424
-0.30198345 0.11340307 0.72327936
-0.29870877 0.113128 0.72152495
-0.29544988 0.11285424 0.71977895
-0.29242152 0.11266457 0.71856922
-0.29005012 0.1127269 0.71896678
-0.28767616 0.11278933 0.71936494
-0.28529954 0.11285181 0.71976346
-0.28292027 0.11291437 0.72016245
-0.28053841 0.11297701 0.72056192
-0.27815384 0.11303969 0.72096175
-0.2757667 0.11310247 0.72136217
-0.27337691 0.11316533 0.72176301
-0.27098444 0.11322825 0.72216433
-0.26858935 0.11329124 0.72256613
-0.26619154 0.1133543 0.72296828
-0.26379108 0.11341742 0.72337091
-0.26138797 0.11348063 0.72377408
-0.25898218 0.11354391 0.7241776
-0.25657368 0.11360725 0.7245816
-0.25416249 0.11367067 0.72498608
-0.25174862 0.11373415 0.72539097
-0.24933206 0.11379771 0.72579634
-0.24691278 0.11386133 0.72620213
-0.2444908 0.11392503 0.7266084
-0.24247111 0.11417951 0.72823149
-0.24070798 0.11456155 0.73066807
-0.23893298 0.11494614 0.73312098
-0.23714606 0.11533333 0.73559046
-0.23534708 0.11572315 0.73807669
-0.23353584 0.11611558 0.74057966
-0.23171234 0.11651072 0.74309981
-0.22987634 0.11690854 0.74563706
-0.22802776 0.11730909 0.74819171
-0.22616652 0.11771239 0.75076401
-0.22429238 0.11811847 0.75335395
-0.22240528 0.11852737 0.75596189
-0.22050509 0.11893911 0.75858796
-0.21859163 0.11935371 0.76123226
-0.21666481 0.11977123 0.76389515
-0.21472356 0.12019117 0.76657355
-0.21277077 0.12061528 0.76927847
-0.21080296 0.1210417 0.77199817
-0.20882003 0.12147047 0.77473289
-0.21440573 0.12637159 0.80599195
-0.21095063 0.12600406 0.80364788
-0.20722724 0.12546411 0.8002041
-0.20074822 0.12321787 0.7858777
-0.19869544 0.1236636 0.78872049
-0.19662683 0.12411197 0.7915802
-0.19454305 0.12456353 0.79446024
-0.19244403 0.12501839 0.79736125
-0.19032963 0.12547657 0.80028355
-0.34602687 0.11972792 0.74683613
-0.34253541 0.11942805 0.74496561
-0.33906147 0.1191297 0.74310458
-0.33560482 0.11883283 0.74125278
-0.33216539 0.11853745 0.73941022
-0.32874292 0.11824351 0.73757666
-0.3253375 0.11795104 0.73575234
-0.32194883 0.11766002 0.73393697
-0.31857684 0.11737042 0.73213053
-0.3152214 0.11708224 0.73033291
-0.31188241 0.11679547 0.72854412
-0.30855972 0.1165101 0.72676408
-0.30525321 0.11622611 0.72499263
-0.30196279 0.11594351 0.72322983
-0.29868835 0.1156623 0.72147566
-0.29542977 0.11538244 0.71972996
-0.29295671 0.11540718 0.71988434
-0.29058129 0.11547117 0.72028345
-0.28820324 0.11553522 0.72068298
-0.28582257 0.11559935 0.72108299
-0.28343925 0.11566355 0.72148347
-0.28105325 0.11572781 0.72188431
-0.27866462 0.11579215 0.72228563
-0.27627337 0.11585657 0.72268748
-0.27387944 0.11592107 0.72308981
-0.27148288 0.11598565 0.72349262
-0.26908362 0.11605029 0.72389585
-0.2666817 0.116115 0.72429955
-0.2642771 0.11617979 0.72470367
-0.26186982 0.11624465 0.72510827
-0.25945985 0.11630959 0.72551334
-0.25704718 0.1163746 0.72591883
-0.25463182 0.11643968 0.7263248
-0.25221375 0.11650483 0.72673118
-0.24979298 0.11657006 0.72713804
-0.2473695 0.11663535 0.72754538
-0.24494328 0.11670072 0.72795314
-0.24251433 0.11676616 0.72836131
-0.24008268 0.11683168 0.72877002
-0.23788078 0.11701163 0.72989249
-0.23609821 0.11740404 0.73234022
-0.23430365 0.11779907 0.73480439
-0.23249698 0.11819679 0.73728526
-0.23067807 0.1185972 0.73978293
-0.22884677 0.11900032 0.74229753
-0.22700302 0.11940621 0.74482936
-0.22514664 0.11981488 0.74737853
-0.22327749 0.12022635 0.74994516
-0.22139548 0.12064065 0.7525295
-0.21950042 0.12105781 0.75513166
-0.21759224 0.12147787 0.75775194
-0.21567078 0.12190088 0.76039052
-0.21373554 0.12232663 0.76304626
-0.21178764 0.12275589 0.76572394
-0.20982486 0.1231875 0.76841617
-0.2078484 0.12362225 0.77112806
-0.20585847 0.1240604 0.77386117
-0.20385443 0.1245017 0.77661389
-0.2018363 0.12494629 0.77938712
-0.19980212 0.12539305 0.78217393
-0.19775394 0.12584342 0.78498322
-0.19569223 0.12629782 0.78781766
-0.19361535 0.12675537 0.79067177
-0.19152303 0.12721603 0.79354525
-0.18941543 0.12768003 0.79643959
-0.34951106 0.1226586 0.74866289
-0.3460024 0.12235066 0.74678332
-0.34251127 0.12204424 0.7449131
-0.33903763 0.12173937 0.7430523
-0.33558127 0.12143602 0.74120075
-0.33214214 0.12113419 0.73935848
-0.32872 0.12083384 0.73752522
-0.32531482 0.12053498 0.73570108
-0.32192647 0.1202376 0.733886
-0.31855479 0.11994167 0.7320798
-0.31519961 0.1196472 0.73028243
-0.31186089 0.11935417 0.72849387
-0.30853847 0.11906257 0.72671402
-0.30523229 0.11877239 0.72494292
-0.30194211 0.11848362 0.72318035
-0.29866794 0.11819625 0.72142637
-0.29587069 0.11809431 0.72080415
-0.29349387 0.11815988 0.72120434
-0.29111439 0.1182255 0.72160488
-0.28873229 0.1182912 0.7220059
-0.28634751 0.11835697 0.72240734
-0.2839601 0.11842283 0.72280931
-0.28157002 0.11848874 0.72321159
-0.27917728 0.11855473 0.72361439
-0.27678189 0.11862081 0.72401774
-0.27438387 0.11868697 0.72442156
-0.27198318 0.11875321 0.72482586
-0.26957977 0.11881952 0.72523057
-0.26717368 0.1188859 0.72563571
-0.26476493 0.11895236 0.72604138
-0.26235348 0.1190189 0.72644752
-0.25993931 0.1190855 0.72685403
-0.25752246 0.11915218 0.72726101
-0.25510287 0.11921892 0.7276684
-0.2526806 0.11928576 0.72807634
-0.25025561 0.11935268 0.72848475
-0.24782787 0.11941964 0.72889352
-0.24539742 0.1194867 0.72930282
-0.24296425 0.11955384 0.72971261
-0.24052833 0.11962104 0.73012275
-0.23808967 0.11968832 0.73053342
-0.23564827 0.11975569 0.73094457
-0.23326947 0.11985669 0.73156106
-0.23146732 0.12025956 0.73402005
-0.229653 0.12066514 0.73649555
-0.22782642 0.12107347 0.73898786
-0.22598743 0.12148458 0.7414971
-0.22413592 0.12189849 0.74402344
-0.22227176 0.12231523 0.74656707
-0.22039479 0.12273483 0.74912816
-0.21850491 0.12315731 0.75170684
-0.21660195 0.12358271 0.75430334
-0.21468581 0.12401106 0.75691783
-0.21275635 0.12444239 0.75955051
-0.21081354 0.1248768 0.76220202
-0.20885625 0.12531376 0.76486897
-0.20688598 0.12575422 0.76755744
-0.2049019 0.12619786 0.77026528
-0.20290379 0.12664464 0.77299225
-0.20089148 0.12709461 0.77573866
-0.19886406 0.12754729 0.77850169
-0.19682342 0.12800404 0.78128952
-0.19476649 0.12846301 0.78409088
-0.19269648 0.12892643 0.78691941
-0.19061078 0.12939271 0.78976548
-0.18850996 0.12986241 0.79263234
-0.34948629 0.12528753 0.74860984
-0.3459779 0.124973 0.74673045
-0.34248713 0.12466006 0.74486059
-0.33901376 0.12434868 0.74300003
-0.33555773 0.12403885 0.74114877
-0.33211884 0.12373055 0.73930663
-0.32869706 0.12342379 0.73747373
-0.3252922 0.12311856 0.73564988
-0.32190409 0.12281481 0.73383498
-0.31853268 0.12251257 0.73202902
-0.31517783 0.12221181 0.73023194
-0.31183937 0.12191252 0.72844362
-0.30851725 0.12161468 0.72666401
-0.30521131 0.1213183 0.72489309
-0.30192146 0.12102337 0.72313088
-0.29879215 0.12078831 0.72172636
-0.2964139 0.12085544 0.7221275
-0.29403296 0.12092265 0.72252905
-0.29164946 0.12098995 0.72293115
-0.28926325 0.12105731 0.72333366
-0.28687438 0.12112474 0.72373658
-0.28448287 0.12119225 0.72413999
-0.2820887 0.12125984 0.72454381
-0.27969182 0.1213275 0.72494811
-0.27729231 0.12139525 0.72535288
-0.27489012 0.12146308 0.72575819
-0.27248532 0.121531 0.72616404
-0.27007774 0.12159897 0.72657019
-0.26766747 0.12166704 0.72697687
-0.26525453 0.12173517 0.72738397
-0.2628389 0.1218034 0.72779161
-0.26042056 0.12187169 0.72819966
-0.25799948 0.12194005 0.72860813
-0.25557569 0.1220085 0.72901714
-0.25314918 0.12207702 0.72942656
-0.25071993 0.12214561 0.7298364
-0.24828798 0.12221429 0.73024678
-0.24585328 0.12228304 0.73065758
-0.24341582 0.12235186 0.73106879
-0.24097563 0.12242077 0.73148054
-0.23853268 0.12248975 0.7318927
-0.23608699 0.12255882 0.73230541
-0.23363854 0.12262797 0.73271853
-0.2311873 0.12269717 0.73313206
-0.22873335 0.12276648 0.7335462
-0.22681515 0.12312822 0.73570764
-0.22498091 0.12354442 0.73819453
-0.22313423 0.12396347 0.74069834
-0.22127502 0.12438537 0.74321926
-0.21940309 0.12481014 0.74575734
-0.21751836 0.12523784 0.74831289
-0.21562064 0.12566847 0.75088596
-0.21370982 0.12610206 0.75347674
-0.21178579 0.12653868 0.75608557
-0.20984836 0.12697831 0.75871241
-0.20789729 0.12742092 0.76135707
-0.20593247 0.12786657 0.76401985
-0.20395422 0.12831557 0.76670271
-0.20196202 0.12876773 0.76940447
-0.19995573 0.12922309 0.7721253
-0.19793522 0.12968169 0.77486551
-0.19590031 0.13014355 0.7776252
-0.19385146 0.13060914 0.78040713
-0.19178586 0.13107666 0.78320062
-0.1897072 0.13154879 0.78602165
-0.18761311 0.13202403 0.78886133
-0.3494615 0.1279161 0.74855673
-0.34595346 0.12759499 0.7466777
-0.34246299 0.12727551 0.74480808
-0.33898994 0.12695763 0.74294782
-0.33553421 0.12664132 0.74109679
-0.33209562 0.12632658 0.73925495
-0.32867411 0.12601338 0.73742223
-0.32526952 0.12570177 0.73559862
-0.32188174 0.12539168 0.73378402
-0.31851059 0.12508312 0.7319783
-0.31515601 0.12477605 0.7301814
-0.31181785 0.12447051 0.72839338
-0.30849603 0.12416645 0.72661406
-0.30519035 0.12386387 0.72484338
-0.30190077 0.12356276 0.72308129
-0.29934141 0.12355794 0.7230531
-0.29695907 0.12362675 0.72345573
-0.29457411 0.12369562 0.72385877
-0.29218647 0.12376457 0.7242623
-0.28979617 0.12383361 0.7246663
-0.28740323 0.12390272 0.72507071
-0.2850076 0.12397191 0.72547561
-0.28260925 0.12404117 0.72588092
-0.28020826 0.12411051 0.72628671
-0.27780461 0.12417994 0.72669297
-0.27539828 0.12424945 0.72709978
-0.27298924 0.12431905 0.72750705
-0.27057755 0.12438873 0.72791481
-0.26816308 0.12445847 0.72832292
-0.26574597 0.12452831 0.72873163
-0.26332614 0.12459822 0.72914076
-0.26090354 0.1246682 0.72955024
-0.25847828 0.12473828 0.72996032
-0.25605023 0.12480841 0.73037076
-0.25361949 0.12487863 0.73078167
-0.25118601 0.12494894 0.73119313
-0.24874976 0.12501931 0.73160493
-0.24631079 0.12508978 0.73201728
-0.2438691 0.12516032 0.73243016
-0.24142459 0.12523094 0.73284334
-0.23897736 0.12530164 0.73325711
-0.23652737 0.12537242 0.73367137
-0.23407458 0.12544328 0.73408598
-0.23161903 0.12551422 0.73450112
-0.22916068 0.12558523 0.73491669
-0.22669958 0.12565634 0.73533279
-0.22423568 0.12572752 0.73574936
-0.2221415 0.12601009 0.73740292
-0.2202872 0.12643704 0.73990136
-0.2184203 0.12686688 0.7424168
-0.21654066 0.12729967 0.7449494
-0.21464816 0.12773541 0.74749935
-0.21274267 0.12817416 0.75006688
-0.21082403 0.12861592 0.75265205
-0.20889197 0.12906064 0.75525457
-0.20694643 0.12950841 0.75787485
-0.20498767 0.12995951 0.76051462
-0.20301524 0.13041377 0.76317292
-0.20102896 0.13087121 0.76584983
-0.1990287 0.13133186 0.76854557
-0.19701429 0.13179576 0.77126032
-0.19498561 0.13226296 0.77399433
-0.1929425 0.13273349 0.77674782
-0.1908848 0.13320738 0.77952099
-0.18881229 0.13368461 0.7823137
-0.18672474 0.13416518 0.78512597
-0.345929 0.13021663 0.74662495
-0.34243882 0.12989059 0.74475557
-0.3389661 0.12956619 0.74289554
-0.33551064 0.1292434 0.74104476
-0.33207238 0.12892222 0.73920321
-0.32865116 0.12860264 0.73737079
-0.32524687 0.12828463 0.73554742
-0.32185936 0.12796818 0.733733
-0.31848854 0.1276533 0.73192757
-0.31513423 0.12733996 0.73013097
-0.31179637 0.12702815 0.72834313
-0.30847481 0.12671787 0.72656411
-0.30516943 0.1264091 0.72479367
-0.30227643 0.12626736 0.72398102
-0.29989266 0.12633777 0.72438467
-0.2975063 0.12640825 0.72478884
-0.2951172 0.12647879 0.72519332
-0.29272547 0.12654945 0.72559839
-0.2903311 0.12662016 0.72600389
-0.28793401 0.12669095 0.72640979
-0.28553423 0.12676184 0.72681618
-0.28313178 0.12683278 0.72722298
-0.28072664 0.12690383 0.72763032
-0.27831882 0.12697494 0.72803807
-0.27590832 0.12704615 0.72844636
-0.27349511 0.12711744 0.72885513
-0.27107918 0.1271888 0.72926432
-0.26866058 0.12726027 0.72967404
-0.26623923 0.12733179 0.73008418
-0.26381513 0.12740341 0.7304948
-0.26138839 0.12747513 0.73090595
-0.25895882 0.12754688 0.7313174
-0.25652656 0.12761874 0.73172945
-0.25409159 0.12769069 0.73214197
-0.25165379 0.12776271 0.73255485
-0.24921331 0.1278348 0.73296827
-0.24677002 0.12790698 0.73338211
-0.24432401 0.12797925 0.73379648
-0.24187525 0.12805159 0.73421133
-0.23942369 0.12812403 0.73462659
-0.23696935 0.12819654 0.73504233
-0.23451224 0.12826912 0.73545855
-0.23205233 0.12834179 0.73587519
-0.22958967 0.12841456 0.73629242
-0.22712418 0.12848739 0.73671007
-0.2246559 0.12856032 0.73712814
-0.22218482 0.12863332 0.73754674
-0.21971093 0.1287064 0.73796576
-0.2174463 0.12890528 0.73910612
-0.21557173 0.12934305 0.74161607
-0.21368442 0.12978379 0.74414319
-0.21178421 0.13022757 0.74668765
-0.20987095 0.13067436 0.74924952
-0.2079443 0.13112412 0.75182825
-0.2060046 0.13157713 0.7544257
-0.20405154 0.13203335 0.75704151
-0.20208485 0.13249272 0.75967544
-0.20010446 0.13295531 0.76232779
-0.19811019 0.13342115 0.76499879
-0.1961019 0.13389027 0.76768857
-0.19407944 0.13436268 0.77039731
-0.19204262 0.13483843 0.77312511
-0.18999135 0.13531758 0.77587241
-0.18792547 0.13580017 0.77863938
-0.34590453 0.13283786 0.74657214
-0.34241468 0.1325053 0.74470305
-0.33894223 0.13217439 0.74284327
-0.3354871 0.13184513 0.74099278
-0.33204916 0.1315175 0.73915148
-0.32862821 0.13119151 0.73731929
-0.32522422 0.13086711 0.73549616
-0.32183701 0.13054432 0.73368204
-0.31846645 0.13022313 0.73187685
-0.31511244 0.1299035 0.73008049
-0.31177488 0.12958544 0.72829294
-0.30845356 0.12926891 0.72651404
-0.30521896 0.12898375 0.72491133
-0.30283383 0.12905577 0.72531605
-0.300446 0.12912786 0.72572124
-0.2980555 0.12920001 0.72612679
-0.29566231 0.12927227 0.72653288
-0.29326648 0.1293446 0.72693938
-0.29086798 0.12941703 0.72734642
-0.28846675 0.12948951 0.72775382
-0.28606284 0.12956209 0.72816169
-0.28365624 0.12963475 0.72857004
-0.28124693 0.12970749 0.72897887
-0.27883491 0.12978031 0.72938812
-0.27642021 0.1298532 0.72979784
-0.27400282 0.12992622 0.73020816
-0.27158272 0.12999931 0.73061895
-0.26915985 0.13007246 0.73103011
-0.2667343 0.13014573 0.73144186
-0.26430604 0.13021907 0.73185402
-0.26187497 0.13029248 0.7322666
-0.2594412 0.13036597 0.73267967
-0.25700468 0.13043955 0.7330932
-0.25456539 0.13051322 0.73350722
-0.25212339 0.13058698 0.73392177
-0.24967857 0.1306608 0.73433667
-0.24723102 0.13073473 0.73475212
-0.24478069 0.13080873 0.73516804
-0.24232756 0.1308828 0.73558432
-0.23987168 0.13095698 0.73600119
-0.23741299 0.13103122 0.73641843
-0.23495154 0.13110556 0.73683625
-0.23248728 0.13117997 0.7372545
-0.23002023 0.13125448 0.73767322
-0.22755036 0.13132907 0.73809242
-0.22507772 0.13140374 0.73851216
-0.2226022 0.1314785 0.73893225
-0.22012393 0.13155335 0.73935294
-0.2176428 0.13162827 0.73977405
-0.21515882 0.13170329 0.74019557
