# .PCD v0.7 - Point Cloud Data file format
VERSION 0.7
FIELDS x y z
SIZE 4 4 4
TYPE F F F
COUNT 1 1 1
WIDTH 1384
HEIGHT 1
VIEWPOINT 0 0 0 1 0 0 0
POINTS 1384
DATA ascii
-0.4123244 0.057890818 0.6706329
-0.41049722 0.057966467 0.67150927
-0.40866527 0.058042314 0.6723879
-0.40682852 0.058118358 0.67326885
-0.40498692 0.0581946 0.67415208
-0.40314049 0.058271043 0.67503762
-0.40128925 0.058347698 0.67592561
-0.39943323 0.058424562 0.67681605
-0.39757246 0.058501653 0.6777091
-0.39570674 0.058578946 0.67860448
-0.39383614 0.058656447 0.67950231
-0.39196053 0.058734145 0.6804024
-0.39007995 0.058812056 0.68130493
-0.38819438 0.058890168 0.68220985
-0.38630378 0.058968492 0.68311715
-0.38440821 0.059047028 0.68402696
-0.38250759 0.059125781 0.68493927
-0.38060188 0.059204739 0.68585396
-0.37869111 0.059283912 0.68677115
-0.37677523 0.059363298 0.68769079
-0.37623808 0.05966235 0.69115514
-0.37707824 0.060185127 0.69721121
-0.37793323 0.060717143 0.70337433
-0.37880349 0.061258648 0.70964736
-0.52620333 0.059769198 0.66524023
-0.52450085 0.059842382 0.66605479
-0.52279425 0.059915744 0.66687131
-0.5210833 0.05998927 0.66768968
-0.51936871 0.060063049 0.66851085
-0.51765049 0.060137071 0.66933471
-0.51592779 0.060211256 0.67016041
-0.51420039 0.060285561 0.67098743
-0.5124687 0.060360055 0.67181659
-0.51073277 0.060434736 0.67264777
-0.50899243 0.060509592 0.67348093
-0.50724781 0.060584635 0.67431617
-0.50549895 0.060659874 0.67515361
-0.50489128 0.060873415 0.67753035
-0.50412875 0.061070226 0.67972088
-0.50311685 0.061238568 0.68159455
-0.50183934 0.061376035 0.6831246
-0.50028545 0.061480865 0.68429136
-0.49844205 0.061550956 0.68507147
-0.49623698 0.061576854 0.68535972
-0.4935925 0.061548207 0.68504089
-0.49033362 0.061442297 0.68386209
-0.48776498 0.061422259 0.68363905
-0.48596632 0.061499458 0.68449831
-0.48416635 0.061577264 0.68536431
-0.48235902 0.06165491 0.68622851
-0.48054734 0.06173278 0.68709522
-0.47873059 0.061810784 0.68796343
-0.47691005 0.06188909 0.68883497
-0.47508478 0.061967582 0.68970859
-0.47325498 0.062046282 0.69058454
-0.4714205 0.06212518 0.6914627
-0.46958128 0.062204272 0.692343
-0.46773744 0.062283572 0.69322562
-0.46588886 0.062363077 0.69411051
-0.46403557 0.06244278 0.69499761
-0.46217749 0.062522687 0.69588697
-0.46031475 0.062602803 0.69677871
-0.45844716 0.06268312 0.69767267
-0.45657474 0.062763646 0.69856888
-0.45469758 0.062844381 0.69946748
-0.45281553 0.062925316 0.70036834
-0.45092866 0.063006476 0.70127159
-0.4490369 0.063087828 0.70217711
-0.44714019 0.06316939 0.70308489
-0.44523865 0.063251175 0.70399517
-0.41877615 0.059825163 0.66586316
-0.41697034 0.059902783 0.66672707
-0.41515991 0.059980612 0.6675933
-0.41334471 0.060058631 0.66846168
-0.4115248 0.060136862 0.66933239
-0.4097001 0.060215287 0.6702053
-0.40787068 0.060293924 0.67108053
-0.40603644 0.060372766 0.67195803
-0.40419745 0.060451817 0.67283791
-0.40235358 0.060531072 0.67372
-0.40050492 0.060610536 0.67460448
-0.39865136 0.060690206 0.67549121
-0.39679316 0.060770124 0.67638069
-0.39493012 0.060850259 0.67727262
-0.39306214 0.060930602 0.67816687
-0.39118919 0.061011158 0.67906344
-0.38931131 0.06109193 0.67996246
-0.38742849 0.061172917 0.68086386
-0.3855406 0.061254114 0.68176758
-0.38364771 0.06133553 0.68267375
-0.38174987 0.06141717 0.68358243
-0.37984696 0.061499029 0.68449354
-0.37793899 0.061581109 0.6854071
-0.37720624 0.06185697 0.68847746
-0.37805152 0.062396854 0.69448644
-0.37891176 0.062946253 0.70060134
-0.37978721 0.063505404 0.70682478
-0.38067839 0.064074583 0.7131598
-0.52524692 0.062000189 0.66403109
-0.52354658 0.062075995 0.66484296
-0.52184248 0.062152028 0.66565728
-0.52013421 0.062228244 0.66647357
-0.51842028 0.062304474 0.66729003
-0.51670319 0.062381022 0.66810983
-0.51498234 0.062457811 0.66893226
-0.51325637 0.06253469 0.66975564
-0.51152653 0.062611789 0.6705814
-0.50979233 0.062689081 0.67140919
-0.5080536 0.06276653 0.67223871
-0.507447 0.062985219 0.67458093
-0.5073297 0.063267 0.67759877
-0.50692904 0.063515931 0.68026489
-0.50625306 0.063732572 0.68258518
-0.50532168 0.063918971 0.68458152
-0.50414139 0.064075522 0.6862582
-0.50267744 0.064197361 0.68756312
-0.50092274 0.064283058 0.68848097
-0.49882871 0.064325839 0.68893915
-0.49632457 0.064315893 0.68883264
-0.4932811 0.06423562 0.6879729
-0.48930463 0.064032458 0.68579698
-0.4850598 0.063791983 0.68322146
-0.48325941 0.063872188 0.68408048
-0.48145446 0.063952595 0.68494165
-0.47964454 0.064033151 0.68580437
-0.4778308 0.064114004 0.68667036
-0.4760125 0.064195067 0.68753856
-0.47418958 0.064276338 0.68840897
-0.47236201 0.06435781 0.68928152
-0.47052988 0.064439498 0.6901564
-0.46869305 0.06452138 0.69103342
-0.46685156 0.064603478 0.69191271
-0.46500537 0.064685784 0.6927942
-0.46315446 0.064768299 0.69367796
-0.46129885 0.064851031 0.69456404
-0.45943844 0.064933971 0.69545227
-0.45757329 0.065017119 0.69634283
-0.45570341 0.065100484 0.6972357
-0.45382863 0.065184057 0.69813079
-0.45194912 0.065267853 0.69902825
-0.45006475 0.065351866 0.69992805
-0.44817549 0.065436095 0.7008301
-0.44628137 0.065520532 0.70173448
-0.44438234 0.065605193 0.70264119
-0.41796982 0.062051542 0.66458106
-0.41616645 0.062131893 0.66544163
-0.41435841 0.062212456 0.66630447
-0.41254568 0.062293224 0.66716951
-0.41072825 0.062374204 0.66803682
-0.40890607 0.062455393 0.66890639
-0.40707919 0.062536806 0.66977829
-0.40524748 0.06261842 0.67065239
-0.403411 0.062700242 0.67152876
-0.40156975 0.062782295 0.67240751
-0.39972362 0.062864549 0.67328846
-0.39787266 0.06294702 0.67417175
-0.3960169 0.063029714 0.67505747
-0.39415652 0.063112676 0.67594594
-0.39229116 0.06319584 0.67683667
-0.39042091 0.063279226 0.67772979
-0.38854569 0.063362837 0.67862523
-0.38666552 0.063446663 0.67952305
-0.38478038 0.063530721 0.68042326
-0.38289025 0.063614994 0.68132591
-0.38099515 0.063699506 0.68223101
-0.37909499 0.063784234 0.68313849
-0.37816691 0.064034648 0.68582046
-0.37901729 0.064591371 0.69178301
-0.37988254 0.065157846 0.69785005
-0.38076314 0.065734357 0.70402455
-0.38165948 0.066321157 0.71030927
-0.38257197 0.06691853 0.71670723
-0.52429408 0.064223111 0.66282654
-0.5225957 0.064301483 0.66363543
-0.52089316 0.064380057 0.66444635
-0.51918614 0.064458773 0.66525877
-0.5174762 0.064537846 0.66607487
-0.51576096 0.064616978 0.66689152
-0.51404238 0.064696409 0.66771132
-0.5123176 0.064775787 0.66853058
-0.51058877 0.064855389 0.66935211
-0.50885683 0.064935327 0.6701771
-0.50890696 0.065244481 0.6733678
-0.50924838 0.065594055 0.67697567
-0.50924212 0.06590192 0.68015307
-0.50893897 0.066174097 0.68296212
-0.50836736 0.066413783 0.68543583
-0.50752789 0.066620603 0.68757033
-0.50642127 0.066794172 0.68936169
-0.50505394 0.066934861 0.69081366
-0.50340289 0.067039125 0.69188976
-0.50141811 0.06709975 0.69251543
-0.49904212 0.067108355 0.69260424
-0.49616408 0.067049205 0.69199377
-0.49251449 0.066884682 0.69029582
-0.48713824 0.066482887 0.686149
-0.48235586 0.066158533 0.68280149
-0.4805527 0.0662416 0.68365878
-0.47874579 0.066324987 0.68451935
-0.47693434 0.066408582 0.68538213
-0.47511831 0.066492386 0.68624705
-0.47329772 0.066576406 0.68711418
-0.4714725 0.066660635 0.68798351
-0.46964267 0.06674508 0.68885505
-0.46780816 0.066829734 0.68972874
-0.46596906 0.066914618 0.69060475
-0.46412522 0.066999704 0.6914829
-0.46227673 0.067085013 0.69236338
-0.46042347 0.067170538 0.69324601
-0.4585655 0.067256272 0.6941309
-0.45670283 0.067342237 0.69501811
-0.45483533 0.067428418 0.69590753
-0.45296302 0.067514814 0.69679922
-0.45108601 0.067601442 0.69769329
-0.44920409 0.067688286 0.69858956
-0.44731739 0.067775361 0.69948822
-0.44542575 0.067862645 0.70038909
-0.44352928 0.067950167 0.70129234
-0.41716656 0.064269356 0.66330385
-0.41536561 0.064352416 0.66416109
-0.41356 0.064435698 0.66502059
-0.41174975 0.064519197 0.66588235
-0.40993485 0.064602911 0.66674638
-0.40811515 0.064686835 0.66761255
-0.40629074 0.064770989 0.66848105
-0.40446156 0.064855352 0.66935176
-0.40262762 0.064939938 0.67022473
-0.4007889 0.065024748 0.67110002
-0.39894539 0.065109782 0.67197764
-0.39709705 0.065195039 0.67285752
-0.39524382 0.065280512 0.67373967
-0.39338592 0.065366238 0.67462444
-0.39152321 0.065452211 0.67551172
-0.38965562 0.065538406 0.67640132
-0.38778308 0.065624826 0.67729324
-0.38590559 0.065711476 0.67818755
-0.38402316 0.065798365 0.67908424
-0.38213578 0.065885484 0.67998338
-0.38024342 0.065972835 0.6808849
-0.3791202 0.066195592 0.68318391
-0.3799755 0.066768862 0.68910044
-0.38084579 0.067352146 0.69512039
-0.38173139 0.067945719 0.70124644
-0.38263276 0.068549849 0.70748144
-0.38355029 0.069164805 0.71382827
-0.38448447 0.069790907 0.72029006
-0.52334476 0.066437975 0.66162634
-0.52164829 0.06651891 0.66243231
-0.51994771 0.06660004 0.66324031
-0.5182429 0.066681363 0.66405016
-0.51653433 0.066762939 0.66486251
-0.51481998 0.066844508 0.66567487
-0.51310438 0.066926658 0.66649294
-0.51138294 0.067008793 0.66731089
-0.50965738 0.06709116 0.66813111
-0.50953352 0.067386106 0.67106837
-0.5105024 0.067828991 0.67547888
-0.51100749 0.068214111 0.67931414
-0.51113778 0.068552591 0.6826849
-0.51094425 0.068850644 0.68565303
-0.51045877 0.069111995 0.68825573
-0.50971317 0.069340453 0.69053084
-0.50870955 0.069535837 0.69247657
-0.50742263 0.069694191 0.69405359
-0.50585479 0.069815308 0.69525969
-0.50397325 0.069894105 0.69604439
-0.50172484 0.069922529 0.69632751
-0.49900359 0.069885023 0.69595397
-0.49562809 0.069755062 0.69465977
-0.4909637 0.069441512 0.69153726
-0.48145512 0.068436265 0.68152642
-0.47965512 0.068522155 0.68238181
-0.4778505 0.068608254 0.68323922
-0.47604129 0.068694562 0.68409872
-0.47422755 0.068781093 0.68496042
-0.47240925 0.068867847 0.68582433
-0.47058633 0.068954811 0.68669039
-0.46875879 0.06904199 0.68755859
-0.46692663 0.0691294 0.68842906
-0.46508983 0.069217026 0.68930167
-0.46324837 0.069304876 0.69017655
-0.46140227 0.069392957 0.69105369
-0.45955142 0.069481254 0.69193298
-0.4576959 0.069569781 0.69281459
-0.45583564 0.069658525 0.69369841
-0.45397055 0.0697475 0.69458443
-0.45210081 0.069836706 0.69547284
-0.45022616 0.069926135 0.69636339
-0.44834676 0.070015796 0.69725627
-0.44646254 0.070105687 0.69815147
-0.4445734 0.070195802 0.69904888
-0.44267949 0.070286162 0.69994873
-0.41636637 0.066478662 0.66203153
-0.41456783 0.066564411 0.66288549
-0.41276473 0.066650398 0.66374177
-0.41095689 0.066736594 0.66460013
-0.4091444 0.066823013 0.66546077
-0.40732723 0.066909663 0.66632366
-0.40550533 0.06699653 0.66718876
-0.40367869 0.067083627 0.66805613
-0.40184733 0.067170963 0.66892582
-0.40001115 0.067258514 0.66979772
-0.39817014 0.06734629 0.67067182
-0.3963244 0.067434303 0.67154831
-0.39447379 0.067522541 0.67242706
-0.39261833 0.067611009 0.67330807
-0.39075825 0.06769976 0.67419189
-0.38889334 0.06778875 0.67507809
-0.38702345 0.067877956 0.6759665
-0.38514864 0.067967407 0.67685729
-0.38326892 0.068057097 0.67775047
-0.38138425 0.068147033 0.67864609
-0.38006616 0.068339974 0.6805675
-0.38092634 0.068929531 0.68643862
-0.38180155 0.069529355 0.69241202
-0.38269207 0.070139699 0.6984902
-0.38359833 0.070760861 0.70467603
-0.38452083 0.071393117 0.71097243
-0.38545996 0.07203678 0.71738237
-0.38641617 0.072692148 0.7239089
-0.52239877 0.068644829 0.66043043
-0.52070421 0.068728298 0.66123348
-0.51900554 0.068811968 0.66203851
-0.51730275 0.068895854 0.66284555
-0.51559579 0.068979941 0.66365451
-0.51388466 0.069064222 0.66446543
-0.51216948 0.069148742 0.66527855
-0.51044899 0.069233313 0.66609222
-0.50872707 0.069318473 0.66691154
-0.51083207 0.069928288 0.67277855
-0.51204616 0.070421271 0.67752153
-0.51272768 0.070845276 0.68160087
-0.51299208 0.071215369 0.68516153
-0.51291764 0.071541704 0.68830121
-0.51255256 0.071830407 0.69107884
-0.51189119 0.072080143 0.6934815
-0.51097172 0.072295763 0.69555598
-0.50978911 0.072476044 0.69729048
-0.50831443 0.072616346 0.69864029
-0.50652766 0.072713211 0.69957227
-0.50439388 0.072760969 0.70003176
-0.50182265 0.072745793 0.69988573
-0.4986586 0.072644092 0.69890726
-0.49449411 0.072394915 0.69650996
-0.48055959 0.070705771 0.68025875
-0.47876087 0.07079421 0.68110961
-0.47695848 0.070882998 0.6819638
-0.47515151 0.070971996 0.68282008
-0.47334009 0.071061239 0.68367863
-0.47152406 0.07115069 0.68453926
-0.46970344 0.071240366 0.68540204
-0.46787825 0.071330279 0.68626708
-0.46604842 0.071420409 0.68713421
-0.464214 0.071510769 0.6880036
-0.46237493 0.071601361 0.6888752
-0.46053112 0.071692184 0.68974894
-0.45868269 0.07178323 0.69062495
-0.45682958 0.071874522 0.69150323
-0.4549717 0.07196603 0.69238365
-0.45310912 0.072057784 0.69326639
-0.45124176 0.072149761 0.69415134
-0.44936961 0.072241984 0.69503856
-0.44749272 0.072334439 0.6959281
-0.44561097 0.072427124 0.69681984
-0.44372436 0.072520047 0.69771385
-0.44183299 0.072613224 0.69861025
-0.41556922 0.068679504 0.66076404
-0.41377318 0.068767935 0.66161484
-0.41197246 0.068856589 0.66246778
-0.4101671 0.068945467 0.66332287
-0.40835708 0.069034576 0.66418022
-0.40654236 0.069123916 0.66503972
-0.40472296 0.069213495 0.66590154
-0.40289885 0.069303304 0.66676557
-0.40107 0.069393344 0.66763186
-0.39923635 0.069483615 0.66850036
-0.39739794 0.069574118 0.66937113
-0.39555472 0.069664866 0.67024416
-0.3937068 0.06975586 0.67111963
-0.39185396 0.069847077 0.67199725
-0.38999629 0.069938548 0.67287725
-0.38813394 0.070030287 0.67375988
-0.3862668 0.070122279 0.67464495
-0.38439465 0.070214503 0.67553222
-0.38251767 0.070306987 0.676422
-0.38100493 0.070467994 0.67797107
-0.38186985 0.071073569 0.6837973
-0.38274983 0.07168965 0.68972456
-0.38364515 0.072316498 0.69575548
-0.38455629 0.072954409 0.70189279
-0.38548365 0.073603675 0.70813936
-0.38642761 0.074264593 0.71449804
-0.38738874 0.074937493 0.720972
-0.38836741 0.075622693 0.72756433
-0.38936415 0.076320551 0.73427838
-0.52145624 0.070843726 0.65923887
-0.51976359 0.070929706 0.66003901
-0.51806688 0.071015909 0.66084117
-0.516366 0.071102321 0.66164523
-0.51466101 0.071188934 0.66245127
-0.51295185 0.071275771 0.66325927
-0.51123846 0.071362808 0.66406924
-0.50952226 0.071450248 0.6648829
-0.50926459 0.071743965 0.66761613
-0.5120067 0.072464988 0.67432559
-0.51353431 0.073020026 0.67949057
-0.51441497 0.073487855 0.68384391
-0.51482421 0.073892415 0.6876086
-0.51487458 0.074249052 0.69092727
-0.51461071 0.074563541 0.6938538
-0.51406389 0.074839853 0.69642502
-0.51323587 0.075077668 0.69863802
-0.51213247 0.075277299 0.70049566
-0.51075602 0.075438537 0.70199609
-0.50907749 0.075556517 0.70309395
-0.50705856 0.075624876 0.70373005
-0.50462359 0.075631551 0.70379215
-0.50164771 0.075556822 0.70309675
-0.49783346 0.075354442 0.70121354
-0.47966662 0.072966747 0.67899472
-0.47787076 0.073057935 0.67984331
-0.47607109 0.073149465 0.680695
-0.47426507 0.073240936 0.68154621
-0.47245592 0.073332854 0.68240154
-0.47064215 0.073424995 0.68325895
-0.46882388 0.073517367 0.68411857
-0.46700099 0.073609978 0.68498033
-0.46517351 0.073702812 0.68584424
-0.46334141 0.073795892 0.68671036
-0.4615047 0.073889203 0.68757868
-0.45966327 0.073982745 0.68844914
-0.45781726 0.074076533 0.68932188
-0.45596647 0.074170545 0.69019675
-0.45411104 0.074264809 0.69107389
-0.4522509 0.074359313 0.6919533
-0.45038599 0.074454054 0.69283491
-0.44851628 0.074549027 0.69371873
-0.44664189 0.07464426 0.69460493
-0.44476265 0.074739724 0.69549328
-0.4428786 0.074835442 0.69638395
-0.44098967 0.074931391 0.69727683
-0.43909594 0.0750276 0.69817209
-0.41298148 0.070963018 0.66034895
-0.41118321 0.071054325 0.66119862
-0.40938032 0.07114587 0.66205049
-0.40757275 0.071237646 0.6629045
-0.40576056 0.071329668 0.66376084
-0.40394366 0.071421921 0.66461933
-0.40212205 0.071514413 0.66548002
-0.40029567 0.071607143 0.66634291
-0.39846462 0.071700126 0.66720814
-0.39662877 0.07179334 0.66807556
-0.39478818 0.0718868 0.66894525
-0.3929427 0.071980499 0.66981715
-0.39109248 0.072074443 0.67069137
-0.38923737 0.072168633 0.67156786
-0.38737765 0.072263107 0.67244703
-0.38551307 0.072357841 0.67332852
-0.38364363 0.072452821 0.6742124
-0.38193655 0.072579846 0.67539442
-0.38280615 0.07320118 0.68117625
-0.3836908 0.073833242 0.68705797
-0.3845908 0.074476317 0.6930421
-0.38550669 0.075130694 0.69913143
-0.38643876 0.075796671 0.7053287
-0.38738751 0.076474555 0.71163678
-0.38835344 0.077164687 0.71805882
-0.38933688 0.077867381 0.72459775
-0.39033842 0.078582987 0.73125684
-0.39135855 0.07931187 0.73803949
-0.52051711 0.073034689 0.65805155
-0.51882643 0.073123187 0.65884888
-0.51713157 0.073211886 0.65964806
-0.51543266 0.073300809 0.66044927
-0.51372957 0.07338994 0.66125238
-0.51202244 0.073479302 0.66205752
-0.51031101 0.073568866 0.66286451
-0.50859547 0.073658653 0.66367352
-0.5092544 0.07409475 0.66760278
-0.51303118 0.074990638 0.67567486
-0.51493895 0.075620405 0.68134916
-0.51603276 0.076135978 0.68599451
-0.51662582 0.076582178 0.69001484
-0.51681876 0.076973014 0.69353628
-0.51666141 0.077315129 0.6966188
-0.5162071 0.077615865 0.69932848
-0.51548398 0.07787887 0.70169818
-0.51448107 0.078101948 0.70370811
-0.51318908 0.078283079 0.70534015
-0.51160252 0.078420825 0.70658129
-0.50968671 0.078509204 0.70737755
-0.50738484 0.078538686 0.70764321
-0.50458956 0.07849171 0.70721996
-0.50106525 0.078330301 0.7057656
-0.47877797 0.075219482 0.67773676
-0.47698155 0.075312875 0.67857826
-0.47518536 0.075407252 0.67942858
-0.47338247 0.075501509 0.68027788
-0.47157618 0.075596184 0.68113089
-0.46976358 0.075690806 0.68198347
-0.46794757 0.075785853 0.68283987
-0.46612698 0.075881138 0.68369836
-0.46430185 0.07597667 0.68455911
-0.46247208 0.076072432 0.68542194
-0.46063769 0.07616844 0.68628699
-0.45879871 0.076264694 0.68715423
-0.45695505 0.076361187 0.68802369
-0.45510665 0.076457918 0.68889523
-0.45325369 0.076554909 0.68976915
-0.4513959 0.076652132 0.69064516
-0.44953343 0.076749615 0.69152343
-0.44766626 0.076847337 0.69240397
-0.44579431 0.07694532 0.69328678
-0.44391754 0.077043541 0.69417179
-0.442036 0.077142015 0.69505906
-0.44014961 0.077240735 0.69594854
-0.43825844 0.077339724 0.69684041
-0.41219291 0.073149726 0.65908802
-0.41039702 0.073243663 0.6599344
-0.40859661 0.073337853 0.66078305
-0.40679151 0.073432282 0.66163385
-0.40498173 0.073526941 0.66248679
-0.40316734 0.073621862 0.663342
-0.40134817 0.073717013 0.66419935
-0.39952433 0.07381241 0.66505891
-0.39769581 0.073908068 0.66592079
-0.39586252 0.074003972 0.66678488
-0.39402443 0.074100122 0.66765118
-0.39218163 0.074196525 0.66851979
-0.39033395 0.074293166 0.66939056
-0.3884815 0.074390076 0.67026371
-0.38662422 0.074487232 0.67113912
-0.38476232 0.074584693 0.67201728
-0.38289556 0.074682415 0.67289776
-0.38373527 0.075312532 0.67857516
-0.38462451 0.075960331 0.68441188
-0.38552919 0.076619364 0.69034988
-0.38644961 0.077289924 0.6963917
-0.38738635 0.07797233 0.70254028
-0.38833976 0.078666896 0.70879841
-0.3893103 0.079373948 0.71516901
-0.39029849 0.080093823 0.72165519
-0.39130476 0.080826886 0.72826016
-0.3923296 0.081573479 0.73498708
-0.39337352 0.082333997 0.74183941
-0.51958132 0.075217783 0.65686852
-0.51789254 0.075308762 0.65766299
-0.51619965 0.07539995 0.65845937
-0.5145027 0.075491361 0.65925765
-0.51280153 0.075582996 0.66005784
-0.51109636 0.075674854 0.66086006
-0.50938696 0.075766936 0.66166419
-0.50767356 0.075859271 0.66247052
-0.50595468 0.075951628 0.66327709
-0.5138256 0.077491097 0.6767211
-0.5162313 0.078216866 0.68305916
-0.51759553 0.078790888 0.68807203
-0.51837581 0.07928101 0.69235218
-0.51870906 0.079707071 0.69607294
-0.51869071 0.080082886 0.69935489
-0.51834863 0.080412075 0.70222968
-0.51771706 0.080699302 0.70473796
-0.5168075 0.080945753 0.70689023
-0.50750452 0.081451342 0.71130544
-0.47967637 0.077367157 0.67563874
-0.47789019 0.077463493 0.67648005
-0.4760991 0.077560008 0.67732286
-0.47430426 0.077656873 0.67816877
-0.47250143 0.077753402 0.67901176
-0.47069839 0.077850878 0.67986304
-0.46888849 0.077948213 0.68071306
-0.46707484 0.078045927 0.68156636
-0.4652563 0.07814382 0.68242127
-0.46343344 0.078242011 0.68327874
-0.461606 0.078340448 0.68413836
-0.45977399 0.078439131 0.68500018
-0.45793736 0.078538075 0.68586421
-0.45609605 0.07863725 0.68673033
-0.45425013 0.078736685 0.68759871
-0.45239949 0.078836374 0.68846923
-0.45054415 0.078936309 0.68934196
-0.44868416 0.079036504 0.69021696
-0.44681939 0.079136953 0.69109416
-0.4449499 0.079237655 0.69197357
-0.44307569 0.079338618 0.6928553
-0.44119659 0.079439834 0.69373918
-0.4393127 0.079541296 0.69462526
-0.43742406 0.079643033 0.69551373
-0.41140729 0.075328097 0.65783185
-0.40961388 0.075424656 0.65867507
-0.40781584 0.075521447 0.65952039
-0.40601316 0.075618498 0.66036791
-0.40420589 0.075715803 0.66121763
-0.40239394 0.075813346 0.6620695
-0.40057734 0.075911157 0.66292363
-0.398756 0.076009206 0.66377991
-0.39692998 0.076107517 0.66463846
-0.39509919 0.076206073 0.66549915
-0.39326373 0.076304898 0.66636217
-0.39142343 0.076403975 0.66722739
-0.3895784 0.076503314 0.66809487
-0.38772857 0.076602906 0.66896462
-0.38587385 0.076702751 0.66983658
-0.38401449 0.076802894 0.6707111
-0.38465735 0.077407829 0.67599392
-0.38555104 0.078071088 0.68178606
-0.38646019 0.078745805 0.68767834
-0.38738522 0.079432301 0.69367343
-0.3883265 0.080130868 0.69977391
-0.38928449 0.080841824 0.70598263
-0.39025956 0.081565507 0.71230245
-0.39125231 0.082302265 0.71873647
-0.39226314 0.083052456 0.72528785
-0.39329258 0.083816454 0.7319597
-0.39434114 0.08459463 0.73875546
-0.39540935 0.085387394 0.7456786
-0.51696199 0.077486478 0.65648133
-0.51527113 0.077580146 0.6572749
-0.51357603 0.077674024 0.65807027
-0.51187688 0.077768147 0.65886766
-0.51017356 0.077862479 0.6596669
-0.50846624 0.077957064 0.66046822
-0.50675368 0.078051716 0.66127014
-0.50503856 0.078146838 0.66207606
-0.51419455 0.079932794 0.67720705
-0.5173912 0.080804683 0.68459386
-0.51909065 0.081449822 0.6900596
-0.52008176 0.081989363 0.69463068
-0.52057499 0.082455143 0.69857687
-0.52068579 0.082864486 0.7020449
-0.48057246 0.079502113 0.67355818
-0.47879297 0.079600818 0.67439443
-0.47700796 0.079699583 0.67523122
-0.47521782 0.079798482 0.67606908
-0.47342414 0.079897776 0.67691034
-0.47162655 0.07999742 0.67775452
-0.46982482 0.080097362 0.67860126
-0.46801567 0.080197059 0.67944592
-0.46620563 0.080297627 0.68029797
-0.46438923 0.080398135 0.68114948
-0.46256831 0.080498904 0.6820032
-0.46074319 0.080599986 0.6828596
-0.45891353 0.080701329 0.6837182
-0.45707923 0.080802925 0.68457896
-0.45524031 0.080904774 0.68544185
-0.4533968 0.081006892 0.68630701
-0.45154855 0.081109256 0.68717426
-0.44969568 0.081211887 0.68804377
-0.44783804 0.081314765 0.68891537
-0.44597575 0.081417918 0.6897893
-0.44410872 0.081521332 0.69066542
-0.44223696 0.081625 0.69154376
-0.44036037 0.081728935 0.6924243
-0.43847904 0.081833132 0.6933071
-0.43659291 0.081937604 0.69419217
-0.41062462 0.077498168 0.65658039
-0.40883362 0.07759732 0.6574204
-0.40703803 0.077696718 0.65826255
-0.40523785 0.077796377 0.65910685
-0.40343302 0.07789629 0.65995336
-0.40162352 0.077996455 0.66080195
-0.39980942 0.078096882 0.6616528
-0.39799058 0.078197569 0.66250581
-0.39616707 0.078298509 0.66336101
-0.39433885 0.07839971 0.66421843
-0.39250591 0.07850118 0.6650781
-0.39066821 0.07860291 0.66593999
-0.38926691 0.078794211 0.6675607
-0.38789582 0.078993984 0.66925323
-0.38651776 0.079194769 0.67095435
-0.38557217 0.07948719 0.67343175
-0.38647038 0.080165684 0.67918009
-0.387384 0.080855854 0.68502736
-0.38831353 0.081558011 0.6909762
-0.38925922 0.082272455 0.69702911
-0.39022166 0.082999527 0.70318902
-0.39120126 0.083739564 0.70945877
-0.39219847 0.084492922 0.71584135
-0.39321378 0.085259944 0.72233975
-0.39424771 0.086041026 0.72895724
-0.39530072 0.086836554 0.73569709
-0.39637342 0.087646931 0.74256277
-0.3974663 0.088472567 0.74955773
-0.5160349 0.0796564 0.65530401
-0.51434582 0.079752497 0.65609461
-0.51265275 0.079848848 0.65688723
-0.51095551 0.079945423 0.6576817
-0.50925422 0.080042236 0.65847814
-0.50754803 0.080139168 0.65927559
-0.50583893 0.080236524 0.6600765
-0.50412464 0.080333948 0.660878
-0.50240707 0.080431759 0.66168267
-0.51834643 0.08337041 0.68585783
-0.52048939 0.084107183 0.69191903
-0.52173072 0.084704518 0.69683307
-0.52241349 0.085216381 0.70104396
-0.48145968 0.08162339 0.67148572
-0.47968799 0.081724621 0.67231852
-0.47790998 0.081825778 0.67315072
-0.47612754 0.08192718 0.67398494
-0.47434095 0.082028888 0.67482162
-0.47255003 0.082130864 0.67566055
-0.47075352 0.082232893 0.6764999
-0.46895239 0.082335152 0.67734116
-0.46714839 0.082437947 0.67818683
-0.46533963 0.082540967 0.67903429
-0.46352416 0.082643837 0.67988062
-0.46170714 0.082747512 0.6807335
-0.45988443 0.082851246 0.68158686
-0.45805627 0.08295507 0.682441
-0.45622432 0.083059311 0.68329853
-0.45438781 0.083163813 0.68415827
-0.4525466 0.083268575 0.68502009
-0.45070079 0.083373606 0.68588412
-0.44885033 0.083478898 0.68675035
-0.44699514 0.083584458 0.68761873
-0.44513533 0.083690293 0.68848938
-0.44327068 0.083796374 0.68936211
-0.44140139 0.083902746 0.69023716
-0.43952733 0.084009379 0.69111443
-0.43764848 0.08411628 0.69199383
-0.43576485 0.084223457 0.69287556
-0.40984499 0.079660013 0.65533376
-0.40805635 0.079761721 0.65617049
-0.4062632 0.079863705 0.65700948
-0.40446544 0.079965949 0.65785056
-0.40266308 0.080068454 0.65869385
-0.40085608 0.080171213 0.65953922
-0.39939418 0.080344602 0.66096562
-0.39806211 0.08054629 0.66262484
-0.39672327 0.080748983 0.66429234
-0.39537773 0.080952711 0.6659683
-0.39402536 0.081157461 0.66765273
-0.39266619 0.081363268 0.6693458
-0.39130008 0.081570104 0.67104739
-0.38992697 0.081777997 0.67275763
-0.38854685 0.081986949 0.67447662
-0.38738224 0.082244232 0.67659318
-0.38830021 0.082949579 0.68239582
-0.38923407 0.083667137 0.68829888
-0.39018419 0.084397212 0.69430494
-0.39115107 0.085140139 0.70041674
-0.39213511 0.085896261 0.70663708
-0.3931368 0.086665936 0.71296895
-0.39415658 0.087449528 0.71941525
-0.39519501 0.088247426 0.72597927
-0.39625242 0.089059986 0.73266393
-0.39732951 0.089887656 0.73947287
-0.39842677 0.090730846 0.74640948
-0.39954481 0.09159001 0.75347745
-0.51511103 0.081818536 0.65413082
-0.51342392 0.081917077 0.65491867
-0.51173276 0.082015857 0.65570837
-0.51003742 0.082114868 0.65649998
-0.50833774 0.08221408 0.65729314
-0.50663459 0.082313627 0.65808904
-0.50492644 0.082413286 0.65888578
-0.50321507 0.082513325 0.65968561
-0.50149918 0.08261355 0.66048688
-0.49977952 0.082714088 0.66129071
-0.49805272 0.082814388 0.66209257
-0.52331823 0.087424926 0.69895333
-0.48586437 0.083526321 0.66778439
-0.48410621 0.083629057 0.66860574
-0.4823446 0.083732195 0.66943032
-0.48057684 0.083835267 0.67025441
-0.47880682 0.083938971 0.67108351
-0.47703096 0.084042676 0.67191261
-0.47525075 0.084146641 0.6727438
-0.4734661 0.08425086 0.67357701
-0.47167704 0.084355339 0.67441231
-0.46988353 0.08446008 0.6752497
-0.46808603 0.084565163 0.67608982
-0.46628341 0.084670387 0.67693108
-0.46447536 0.084775709 0.67777312
-0.46266443 0.084881589 0.67861962
-0.46084881 0.0849877 0.67946798
-0.45902681 0.085093744 0.68031579
-0.45720291 0.085200541 0.68116963
-0.45537314 0.085307367 0.6820237
-0.45353842 0.085414402 0.68287939
-0.45169961 0.085521795 0.68373799
-0.44985622 0.085629471 0.68459886
-0.44800815 0.085737407 0.68546182
-0.4461554 0.085845619 0.68632692
-0.444298 0.085954107 0.68719429
-0.44243586 0.086062863 0.6880638
-0.44056895 0.086171888 0.68893546
-0.43869743 0.08628121 0.68980944
-0.43682107 0.086390793 0.69068557
-0.43493995 0.086500667 0.69156396
-0.4093233 0.081864662 0.65449959
-0.40802896 0.082068145 0.65612644
-0.40672815 0.082272649 0.65776139
-0.40542084 0.082478166 0.65940452
-0.404107 0.082684718 0.66105586
-0.40278658 0.082892314 0.66271555
-0.40145949 0.083100945 0.66438353
-0.40012568 0.083310626 0.66605991
-0.39878517 0.083521381 0.66774487
-0.39743781 0.083733194 0.6694383
-0.39608365 0.083946086 0.67114037
-0.39472258 0.084160067 0.67285115
-0.39335454 0.084375143 0.67457062
-0.39197949 0.084591314 0.67629892
-0.39059737 0.084808603 0.67803609
-0.38920942 0.085027285 0.67978448
-0.39014748 0.085759968 0.68564218
-0.39110187 0.086505398 0.69160181
-0.39207298 0.08726389 0.69766587
-0.39306125 0.0880358 0.70383722
-0.3940672 0.088821493 0.71011877
-0.39509124 0.089621335 0.7165134
-0.39613387 0.090435706 0.72302425
-0.39719576 0.091265038 0.72965467
-0.39827716 0.092109703 0.73640764
-0.39937881 0.092970148 0.74328685
-0.40050122 0.09384682 0.75029576
-0.51419055 0.083972946 0.65296185
-0.51250535 0.084073909 0.6537469
-0.51081604 0.084175102 0.65453374
-0.50912267 0.084276542 0.65532255
-0.50742555 0.08437828 0.65611362
-0.50572354 0.084480137 0.65690565
-0.50401783 0.084582299 0.65770006
-0.50230861 0.084684819 0.65849727
-0.5005933 0.084787264 0.65929383
-0.49887633 0.084890373 0.66009563
-0.49715358 0.084993467 0.66089725
-0.49542701 0.085096873 0.66170132
-0.49369627 0.085200541 0.66250741
-0.49196094 0.085304387 0.66331494
-0.49022257 0.08540871 0.6641261
-0.48847905 0.085513115 0.66493797
-0.48673093 0.085617736 0.66575146
-0.48497799 0.085722506 0.66656613
-0.48322201 0.085827753 0.66738456
-0.4814629 0.085933477 0.66820663
-0.47969815 0.08603923 0.66902894
-0.47792891 0.086145207 0.66985303
-0.47615519 0.086251438 0.67067903
-0.47437716 0.086357936 0.67150718
-0.47259474 0.086464703 0.67233735
-0.47080791 0.086571731 0.67316961
-0.46901664 0.086679026 0.6740039
-0.46722087 0.086786576 0.67484021
-0.46542072 0.0868944 0.67567867
-0.46361607 0.087002501 0.67651922
-0.46180746 0.087110966 0.67736262
-0.45999292 0.087219439 0.67820609
-0.45817456 0.087328307 0.67905265
-0.45635217 0.087437555 0.67990214
-0.4545238 0.087546803 0.68075162
-0.45269266 0.087656669 0.68160594
-0.45085585 0.087766603 0.68246078
-0.44901478 0.087876886 0.68331832
-0.4471691 0.087987453 0.68417805
-0.44531882 0.088098302 0.68504
-0.44346383 0.088209428 0.68590409
-0.44160414 0.088320822 0.68677032
-0.43973976 0.088432513 0.68763882
-0.43787062 0.088544473 0.6885094
-0.43599674 0.088656723 0.6893822
-0.43411818 0.088769265 0.69025731
-0.43223479 0.088882081 0.69113457
-0.41012341 0.084813058 0.6594944
-0.40882114 0.085025474 0.66114616
-0.40751234 0.085238971 0.66280627
-0.40619698 0.08545354 0.66447473
-0.40487495 0.08566919 0.66615158
-0.40354624 0.085885935 0.66783696
-0.4022108 0.086103775 0.66953087
-0.40086856 0.086322732 0.67123342
-0.39951953 0.086542808 0.67294472
-0.39816353 0.086763993 0.67466462
-0.39680061 0.086986318 0.67639339
-0.39543068 0.087209783 0.67813104
-0.39405373 0.087434411 0.6798777
-0.39266962 0.087660186 0.68163329
-0.39127833 0.087887138 0.68339801
-0.39201239 0.088597231 0.6889196
-0.39298764 0.089371026 0.69493651
-0.39398012 0.090158463 0.70105952
-0.39499021 0.090959892 0.70729131
-0.39601845 0.0917757 0.71363497
-0.39706525 0.092606276 0.72009337
-0.39813122 0.093452021 0.72666979
-0.3992168 0.094313353 0.73336738
-0.40032262 0.095190719 0.74018967
-0.4014492 0.096084565 0.74714005
-0.4025971 0.096995346 0.75422215
-0.5132733 0.086119682 0.65179706
-0.51158994 0.086223029 0.65257925
-0.50990289 0.086326674 0.6533637
-0.50821096 0.086430438 0.65414906
-0.5065155 0.086534537 0.65493691
-0.50481629 0.086638957 0.65572721
-0.50311255 0.086743541 0.65651876
-0.50140429 0.086848319 0.6573118
-0.49969235 0.086953424 0.65810728
-0.49797618 0.087058775 0.65890461
-0.49625584 0.087164372 0.65970385
-0.49453133 0.087270238 0.66050506
-0.49280268 0.087376364 0.66130829
-0.49106997 0.087482773 0.66211367
-0.48933339 0.08758951 0.66292149
-0.48759183 0.087696373 0.66373026
-0.48584595 0.087803483 0.66454095
-0.48409492 0.087910697 0.6653524
-0.48234105 0.08801844 0.66616786
-0.48058355 0.08812657 0.66698623
-0.47882128 0.088234879 0.66780597
-0.47705412 0.088343352 0.66862696
-0.47528264 0.088452108 0.66945004
-0.47350681 0.088561125 0.67027515
-0.4717266 0.08867041 0.67110229
-0.46994194 0.088779964 0.67193145
-0.46815288 0.088889785 0.67276263
-0.46635944 0.08899989 0.67359596
-0.46456146 0.089110255 0.67443126
-0.46275911 0.089220904 0.67526871
-0.46095225 0.089331828 0.67610824
-0.45914084 0.089443021 0.6769498
-0.45732513 0.089554526 0.67779374
-0.45550478 0.0896663 0.67863965
-0.45367891 0.089778148 0.67948622
-0.45184979 0.08989054 0.68033683
-0.45001495 0.090002991 0.68118793
-0.44817659 0.090115942 0.68204278
-0.44633326 0.090229094 0.68289918
-0.44448534 0.090342544 0.68375784
-0.44263276 0.090456292 0.68461871
-0.44077554 0.090570316 0.68548173
-0.43891358 0.09068463 0.68634689
-0.43704695 0.090799227 0.68721426
-0.43517563 0.09091413 0.68808389
-0.43329948 0.091029301 0.68895555
-0.4314186 0.091144778 0.68982953
-0.41223943 0.087586284 0.66289705
-0.41093576 0.087806784 0.66456592
-0.4096255 0.088028401 0.66624326
-0.40830866 0.088251151 0.66792911
-0.4069851 0.088475026 0.66962349
-0.40565485 0.088700041 0.67132652
-0.40431777 0.088926196 0.67303818
-0.40297389 0.089153513 0.67475867
-0.40162307 0.089381985 0.67648786
-0.40026537 0.08961165 0.67822605
-0.39890066 0.089842491 0.67997319
-0.39752889 0.090074524 0.68172932
-0.39614999 0.09030775 0.68349451
-0.39476398 0.09054219 0.68526888
-0.39337072 0.090777859 0.68705249
-0.39389521 0.091461733 0.69222844
-0.39489174 0.092264421 0.69830358
-0.39590591 0.093081325 0.70448631
-0.3969382 0.093912825 0.71077949
-0.39798906 0.0947593 0.71718609
-0.39905906 0.095621184 0.72370923
-0.40014872 0.096498892 0.73035216
-0.40125856 0.097392857 0.73711812
-0.40238917 0.098303542 0.74401069
-0.40354115 0.099231429 0.75103337
-0.51235926 0.088258758 0.65063637
-0.51067805 0.088364519 0.65141606
-0.50899237 0.088470459 0.652197
-0.507303 0.088576712 0.65298033
-0.50560933 0.088683188 0.65376526
-0.5039115 0.088789903 0.65455192
-0.50220978 0.0888969 0.65534073
-0.5005039 0.089004152 0.65613139
-0.49879387 0.089111663 0.65692395
-0.4970797 0.089219436 0.65771842
-0.49536139 0.089327462 0.6585148
-0.49363893 0.089435756 0.65931314
-0.49191231 0.089544319 0.66011345
-0.4901816 0.089653164 0.66091585
-0.48844689 0.089762315 0.66172051
-0.48670778 0.089871697 0.66252685
-0.48496416 0.089981303 0.66333485
-0.483215 0.09009093 0.66414303
-0.48146328 0.090201154 0.66495556
-0.47970724 0.090311632 0.66576999
-0.47794756 0.090422511 0.66658741
-0.47618261 0.090533487 0.66740549
-0.47441328 0.090644725 0.66822553
-0.47263965 0.090756245 0.66904765
-0.47086161 0.090868033 0.66987175
-0.46907917 0.09098009 0.67069781
-0.46729237 0.091092438 0.67152601
-0.46550113 0.091205053 0.67235625
-0.46370545 0.091317952 0.67318851
-0.46190533 0.091431126 0.67402285
-0.46010071 0.091544583 0.67485923
-0.45829159 0.091658324 0.67569768
-0.45647803 0.091772348 0.67653829
-0.45465997 0.091886662 0.67738098
-0.45283735 0.092001252 0.67822576
-0.4510105 0.092116199 0.67907315
-0.44917801 0.092231214 0.67992103
-0.4473418 0.092346698 0.68077236
-0.44550034 0.092462339 0.68162483
-0.44365537 0.092578493 0.68248111
-0.44180486 0.092694752 0.68333817
-0.43995002 0.092811376 0.6841979
-0.43809053 0.092928298 0.68505985
-0.43622643 0.093045525 0.68592405
-0.43435755 0.093163036 0.68679035
-0.43248388 0.093280837 0.68765873
-0.43060556 0.093398951 0.68852949
-0.41437739 0.090388268 0.66633499
-0.41307241 0.090617023 0.66802132
-0.41176075 0.090846933 0.66971618
-0.41044241 0.091077998 0.67141962
-0.4091174 0.091310263 0.67313182
-0.40778553 0.091543697 0.67485267
-0.40644696 0.091778345 0.67658252
-0.40510139 0.092014179 0.67832106
-0.40374896 0.092251241 0.68006867
-0.40238953 0.092489533 0.68182534
-0.40102303 0.092729047 0.68359101
-0.39964947 0.092969812 0.68536592
-0.39826876 0.093211837 0.68715006
-0.39688078 0.093455106 0.68894345
-0.39548561 0.093699664 0.69074631
-0.39579621 0.094353892 0.69556922
-0.39681435 0.095185995 0.70170343
-0.3978506 0.09603291 0.70794678
-0.39890549 0.096895024 0.71430224
-0.39997944 0.097772755 0.7207728
-0.40107307 0.098666534 0.72736168
-0.40218681 0.099576801 0.73407209
-0.40332136 0.10050403 0.74090749
-0.40447718 0.10144868 0.7478714
-0.51144856 0.090390235 0.64947987
-0.50976884 0.090498291 0.65025628
-0.50808543 0.090606652 0.65103489
-0.50639778 0.090715252 0.65181518
-0.50470608 0.090824097 0.65259731
-0.50301039 0.090933226 0.65338141
-0.50131059 0.091042608 0.65416735
-0.49960664 0.091152251 0.65495515
-0.49789864 0.091262162 0.65574491
-0.49618644 0.091372326 0.65653646
-0.49447015 0.091482773 0.65733004
-0.49274975 0.091593482 0.65812552
-0.49102518 0.091704465 0.65892297
-0.48929635 0.091815703 0.65972227
-0.48756295 0.091927148 0.660523
-0.48582652 0.092039071 0.66132724
-0.4840852 0.092151165 0.66213262
-0.48233828 0.092263259 0.66293806
-0.48058867 0.092375927 0.66374761
-0.47883421 0.092488758 0.66455835
-0.47707707 0.092602178 0.66537333
-0.47531426 0.092715621 0.66618842
-0.4735471 0.092829332 0.66700548
-0.47177562 0.092943326 0.66782457
-0.46999976 0.093057595 0.66864562
-0.46821958 0.093172155 0.66946876
-0.46643496 0.093286991 0.67029387
-0.46464595 0.09340211 0.67112106
-0.46285254 0.09351752 0.67195028
-0.46105465 0.093633205 0.67278153
-0.45925233 0.09374918 0.67361486
-0.45744556 0.093865447 0.67445028
-0.45563427 0.093982004 0.67528772
-0.4538185 0.094098851 0.67612731
-0.45199817 0.094215982 0.67696893
-0.45017332 0.094333403 0.67781264
-0.44834393 0.094451122 0.67865849
-0.44650999 0.094569139 0.67950648
-0.44467154 0.094687469 0.68035674
-0.44282809 0.094806015 0.68120849
-0.44097993 0.094924837 0.68206227
-0.43912759 0.095044054 0.68291891
-0.43727061 0.095163576 0.68377769
-0.43540889 0.095283389 0.68463856
-0.43354249 0.095403507 0.68550164
-0.43167138 0.095523916 0.68636686
-0.42979553 0.095644645 0.68723428
-0.41653767 0.093219481 0.6698088
-0.41523135 0.093456626 0.67151278
-0.41391832 0.093694977 0.6732254
-0.41259861 0.093934551 0.67494678
-0.41127214 0.094175354 0.67667705
-0.40993884 0.094417401 0.67841619
-0.40859863 0.094660677 0.68016422
-0.40725151 0.09490522 0.6819213
-0.40589744 0.095151037 0.68368757
-0.40453634 0.095398121 0.68546295
-0.40316811 0.095646493 0.68724757
-0.40179279 0.09589617 0.68904155
-0.40041026 0.096147142 0.69084489
-0.39902043 0.096399426 0.69265765
-0.39762333 0.096653052 0.69448
-0.39771563 0.097274102 0.69894242
-0.39875579 0.098136157 0.70513654
-0.39981449 0.099013619 0.71144134
-0.40089235 0.099906929 0.71786004
-0.40198982 0.1008165 0.72439551
-0.40310743 0.10174277 0.73105109
-0.40424579 0.10268623 0.7378301
-0.40540543 0.10364734 0.74473602
-0.51099855 0.092597045 0.64890838
-0.50886333 0.09262456 0.6491012
-0.5071817 0.092735253 0.64987689
-0.50549597 0.092846192 0.65065438
-0.50380623 0.092957415 0.65143377
-0.50211239 0.09306889 0.652215
-0.50041455 0.093180642 0.65299815
-0.49871263 0.093292661 0.65378314
-0.49700657 0.093404949 0.65457004
-0.49529642 0.093517505 0.65535885
-0.49358213 0.093630329 0.65614951
-0.4918637 0.093743436 0.65694213
-0.49014118 0.093856819 0.65773672
-0.48841438 0.093970463 0.6585331
-0.48668367 0.094084434 0.6593318
-0.48494849 0.094198629 0.66013205
-0.48320931 0.094313145 0.66093457
-0.48146474 0.094427712 0.66173744
-0.47971734 0.094542831 0.66254419
-0.47796613 0.09465833 0.66335356
-0.47620976 0.094773933 0.66416371
-0.4744491 0.09488982 0.66497582
-0.47268406 0.095005974 0.66578984
-0.47091475 0.095122434 0.66660595
-0.46914113 0.095239177 0.66742408
-0.46736312 0.095356204 0.66824418
-0.46558073 0.095473513 0.66906631
-0.4637939 0.095591113 0.6698904
-0.46200272 0.095709004 0.67071658
-0.4602071 0.095827185 0.67154479
-0.45840707 0.095945664 0.67237508
-0.4566026 0.096064448 0.67320746
-0.45479357 0.096183494 0.67404175
-0.45298013 0.096302859 0.67487824
-0.45116213 0.096422516 0.67571676
-0.44933966 0.09654247 0.67655742
-0.4475126 0.096662723 0.67740011
-0.44568101 0.09678328 0.67824495
-0.4438448 0.096904121 0.67909181
-0.44200405 0.097025283 0.67994088
-0.44015875 0.097146757 0.68079215
-0.43830836 0.097268432 0.68164486
-0.43645373 0.097390503 0.6825003
-0.43459442 0.097512878 0.68335789
-0.43273053 0.097635575 0.68421775
-0.43086189 0.097758584 0.68507975
-0.42898855 0.097881891 0.6859439
-0.41872066 0.096080378 0.6733191
-0.41741297 0.096326068 0.6750409
-0.41609865 0.09657304 0.67677164
-0.41477755 0.096821271 0.6785112
-0.41344967 0.097070791 0.68025982
-0.41211489 0.097321592 0.68201739
-0.41077319 0.09757369 0.68378407
-0.4094246 0.097827114 0.68556005
-0.40806895 0.098081857 0.68734521
-0.40670615 0.098337911 0.6891396
-0.40533629 0.098595314 0.69094348
-0.40395924 0.098854072 0.69275683
-0.4025749 0.099114187 0.69457966
-0.40118328 0.099375673 0.69641215
-0.39978427 0.099638544 0.69825429
-0.39965379 0.10022278 0.70234853
-0.40071627 0.10111532 0.70860338
-0.40179792 0.10202392 0.71497071
-0.40289912 0.10294899 0.72145343
-0.40402052 0.10389099 0.72805488
-0.40516257 0.10485038 0.73477817
-0.40632594 0.10582765 0.7416268
-0.51068586 0.095251523 0.65142602
-0.50670636 0.094935954 0.64926785
-0.50459731 0.094969563 0.64949769
-0.50290948 0.095083117 0.65027428
-0.50121766 0.095196947 0.65105277
-0.49952176 0.095311053 0.65183312
-0.49782178 0.09542542 0.65261531
-0.49611774 0.095540069 0.65339941
-0.49440959 0.095655002 0.65418541
-0.4926973 0.095770203 0.65497327
-0.49098089 0.095885679 0.65576303
-0.48926032 0.096001431 0.65655464
-0.48753563 0.096117474 0.65734828
-0.48580676 0.0962338 0.65814382
-0.48407415 0.096350491 0.65894186
-0.48233655 0.096467309 0.65974081
-0.48059437 0.096584342 0.66054118
-0.47884923 0.096701913 0.66134524
-0.47709984 0.096819773 0.66215128
-0.47534558 0.096937798 0.66295844
-0.47358704 0.097056106 0.66376758
-0.47182417 0.097174704 0.66457868
-0.47005704 0.0972936 0.6653918
-0.46828559 0.097412795 0.66620696
-0.46650979 0.097532272 0.66702408
-0.46472958 0.09765204 0.66784316
-0.46294501 0.097772099 0.66866428
-0.4611561 0.097892471 0.66948748
-0.45936272 0.098013125 0.67031264
-0.45756492 0.098134078 0.67113984
-0.45576271 0.098255336 0.67196912
-0.45395601 0.098376893 0.67280042
-0.45214486 0.098498747 0.67363381
-0.45032918 0.098620906 0.67446923
-0.44850904 0.098743372 0.6753068
-0.4466843 0.098866127 0.67614633
-0.44485506 0.098989196 0.67698801
-0.4430213 0.099112585 0.67783183
-0.44118294 0.099236272 0.67867774
-0.43933997 0.099360265 0.67952573
-0.43749237 0.099484563 0.68037581
-0.43564016 0.099609181 0.6812281
-0.43378338 0.099734128 0.68208259
-0.43192169 0.099859335 0.68293887
-0.43005541 0.099984869 0.68379742
-0.42818457 0.10011075 0.68465835
-0.42092657 0.098971404 0.67686629
-0.41961765 0.099225827 0.67860633
-0.41830209 0.099481583 0.68035543
-0.41697967 0.09973865 0.68211353
-0.41565037 0.099997044 0.68388069
-0.41431421 0.10025679 0.68565708
-0.41297108 0.10051788 0.68744272
-0.41162097 0.10078036 0.68923777
-0.41026378 0.10104419 0.69104213
-0.40889943 0.10130941 0.69285595
-0.40752792 0.10157603 0.69467938
-0.40614915 0.10184405 0.69651234
-0.40476307 0.10211349 0.69835502
-0.40336969 0.10238436 0.70020753
-0.4019689 0.10265667 0.70206988
-0.40161094 0.10320034 0.70578802
-0.40269619 0.10412394 0.71210456
-0.40380105 0.10506423 0.71853518
-0.40492609 0.10602166 0.72508305
-0.40607175 0.10699669 0.73175126
-0.40723875 0.10798983 0.73854339
-0.51439172 0.098254599 0.65615314
-0.51037079 0.097926676 0.65396327
-0.50637686 0.097600982 0.65178823
-0.50240946 0.097277455 0.64962769
-0.5003261 0.097317435 0.64989471
-0.49863216 0.097433873 0.65067226
-0.49693412 0.097550578 0.65145165
-0.49523205 0.097667575 0.65223294
-0.49352589 0.097784854 0.65301615
-0.49181563 0.09790241 0.6538012
-0.49010122 0.098020241 0.6545881
-0.48838273 0.09813837 0.65537697
-0.48666003 0.098256774 0.65616769
-0.48493323 0.098375477 0.65696037
-0.48320228 0.09849447 0.65775502
-0.48146698 0.098613717 0.65855139
-0.47972712 0.098733187 0.6593492
-0.47798431 0.098853208 0.66015071
-0.47623661 0.098973379 0.66095322
-0.47448447 0.09909381 0.66175747
-0.4727281 0.099214539 0.66256374
-0.47096741 0.099335559 0.66337192
-0.46920243 0.099456877 0.66418207
-0.46743315 0.099578492 0.66499424
-0.4656595 0.099700399 0.66580832
-0.46388155 0.099822611 0.66662449
-0.46209919 0.099945121 0.66744262
-0.46031255 0.10006794 0.66826284
-0.4585214 0.10019105 0.66908497
-0.45672587 0.10031446 0.66990912
-0.45492589 0.10043819 0.67073536
-0.45312151 0.10056221 0.67156363
-0.45131266 0.10068656 0.67239398
-0.44949934 0.1008112 0.67322636
-0.44768146 0.10093614 0.6740607
-0.4458591 0.1010614 0.67489719
-0.44403225 0.10118698 0.67573583
-0.44220084 0.10131286 0.6765765
-0.44036484 0.10143906 0.67741925
-0.43852425 0.10156556 0.67826408
-0.4366791 0.10169239 0.67911106
-0.43482935 0.10181955 0.67996019
-0.43297493 0.10194701 0.68081141
-0.4311159 0.10207479 0.68166476
-0.42925215 0.10220289 0.68252021
-0.42738369 0.10233131 0.6833778
-0.42551056 0.10246005 0.68423754
-0.42184576 0.10215638 0.68220961
-0.42052895 0.10242109 0.68397737
-0.41920525 0.10268717 0.68575424
-0.41787469 0.10295463 0.68754041
-0.41653711 0.10322348 0.68933582
-0.41519266 0.10349377 0.69114083
-0.41384104 0.10376545 0.69295514
-0.41248232 0.10403857 0.69477904
-0.41111645 0.10431314 0.6966126
-0.40974334 0.10458914 0.69845581
-0.40836295 0.10486662 0.70030886
-0.40697521 0.10514557 0.70217168
-0.40558007 0.10542601 0.70404452
-0.40417749 0.10570796 0.70592737
-0.40358734 0.10620719 0.7092613
-0.40469578 0.10716243 0.71564049
-0.40582433 0.10813501 0.72213542
-0.40697354 0.1091254 0.72874933
-0.408144 0.11013409 0.73548549
-0.51408893 0.10096103 0.65872747
-0.51005328 0.10062275 0.65652037
-0.50604475 0.10028677 0.65432823
-0.50206304 0.099953055 0.65215087
-0.49810773 0.099621549 0.64998794
-0.49604964 0.099668175 0.65029216
-0.49434954 0.099787496 0.65107065
-0.49264538 0.0999071 0.65185106
-0.49093708 0.10002699 0.65263331
-0.4892247 0.10014717 0.65341741
-0.48750824 0.10026765 0.65420347
-0.4857876 0.10038841 0.65499139
-0.48406282 0.10050946 0.65578121
-0.48233396 0.10063083 0.65657306
-0.48060089 0.10075247 0.65736675
-0.47886303 0.1008743 0.65816158
-0.47712165 0.10099655 0.65895927
-0.47537655 0.10111922 0.65975958
-0.47362655 0.10124204 0.66056097
-0.4718723 0.10136516 0.66136426
-0.47011375 0.10148858 0.66216952
-0.46835095 0.1016123 0.66297674
-0.46658382 0.10173632 0.66378593
-0.46481237 0.10186065 0.66459709
-0.46303663 0.10198528 0.66541028
-0.4612565 0.10211021 0.66622543
-0.45947197 0.10223545 0.66704255
-0.45768315 0.10236101 0.66786176
-0.45588988 0.10248687 0.66868293
-0.45409217 0.10261304 0.66950613
-0.45229006 0.10273952 0.67033136
-0.45048353 0.10286632 0.67115867
-0.44867247 0.10299342 0.67198795
-0.44685698 0.10312084 0.67281932
-0.44503698 0.10324858 0.67365277
-0.44321245 0.10337663 0.67448825
-0.44138339 0.103505 0.67532581
-0.43954977 0.10363369 0.6761654
-0.4377116 0.10376269 0.67700714
-0.43586883 0.10389202 0.67785096
-0.4340215 0.10402168 0.67869693
-0.43216959 0.10415167 0.67954504
-0.4303129 0.10428196 0.68039513
-0.42845169 0.10441259 0.68124747
-0.42671362 0.10457489 0.68230635
-0.42540908 0.10484586 0.68407434
-0.42409775 0.10511824 0.68585151
-0.42277965 0.10539206 0.68763804
-0.42145473 0.10566733 0.68943405
-0.42012292 0.10594404 0.69123948
-0.41878408 0.1062222 0.69305438
-0.41743821 0.10650183 0.69487882
-0.41608518 0.10678293 0.69671285
-0.41472504 0.10706551 0.6985566
-0.41335768 0.1073496 0.70041019
-0.41198301 0.10763521 0.70227361
-0.41060102 0.10792232 0.70414692
-0.40921164 0.10821098 0.70603031
-0.4078148 0.10850119 0.70792377
-0.40641046 0.10879295 0.70982742
-0.40558329 0.1092438 0.71276897
-0.40671527 0.11023124 0.71921164
-0.40786794 0.11123671 0.7257719
-0.40904182 0.11226069 0.73245293
-0.51786155 0.1040399 0.66356152
-0.51378369 0.10368878 0.66132206
-0.50973326 0.10334001 0.65909761
-0.50571001 0.10299357 0.65688807
-0.50171393 0.10264952 0.65469372
-0.49774444 0.10230775 0.65251392
-0.4938013 0.10196825 0.6503486
-0.491768 0.1020218 0.65069014
-0.4900617 0.10214401 0.65146959
-0.48835129 0.10226651 0.65225089
-0.48663685 0.10238931 0.65303415
-0.48491827 0.10251241 0.65381926
-0.48319551 0.1026358 0.65460622
-0.48146862 0.10275949 0.65539509
