# .PCD v0.7 - Point Cloud Data file format
VERSION 0.7
FIELDS x y z
SIZE 4 4 4
TYPE F F F
COUNT 1 1 1
WIDTH 606
HEIGHT 1
VIEWPOINT 0 0 0 1 0 0 0
POINTS 606
DATA ascii
-0.07675077 -0.27481726 1.4053752
-0.071616471 -0.27411821 1.4018004
-0.066508226 -0.27342272 1.3982437
-0.061425839 -0.27273071 1.3947049
-0.056369115 -0.27204224 1.3911842
-0.051337853 -0.27135724 1.3876811
-0.046331871 -0.27067566 1.3841957
-0.041350968 -0.26999751 1.3807276
-0.036394965 -0.26932272 1.377277
-0.031463668 -0.26865134 1.3738436
-0.0265569 -0.26798326 1.3704271
-0.021674475 -0.26731852 1.3670278
-0.016816219 -0.26665717 1.3636458
-0.012050239 -0.2675153 1.3680341
-0.0072655724 -0.26882619 1.3747377
-0.0024337834 -0.27014995 1.3815073
0.0024458272 -0.27148682 1.3883438
0.0073739728 -0.27283698 1.3952484
-0.081647694 -0.26968482 1.4044337
-0.076504387 -0.26899928 1.4008638
-0.071387149 -0.26831722 1.3973117
-0.06629581 -0.26763862 1.3937778
-0.061230145 -0.26696342 1.3902617
-0.056189988 -0.26629168 1.3867633
-0.051175121 -0.26562324 1.3832824
-0.046185371 -0.26495817 1.3798189
-0.041220546 -0.26429644 1.3763728
-0.036280464 -0.26363802 1.372944
-0.031364925 -0.26298285 1.369532
-0.026473785 -0.26233113 1.3661381
-0.021606825 -0.26168266 1.362761
-0.016798772 -0.26158088 1.362231
-0.012057685 -0.26285753 1.3688794
-0.0072700842 -0.26414639 1.3755914
-0.0024353024 -0.26544794 1.3823695
0.0024473614 -0.26676238 1.3892146
0.0073786187 -0.2680898 1.3961275
0.012359194 -0.26943043 1.403109
-0.081385761 -0.26388717 1.3999282
-0.076259583 -0.26321855 1.3963811
-0.071159296 -0.26255327 1.3928518
-0.066084735 -0.26189137 1.3893404
-0.061035693 -0.26123276 1.3858465
-0.056011986 -0.2605775 1.3823704
-0.051013414 -0.25992548 1.3789114
-0.046039801 -0.25927678 1.3754699
-0.041090965 -0.25863135 1.372046
-0.036166716 -0.25798926 1.3686396
-0.031266864 -0.25735036 1.3652502
-0.026391221 -0.25671461 1.3618776
-0.021539606 -0.25608197 1.3585215
-0.016809098 -0.25693908 1.3630683
-0.012065142 -0.25819406 1.3697261
-0.0072746021 -0.25946081 1.3764462
-0.002436823 -0.26074007 1.3832327
0.0024488971 -0.262032 1.3900864
0.0073832669 -0.26333651 1.397007
0.012367027 -0.26465437 1.4039983
-0.086260639 -0.25878191 1.3989941
-0.081125513 -0.25812662 1.3954515
-0.076016337 -0.25747469 1.3919271
-0.070932895 -0.25682598 1.3884202
-0.065875009 -0.25618058 1.3849311
-0.060842477 -0.2555384 1.3814595
-0.055835117 -0.25489944 1.3780051
-0.050852772 -0.25426385 1.3745692
-0.045895215 -0.25363147 1.3711504
-0.04096226 -0.2530022 1.3677485
-0.036053717 -0.25237602 1.3643634
-0.031169416 -0.25175297 1.3609952
-0.026309172 -0.25113299 1.3576435
-0.021520343 -0.25107065 1.3573065
-0.016819436 -0.25229156 1.3639067
-0.012072609 -0.25352478 1.3705736
-0.007279126 -0.25476941 1.3773022
-0.0024383457 -0.2560263 1.3840971
0.002450435 -0.25729567 1.3909594
0.0073879347 -0.25857773 1.3978902
0.01237487 -0.25987229 1.4048887
0.017411992 -0.26117989 1.4119577
-0.085984975 -0.25304151 1.3945234
-0.080866918 -0.25240281 1.3910035
-0.07577464 -0.25176737 1.3875015
-0.070707932 -0.25113505 1.3840169
-0.065666638 -0.25050604 1.3805504
-0.060650557 -0.24988028 1.3771018
-0.055659473 -0.24925764 1.3736703
-0.050693203 -0.24863809 1.3702559
-0.045751557 -0.2480216 1.3668585
-0.04083436 -0.24740817 1.3634778
-0.035941426 -0.24679779 1.360114
-0.031072574 -0.2461904 1.3567666
-0.026227629 -0.24558598 1.3534356
-0.021533523 -0.24643922 1.3581378
-0.016829787 -0.2476383 1.3647461
-0.012080064 -0.24884932 1.37142
-0.0072836545 -0.25007212 1.378159
-0.0024398703 -0.25130662 1.3849624
0.0024519747 -0.25255337 1.3918333
0.0073926002 -0.25381261 1.398773
0.012382725 -0.25508413 1.4057804
0.017423101 -0.25636849 1.4128585
0.022514485 -0.25766578 1.4200079
-0.090837985 -0.24796315 1.3935964
-0.085711092 -0.24733771 1.3900814
-0.080609977 -0.24671538 1.3865838
-0.075534545 -0.2460964 1.383105
-0.070484512 -0.24548052 1.3796437
-0.065459691 -0.24486773 1.3761996
-0.060459889 -0.24425794 1.3727726
-0.055484936 -0.24365123 1.3693627
-0.050534628 -0.24304751 1.3659697
-0.045608796 -0.24244677 1.3625934
-0.040707257 -0.24184901 1.3592339
-0.035829827 -0.24125417 1.3558908
-0.030976329 -0.24066225 1.3525641
-0.026207896 -0.24063614 1.3524173
-0.02154672 -0.24180208 1.3589702
-0.016840152 -0.24297935 1.3655866
-0.012087533 -0.24416816 1.372268
-0.0072881896 -0.24536905 1.3790171
-0.0024413969 -0.24658108 1.385829
0.0024535165 -0.24780516 1.3927085
0.0073972717 -0.24904148 1.3996569
0.012390588 -0.25028989 1.4066731
0.017434221 -0.25155088 1.4137602
0.02252893 -0.25282466 1.4209189
-0.095684551 -0.24289156 1.3926709
-0.090548865 -0.2422794 1.3891609
-0.085439034 -0.2416704 1.3856691
-0.080354832 -0.24106449 1.382195
-0.075296052 -0.24046157 1.378738
-0.070262514 -0.2398617 1.3752985
-0.065254033 -0.23926479 1.371876
-0.060270417 -0.23867086 1.3684705
-0.055311482 -0.23807985 1.3650819
-0.050377045 -0.23749179 1.3617101
-0.045466922 -0.2369066 1.3583548
-0.040580943 -0.23632431 1.3550161
-0.035718918 -0.23574486 1.3516937
-0.030880678 -0.23516825 1.3483876
-0.02622389 -0.23601502 1.3532428
-0.021559933 -0.23715927 1.3598036
-0.016850531 -0.23831464 1.3664281
-0.012095016 -0.23948133 1.3731176
-0.0072927293 -0.24066007 1.3798761
-0.0024429252 -0.2418496 1.3866966
0.0024550601 -0.24305095 1.3935847
0.0074019488 -0.2442643 1.4005418
0.012398463 -0.24548955 1.407567
0.017445354 -0.24672715 1.4146631
0.022543391 -0.24797729 1.421831
-0.095643081 -0.2378815 1.3920672
-0.090506881 -0.2372748 1.3885168
-0.085396826 -0.23667121 1.3849846
-0.080312699 -0.23607066 1.3814703
-0.075254306 -0.23547316 1.3779737
-0.070221469 -0.2348787 1.374495
-0.065213963 -0.2342872 1.3710335
-0.060231619 -0.23369868 1.3675896
-0.055274248 -0.23311314 1.364163
-0.050341651 -0.23253049 1.3607534
-0.045433652 -0.23195076 1.3573608
-0.040550068 -0.23137391 1.3539852
-0.03569071 -0.23079991 1.3506262
-0.030861814 -0.23027661 1.3475639
-0.026239906 -0.23138826 1.3540691
-0.021573162 -0.23251075 1.3606379
-0.016860919 -0.23364417 1.3672706
-0.012102511 -0.2347887 1.3739684
-0.0072972751 -0.23594522 1.3807362
-0.0024444556 -0.23711219 1.3875653
0.0024566054 -0.23829073 1.394462
0.0074066315 -0.23948109 1.4014279
0.012406345 -0.24068309 1.4084619
0.017456502 -0.24189724 1.415567
0.022557868 -0.2431237 1.4227442
-0.095731318 -0.23319168 1.3933516
-0.090590172 -0.23259638 1.3897946
-0.085475206 -0.23200412 1.3862557
-0.080386229 -0.2314149 1.382735
-0.075323038 -0.23082866 1.3792322
-0.070285432 -0.23024537 1.375747
-0.065273218 -0.22966503 1.3722793
-0.060286209 -0.22908761 1.3688291
-0.055324219 -0.22851308 1.3653963
-0.050387047 -0.22794141 1.3619804
-0.045474522 -0.2273726 1.3585818
-0.040586449 -0.22680664 1.3552001
-0.035722662 -0.22624353 1.3518354
-0.030882964 -0.2256832 1.3484874
-0.026255937 -0.22675581 1.3548964
-0.021586409 -0.22785653 1.3614733
-0.016871324 -0.22896795 1.3681142
-0.012110014 -0.23009028 1.3748202
-0.007301827 -0.23122452 1.3815975
-0.0024459881 -0.23236887 1.3884351
0.0024581533 -0.23352456 1.3953406
0.0074113202 -0.23469181 1.402315
0.012414239 -0.23587054 1.4093581
0.017467666 -0.23706117 1.4164723
0.022572296 -0.23826312 1.4236541
-0.095819727 -0.2284932 1.3946383
-0.090673618 -0.22790936 1.3910748
-0.085553743 -0.22732851 1.3875295
-0.080459885 -0.2267506 1.3840021
-0.075391881 -0.22617565 1.3804928
-0.070349507 -0.22560358 1.3770012
-0.065332577 -0.22503443 1.3735273
-0.060340896 -0.22446814 1.3700708
-0.055374272 -0.22390467 1.3666316
-0.050432526 -0.22334404 1.3632097
-0.045515466 -0.22278623 1.3598051
-0.040622909 -0.22223121 1.3564174
-0.035754673 -0.22167897 1.3530468
-0.030910576 -0.22112951 1.3496931
-0.02627199 -0.22211774 1.3557248
-0.021599667 -0.22319657 1.3623096
-0.016881738 -0.22428596 1.3689588
-0.012117527 -0.22538601 1.3756732
-0.0073063844 -0.22649792 1.3824599
-0.0024475222 -0.22761956 1.3893059
0.0024597028 -0.22875236 1.3962201
0.007416015 -0.22989647 1.4032034
0.012422143 -0.23105186 1.4102554
0.017478842 -0.23221891 1.4173787
0.022586875 -0.23339771 1.4245737
-0.095908307 -0.22378606 1.3959275
-0.090757221 -0.2232137 1.3923573
-0.085632414 -0.22264427 1.3888054
-0.080533691 -0.22207774 1.3852715
-0.075460851 -0.22151411 1.3817557
-0.070413701 -0.22095335 1.3782578
-0.06539204 -0.2203954 1.3747774
-0.060395684 -0.21984029 1.3713148
-0.055424426 -0.21928795 1.3678694
-0.050478086 -0.21873838 1.3644413
-0.045556486 -0.21819159 1.3610306
-0.040659435 -0.21764757 1.357637
-0.035786748 -0.21710627 1.3542606
-0.030938232 -0.21656764 1.3509007
-0.026288075 -0.21747407 1.3565549
-0.021612944 -0.21853089 1.363147
-0.016892167 -0.21959817 1.3698045
-0.01212505 -0.22067592 1.3765272
-0.0073109474 -0.2217654 1.3833232
-0.0024490582 -0.2228643 1.3901778
0.0024612541 -0.22397412 1.3971007
0.0074207163 -0.22509506 1.4040929
0.012430056 -0.22622702 1.4111538
0.017490033 -0.22737043 1.4182861
0.022601411 -0.22852537 1.4254904
-0.090840973 -0.21850938 1.3936423
-0.085711233 -0.21795143 1.3900838
-0.080607638 -0.21739635 1.3865435
-0.075529955 -0.21684407 1.3830211
-0.070478015 -0.2162946 1.3795166
-0.065451622 -0.21574795 1.3760301
-0.060450569 -0.21520403 1.372561
-0.055474665 -0.21466284 1.3691093
-0.050523739 -0.21412443 1.3656753
-0.045597594 -0.21358873 1.3622587
-0.040696029 -0.21305569 1.3588589
-0.035818875 -0.21252532 1.3554764
-0.030965937 -0.21199757 1.3521104
-0.026304191 -0.21282481 1.3573865
-0.02162624 -0.21385948 1.3639855
-0.016902609 -0.21490461 1.3706512
-0.012132581 -0.21595994 1.3773822
-0.0073154871 -0.21702613 1.3841822
-0.0024505961 -0.21810305 1.3910508
0.0024628073 -0.21918985 1.3979824
0.0074254232 -0.22028756 1.4049835
0.012437981 -0.22139606 1.4120535
0.017501241 -0.22251578 1.4191949
0.022615962 -0.22364673 1.4264082
-0.090924889 -0.21379635 1.3949296
-0.085790209 -0.21324995 1.3913646
-0.080681711 -0.21270634 1.3878177
-0.075599194 -0.21216549 1.3842889
-0.070542447 -0.21162735 1.3807778
-0.065511301 -0.21109198 1.3772848
-0.060505554 -0.21055934 1.3738095
-0.055525009 -0.21002939 1.3703518
-0.050569478 -0.20950213 1.3669116
-0.04563877 -0.20897752 1.3634888
-0.040732697 -0.20845556 1.3600832
-0.035851061 -0.20793615 1.3566943
-0.030993694 -0.20741935 1.3533224
-0.026320321 -0.20816982 1.3582189
-0.021639613 -0.20918293 1.3648291
-0.016913062 -0.21020521 1.3714989
-0.012140122 -0.21123813 1.3782383
-0.0073200627 -0.21228181 1.3850479
-0.002452136 -0.21333584 1.391925
0.0024643629 -0.21439956 1.3988653
0.0074301362 -0.21547395 1.4058752
0.012445915 -0.21655892 1.4129542
0.017512327 -0.21765321 1.420094
0.022630531 -0.2187618 1.427327
-0.060560651 -0.20590621 1.3750604
-0.055575453 -0.20538755 1.3715967
-0.050615307 -0.20487148 1.3681504
-0.045680027 -0.20435801 1.3647214
-0.040769417 -0.20384708 1.3613094
-0.035883307 -0.20333873 1.3579146
-0.031021502 -0.20283289 1.3545365
-0.026336474 -0.20350912 1.3590524
-0.021652898 -0.20449959 1.3656669
-0.016923528 -0.20549998 1.3723476
-0.012147672 -0.20651042 1.3790954
-0.0073246378 -0.20753141 1.3859136
-0.0024536781 -0.20856263 1.3928002
0.0024659201 -0.20960321 1.3997493
0.0074348547 -0.21065423 1.4067681
0.012453859 -0.21171559 1.413856
0.017523687 -0.21278763 1.4210151
0.02264512 -0.21387058 1.4282472
-0.06061589 -0.20124476 1.3763146
-0.055625986 -0.20073725 1.3728439
-0.050661221 -0.20023245 1.3693914
-0.045721352 -0.19973011 1.3659561
-0.040806212 -0.19923033 1.362538
-0.035915606 -0.19873303 1.3591369
-0.031049358 -0.19823821 1.3557528
-0.026352644 -0.19884269 1.3598869
-0.021666259 -0.19981106 1.3665096
-0.016934009 -0.20078897 1.3731976
-0.012155231 -0.20177685 1.3799536
-0.0073291739 -0.20277381 1.3867719
-0.0024552217 -0.20378341 1.3936765
0.0024674793 -0.20480078 1.4006344
0.0074395793 -0.20582837 1.407662
0.012461813 -0.20686609 1.414759
0.017534932 -0.2079142 1.4219271
0.022659726 -0.20897304 1.4291685
-0.060671236 -0.19657481 1.3775713
-0.055676613 -0.19607849 1.3740933
-0.05070721 -0.19558495 1.3706346
-0.045762755 -0.19509386 1.367193
-0.04084307 -0.19460522 1.3637687
-0.035947967 -0.19411901 1.3603615
-0.031077262 -0.19363524 1.3569713
-0.026368836 -0.19417052 1.3607224
-0.021679634 -0.19511671 1.3673532
-0.016944574 -0.19607294 1.3740543
-0.012162801 -0.19703738 1.380813
-0.0073337853 -0.1980122 1.3876444
-0.0024567675 -0.19899815 1.3945539
0.0024690379 -0.19999206 1.4015191
0.0074443105 -0.20099638 1.4085572
0.012469757 -0.20201007 1.415661
0.017546194 -0.20303452 1.4228402
0.022674354 -0.20406918 1.430091
0.027855048 -0.20511445 1.4374161
-0.060726691 -0.19189633 1.3788304
-0.055727366 -0.19141139 1.3753459
-0.050753284 -0.19092901 1.3718799
-0.045804232 -0.19044918 1.3684322
-0.040879995 -0.18997175 1.3650017
-0.035980385 -0.18949668 1.3615882
-0.03110522 -0.18902403 1.3581921
-0.026385048 -0.18949263 1.361559
-0.02169303 -0.19041659 1.368198
-0.016955025 -0.19134958 1.3749018
-0.012170379 -0.19229199 1.3816733
-0.0073383776 -0.19324394 1.3885133
-0.0024583153 -0.19420692 1.3954326
0.002470589 -0.19517653 1.4023995
0.0074490472 -0.19615823 1.4094534
0.012477606 -0.19714616 1.4165519
0.017557468 -0.19814858 1.4237546
0.022688998 -0.19915898 1.4310147
0.027873132 -0.20017977 1.4383492
-0.060782243 -0.18720931 1.3800918
-0.055778217 -0.18673576 1.3766009
-0.050799441 -0.18626462 1.3731276
-0.045845788 -0.18579608 1.3696736
-0.040916987 -0.18532988 1.3662368
-0.036012866 -0.18486604 1.3628174
-0.031133229 -0.18440451 1.3594151
-0.026401281 -0.18480897 1.3623967
-0.02170644 -0.18571065 1.3690438
-0.016965562 -0.18662117 1.3757561
-0.012177967 -0.1875407 1.3825347
-0.0073429756 -0.18846971 1.3893833
-0.0024598651 -0.18940961 1.3963122
0.002472159 -0.19035624 1.4032907
0.0074537904 -0.19131395 1.4103509
0.012485669 -0.19227929 1.4174674
0.01756876 -0.19325635 1.4246701
0.022703664 -0.19424246 1.4319396
0.027891239 -0.19523866 1.4392836
-0.060837898 -0.1825137 1.3813555
-0.05582916 -0.1820516 1.3778582
-0.050845724 -0.18159187 1.3743787
-0.045887411 -0.18113452 1.3709172
-0.040954046 -0.1806796 1.3674742
-0.036045399 -0.180227 1.3640486
-0.031161284 -0.17977664 1.36064
-0.026417531 -0.18011953 1.3632352
-0.021719866 -0.18099888 1.3698906
-0.016976107 -0.18188685 1.3766112
-0.012185648 -0.18278472 1.3834068
-0.0073475791 -0.18368948 1.3902544
-0.0024614015 -0.18460511 1.3971844
0.0024737318 -0.18552989 1.4041835
0.0074585397 -0.18646349 1.4112495
0.012493721 -0.18740582 1.4183816
0.017580066 -0.18835784 1.4255869
0.022718346 -0.18931955 1.4328656
0.027909368 -0.19029115 1.4402192
-0.060893651 -0.17780946 1.3826214
-0.055880196 -0.17735888 1.3791177
-0.050892089 -0.17691059 1.3756319
-0.045929126 -0.17646453 1.3721634
-0.040991176 -0.17602092 1.368714
-0.036077995 -0.17557958 1.3652821
-0.031189393 -0.17514044 1.3618674
-0.026433803 -0.17542434 1.3640749
-0.02173331 -0.17628129 1.3707385
-0.016986666 -0.17714666 1.3774675
-0.012193179 -0.17802042 1.3842617
-0.0073521887 -0.17890327 1.3911266
-0.0024629489 -0.17979527 1.3980627
0.0024753024 -0.18069708 1.4050751
0.0074632308 -0.18160528 1.4121372
0.012501725 -0.18252519 1.4192902
0.017591383 -0.18345299 1.4265047
0.022733049 -0.18439029 1.4337929
0.027927525 -0.18533722 1.4411561
-0.060949508 -0.17309661 1.3838897
-0.05593133 -0.17265758 1.3803797
-0.050938539 -0.17222077 1.3768874
-0.045970939 -0.17178614 1.3734126
-0.041028369 -0.17135377 1.3699559
-0.036110647 -0.17092374 1.3665178
-0.031217549 -0.17049584 1.3630968
-0.026450094 -0.17072333 1.3649156
-0.021746768 -0.17155784 1.3715874
-0.016997237 -0.17240055 1.3783247
-0.012200817 -0.17325158 1.3851287
-0.0073568681 -0.17411254 1.392012
-0.0024645084 -0.17498009 1.398948
0.0024768719 -0.17585792 1.405966
0.0074679363 -0.17674117 1.4130275
0.012509739 -0.17763829 1.4202
0.017602718 -0.17854185 1.4274238
0.022747774 -0.17945465 1.4347216
0.027945701 -0.1803768 1.4420941
-0.061005473 -0.1683751 1.3851603
-0.055982552 -0.16794766 1.3816439
-0.050985064 -0.16752236 1.3781451
-0.04601283 -0.16709922 1.3746642
-0.041065648 -0.16667822 1.3712007
-0.036143363 -0.16625947 1.3677558
-0.031245759 -0.16584288 1.3643286
-0.026466405 -0.16601655 1.3657573
-0.021760248 -0.16682856 1.3724375
-0.017007822 -0.16764854 1.3791832
-0.012208452 -0.16847664 1.3859956
-0.0073614735 -0.16931389 1.3928834
-0.0024660605 -0.17015818 1.399829
0.0024784375 -0.17101218 1.4068546
0.007472767 -0.17187364 1.4139415
0.012517762 -0.17274512 1.4211109
0.017614065 -0.17362435 1.428344
0.022762511 -0.17451259 1.4356512
0.027963905 -0.17540996 1.4430335
-0.061061539 -0.16364492 1.3864334
-0.056033872 -0.16322911 1.3829105
-0.051031686 -0.16281538 1.3794053
-0.046054795 -0.16240375 1.3759179
-0.041103002 -0.16199419 1.372448
-0.036176134 -0.16158673 1.3689959
-0.031274017 -0.16118148 1.3655626
-0.026482739 -0.16130395 1.3666002
-0.021773741 -0.1620934 1.3732885
-0.017018422 -0.16289061 1.3800427
-0.012216098 -0.16369571 1.3868636
-0.0073660538 -0.16450854 1.3937501
-0.0025057935 -0.16788816 1.422383
0.0024992435 -0.16744931 1.4186649
0.0074781831 -0.16701277 1.4149663
0.012525798 -0.16784568 1.4220231
0.017625429 -0.16870053 1.4292655
0.022777271 -0.16956413 1.4365821
0.027982131 -0.17043661 1.4439739
-0.056085281 -0.15850188 1.3841792
-0.05107839 -0.15809977 1.3806677
-0.046096835 -0.1576997 1.3771739
-0.041140433 -0.15730165 1.3736978
-0.036208987 -0.15690561 1.3702391
-0.031302333 -0.15651166 1.3667989
-0.026499089 -0.15658553 1.3674439
-0.02178725 -0.15735236 1.3741406
-0.017029034 -0.15812674 1.3809031
-0.012223752 -0.15890878 1.3877326
-0.0075575267 -0.1637464 1.4299791
-0.0025128461 -0.163335 1.4263862
0.0025065248 -0.16292411 1.422798
0.0075006583 -0.16251427 1.4192189
0.012533816 -0.16293961 1.4229333
0.017636795 -0.16377024 1.4301872
0.022792056 -0.16460928 1.4375145
0.028000364 -0.1654567 1.4449148
-0.056136791 -0.15376599 1.3854505
-0.051125176 -0.15337554 1.3819324
-0.046138957 -0.15298706 1.3784323
-0.041177925 -0.15260056 1.3749497
-0.036241904 -0.152216 1.3714849
-0.031330697 -0.15183337 1.3680373
-0.026515462 -0.15186128 1.3682888
-0.021800777 -0.15260544 1.3749938
-0.017039668 -0.15335701 1.3817655
-0.012231406 -0.15411572 1.3886015
-0.0075652115 -0.15886945 1.4314332
-0.0025155467 -0.15847945 1.4279193
0.0025093877 -0.15809141 1.4244231
0.007509802 -0.15770584 1.420949
0.01254186 -0.15802744 1.4238466
0.017648198 -0.15883379 1.4311119
0.022806821 -0.15964775 1.4384458
-0.056188393 -0.14902139 1.386724
-0.051172052 -0.14864263 1.3831995
-0.046181154 -0.14826581 1.3796929
-0.041215491 -0.14789088 1.376204
-0.03627488 -0.14751785 1.3727328
-0.031359129 -0.14714669 1.3692789
-0.026531853 -0.14713119 1.3691347
-0.021814343 -0.14785276 1.3758494
-0.017050343 -0.14858155 1.3826311
-0.012239129 -0.14931738 1.3894783
-0.0075621 -0.1537627 1.4308444
-0.0025147204 -0.15339795 1.4274502
0.0025087721 -0.15303509 1.4240737
0.007508467 -0.15267216 1.4206964
0.012549949 -0.15310937 1.4247649
0.017659564 -0.15389049 1.4320335
0.022821581 -0.1546796 1.4393767
-0.056529153 -0.14500958 1.395134
-0.051466722 -0.14459698 1.3911644
-0.046433013 -0.14418672 1.3872174
-0.041427787 -0.14377879 1.3832927
-0.0364508 -0.14337315 1.37939
-0.031501818 -0.1429698 1.3755094
-0.02658065 -0.14256895 1.3716527
-0.021827893 -0.14309396 1.376704
-0.01706096 -0.14379951 1.3834921
-0.012246784 -0.14451206 1.3903474
-0.0073847198 -0.14523283 1.3972819
-0.0025097942 -0.14807786 1.4246539
0.0025041192 -0.14774303 1.4214326
0.0074966946 -0.14743499 1.418469
0.012557993 -0.14818431 1.4256781
0.017670941 -0.14894079 1.4329561
-0.051789191 -0.14057066 1.3998809
-0.046723109 -0.14016932 1.3958842
-0.041685876 -0.13977028 1.3919103
-0.036677241 -0.13937353 1.3879591
-0.031696979 -0.13897906 1.3840309
-0.026744872 -0.13858707 1.3801272
-0.021841483 -0.13832939 1.3775611
-0.017071635 -0.13901187 1.3843577
-0.012254485 -0.13970113 1.3912216
-0.0073893117 -0.14039692 1.3981507
-0.0024961915 -0.14228292 1.4169326
0.0024915384 -0.14201769 1.4142913
0.0075014369 -0.1425273 1.4193662
0.012566049 -0.14325295 1.4265927
0.017682334 -0.14398472 1.43388
-0.047016859 -0.13610144 1.4046602
-0.041947205 -0.13571155 1.4006363
-0.036906514 -0.13532388 1.3966353
-0.031894594 -0.13493867 1.3926597
-0.026911145 -0.13455573 1.3887074
-0.021955896 -0.13417493 1.3847773
-0.017082322 -0.13421825 1.3852243
-0.012262194 -0.13488413 1.3920969
-0.0073940116 -0.13555688 1.39904
-0.0024770221 -0.13623622 1.4060513
0.0024894981 -0.13692239 1.413133
0.0075062346 -0.13761429 1.420274
0.012574114 -0.13831526 1.4275084
-0.042211827 -0.13160157 1.4094721
-0.037138697 -0.1312234 1.4054217
-0.032094691 -0.13084759 1.4013968
-0.027079491 -0.13047391 1.3973947
-0.022092856 -0.13010238 1.3934155
-0.017134542 -0.12973295 1.3894589
-0.012269913 -0.13006108 1.3929732
-0.0073986775 -0.13070996 1.3999228
-0.0024785961 -0.13136558 1.4069446
0.0024910825 -0.13202737 1.4140325
0.0075110863 -0.13269587 1.421192
0.012582175 -0.13337106 1.4284234
-0.042479809 -0.12743942 1.4184202
-0.037373841 -0.12707105 1.4143201
-0.032297313 -0.12670484 1.4102441
-0.027249958 -0.12634072 1.4061913
-0.022231534 -0.12597869 1.402162
-0.017241787 -0.12561874 1.3981556
-0.012280473 -0.12526083 1.3941721
-0.0074033681 -0.12585726 1.4008104
-0.0024801672 -0.12648852 1.4078364
0.0024926693 -0.12712614 1.4149332
