# .PCD v0.7 - Point Cloud Data file format
VERSION 0.7
FIELDS x y z
SIZE 4 4 4
TYPE F F F
COUNT 1 1 1
WIDTH 1366
HEIGHT 1
VIEWPOINT 0 0 0 1 0 0 0
POINTS 1366
DATA ascii
-0.22512923 -0.14424448 0.76522064
-0.22279026 -0.1444761 0.76644945
-0.22044374 -0.14470847 0.76768214
-0.21808973 -0.14494161 0.76891899
-0.21572818 -0.14517556 0.77016008
-0.21335895 -0.14541024 0.77140504
-0.21098208 -0.14564571 0.77265418
-0.2085975 -0.14588191 0.77390724
-0.20620517 -0.14611889 0.77516448
-0.20380504 -0.14635664 0.77642572
-0.20139711 -0.14659517 0.77769113
-0.19898127 -0.14683445 0.77896053
-0.19655758 -0.14707455 0.78023428
-0.19412594 -0.14731543 0.78151208
-0.35076958 -0.14557631 0.78699625
-0.34212044 -0.14311811 0.77370703
-0.33990303 -0.1433326 0.77486658
-0.337679 -0.14354774 0.77602971
-0.33544829 -0.14376356 0.77719635
-0.33321083 -0.14397998 0.77836639
-0.33096665 -0.14419708 0.77954006
-0.32871565 -0.14441483 0.78071719
-0.32645789 -0.14463325 0.78189796
-0.32419279 -0.1448521 0.78308111
-0.33167374 -0.14946671 0.80802804
-0.33004645 -0.15002112 0.8110252
-0.32807329 -0.15042663 0.8132174
-0.32583871 -0.15071835 0.81479448
-0.32337588 -0.15090874 0.81582379
-0.32069921 -0.15100187 0.81632721
-0.31779543 -0.15098877 0.81625646
-0.31464404 -0.15085673 0.81554258
-0.31116617 -0.15056427 0.81396157
-0.30714071 -0.14999895 0.8109054
-0.2988224 -0.14730681 0.79635149
-0.29647371 -0.14753431 0.79758137
-0.29411781 -0.14776254 0.79881513
-0.29175457 -0.14799145 0.8000527
-0.28938401 -0.14822108 0.80129409
-0.28700569 -0.14845121 0.80253822
-0.28461948 -0.14868182 0.80378485
-0.28222585 -0.14891313 0.80503535
-0.27982521 -0.14914541 0.8062911
-0.25614917 -0.13792647 0.7456407
-0.25391874 -0.13814232 0.74680752
-0.25168127 -0.13835882 0.74797797
-0.24943678 -0.13857599 0.749152
-0.24718526 -0.13879386 0.75032985
-0.2449266 -0.1390124 0.75151128
-0.24266088 -0.13923165 0.75269657
-0.24038795 -0.13945156 0.75388545
-0.23810785 -0.1396722 0.7550782
-0.23582049 -0.13989352 0.75627464
-0.23352587 -0.14011553 0.75747484
-0.23122397 -0.14033824 0.75867891
-0.22891472 -0.14056167 0.75988674
-0.22659811 -0.14078581 0.76109844
-0.2242741 -0.14101066 0.76231402
-0.22194265 -0.14123623 0.76353347
-0.21960381 -0.14146258 0.7647571
-0.21725747 -0.14168966 0.76598471
-0.21490359 -0.14191747 0.76721627
-0.21254213 -0.14214601 0.76845181
-0.21017304 -0.14237529 0.76969129
-0.20779631 -0.1426053 0.77093482
-0.20541188 -0.14283608 0.77218235
-0.20301972 -0.14306758 0.77343392
-0.20061977 -0.14329983 0.7746895
-0.19821204 -0.14353286 0.77594924
-0.19579647 -0.14376664 0.77721304
-0.19337302 -0.1440012 0.77848107
-0.35196453 -0.14328991 0.78967726
-0.34090656 -0.13989393 0.77096188
-0.33869526 -0.14010286 0.77211332
-0.33647734 -0.14031242 0.77326816
-0.33425277 -0.14052258 0.77442646
-0.3320215 -0.14073339 0.77558821
-0.32978359 -0.14094485 0.77675354
-0.32753888 -0.14115691 0.77792227
-0.32528698 -0.14136945 0.77909356
-0.32303032 -0.1415835 0.7802732
-0.32076412 -0.14179701 0.78144985
-0.33103627 -0.14760491 0.81345749
-0.32905626 -0.14800347 0.81565398
-0.32681179 -0.14828905 0.81722778
-0.324339 -0.14847519 0.81825358
-0.32164773 -0.14856376 0.81874168
-0.31872985 -0.14854831 0.8186565
-0.31555831 -0.14841327 0.8179124
-0.31205389 -0.14811775 0.8162837
-0.30006829 -0.14375365 0.79223299
-0.29773331 -0.14397432 0.7934491
-0.29539114 -0.14419568 0.79466903
-0.2930418 -0.14441772 0.79589272
-0.29068515 -0.14464043 0.79712009
-0.28832126 -0.14486384 0.79835135
-0.28595006 -0.14508796 0.79958642
-0.28357148 -0.14531274 0.80082524
-0.28118554 -0.14553826 0.802068
-0.25741783 -0.13458902 0.74172628
-0.25520104 -0.13479851 0.74288076
-0.2529774 -0.13500866 0.74403894
-0.25074676 -0.13521945 0.74520063
-0.24850917 -0.13543092 0.74636602
-0.24626458 -0.13564305 0.74753511
-0.24401291 -0.13585584 0.74870777
-0.2417542 -0.1360693 0.74988419
-0.23948835 -0.13628343 0.75106424
-0.2372154 -0.13649824 0.75224811
-0.23493518 -0.13671368 0.75343543
-0.23264781 -0.13692985 0.75462669
-0.23035318 -0.13714668 0.7558217
-0.22805126 -0.13736421 0.75702047
-0.22574201 -0.13758241 0.758223
-0.22342543 -0.13780132 0.7594294
-0.22110157 -0.13802098 0.76063997
-0.21877028 -0.13824135 0.76185441
-0.21643153 -0.13846241 0.76307267
-0.2140853 -0.13868418 0.76429492
-0.21173151 -0.13890666 0.76552099
-0.2093702 -0.13912986 0.76675111
-0.20700125 -0.13935378 0.76798511
-0.20462467 -0.13957842 0.76922309
-0.20224041 -0.13980377 0.77046502
-0.19984846 -0.14002986 0.77171105
-0.19744875 -0.14025669 0.77296108
-0.19504127 -0.14048427 0.77421528
-0.19262594 -0.14071256 0.77547342
-0.19020276 -0.14094162 0.77673572
-0.35316765 -0.14098787 0.79237664
-0.34127393 -0.13732538 0.77179271
-0.33749607 -0.136896 0.76937956
-0.3352842 -0.13710001 0.77052617
-0.33306572 -0.13730465 0.77167624
-0.33084068 -0.13750991 0.77282983
-0.3286089 -0.13771576 0.77398676
-0.32637015 -0.13792211 0.77514648
-0.32412636 -0.1381298 0.77631372
-0.32187369 -0.13833721 0.77747941
-0.31961781 -0.13854678 0.7786572
-0.31735048 -0.13875496 0.7798273
-0.31507662 -0.13896392 0.78100163
-0.31280074 -0.13917565 0.78219163
-0.31051293 -0.1393858 0.7833727
-0.30822057 -0.13959765 0.78456336
-0.30592224 -0.13981062 0.78576022
-0.30361411 -0.14002295 0.78695357
-0.30130047 -0.14023663 0.78815448
-0.29897788 -0.14045008 0.78935409
-0.29665029 -0.14066516 0.79056293
-0.29431498 -0.14088063 0.79177392
-0.29197255 -0.14109679 0.79298872
-0.2896229 -0.1413136 0.79420722
-0.28726602 -0.14153107 0.79542941
-0.28490186 -0.1417492 0.79665542
-0.26086962 -0.13108374 0.73671365
-0.25867322 -0.1312864 0.73785263
-0.25646999 -0.13148969 0.73899513
-0.25425991 -0.1316936 0.74014115
-0.25204298 -0.13189815 0.74129075
-0.24981917 -0.13210332 0.74244392
-0.24758843 -0.13230917 0.74360073
-0.2453507 -0.13251562 0.74476105
-0.24310599 -0.13272274 0.74592507
-0.24085426 -0.13293049 0.74709272
-0.23859547 -0.13313891 0.74826407
-0.23632957 -0.13334797 0.749439
-0.23405653 -0.13355768 0.75061762
-0.23177631 -0.13376804 0.75179988
-0.22948889 -0.13397907 0.75298589
-0.22719426 -0.13419077 0.75417566
-0.22489239 -0.13440315 0.75536931
-0.22258329 -0.13461624 0.75656694
-0.22026686 -0.13483001 0.75776839
-0.21794304 -0.13504446 0.7589736
-0.21561185 -0.1352596 0.76018274
-0.21327318 -0.13547541 0.76139563
-0.21092707 -0.13569194 0.76261252
-0.20857343 -0.13590914 0.76383322
-0.20621225 -0.13612704 0.76505786
-0.20384346 -0.13634562 0.76628637
-0.20146708 -0.13656494 0.76751894
-0.19908305 -0.13678496 0.76875544
-0.1966913 -0.13700567 0.76999593
-0.19429183 -0.1372271 0.77124041
-0.19188461 -0.13744925 0.77248895
-0.18946953 -0.13767211 0.77374142
-0.34241393 -0.13505569 0.77437079
-0.33630532 -0.13371176 0.76666504
-0.33409947 -0.13391031 0.76780355
-0.33188713 -0.1341095 0.76894557
-0.32966816 -0.13430926 0.77009094
-0.32744232 -0.1345095 0.7712391
-0.32521126 -0.13471094 0.77239406
-0.32297331 -0.13491291 0.77355206
-0.32072708 -0.13511482 0.77470976
-0.31847334 -0.135317 0.77586907
-0.31621745 -0.13552177 0.7770431
-0.31395 -0.13572511 0.77820903
-0.31167746 -0.13592982 0.77938277
-0.30939803 -0.13613513 0.78055996
-0.30711171 -0.13634107 0.78174078
-0.30481955 -0.13654813 0.78292799
-0.30251956 -0.13675542 0.78411651
-0.30021045 -0.13696237 0.78530312
-0.29789647 -0.13717093 0.78649896
-0.29557511 -0.13737999 0.78769761
-0.29324669 -0.13758968 0.78889996
-0.29091111 -0.13779999 0.79010582
-0.28856838 -0.13801096 0.7913155
-0.28621849 -0.13822259 0.79252887
-0.26209867 -0.12782152 0.7328921
-0.25991553 -0.1280181 0.73401922
-0.25772572 -0.1282153 0.73514992
-0.25552911 -0.1284131 0.73628408
-0.25332567 -0.12861151 0.73742163
-0.2511155 -0.12881054 0.73856288
-0.24889842 -0.12901017 0.73970753
-0.24667449 -0.12921044 0.74085581
-0.24444363 -0.12941132 0.74200761
-0.24220581 -0.12961285 0.74316305
-0.23996101 -0.12981497 0.744322
-0.23770921 -0.13001774 0.74548465
-0.23545034 -0.13022113 0.74665082
-0.23318438 -0.13042517 0.74782068
-0.23091131 -0.13062984 0.74899417
-0.22863111 -0.13083515 0.75017136
-0.22634375 -0.13104112 0.75135237
-0.22404923 -0.13124777 0.75253725
-0.22174747 -0.13145509 0.75372595
-0.21943842 -0.13166305 0.75491834
-0.21712206 -0.13187169 0.7561146
-0.21479835 -0.13208097 0.75731456
-0.21246724 -0.13229093 0.7585184
-0.21012869 -0.13250154 0.75972599
-0.20778269 -0.13271281 0.76093739
-0.20542921 -0.1329248 0.76215279
-0.2030682 -0.13313743 0.763372
-0.20069964 -0.13335077 0.76459527
-0.19832346 -0.13356477 0.76582229
-0.19593963 -0.13377947 0.76705331
-0.19354813 -0.13399486 0.76828825
-0.19120558 -0.13425072 0.7697553
-0.19019628 -0.13546354 0.77670926
-0.3435615 -0.13277078 0.77696604
-0.33512291 -0.13054989 0.76396954
-0.33292314 -0.1307431 0.76510018
-0.33071685 -0.13093688 0.76623416
-0.32850379 -0.13113114 0.767371
-0.32628459 -0.13132615 0.76851219
-0.32405984 -0.13152219 0.7696594
-0.32182577 -0.13171771 0.77080357
-0.31958714 -0.13191469 0.77195626
-0.31734169 -0.13211221 0.77311212
-0.31508917 -0.13231017 0.77427053
-0.31282982 -0.13250871 0.77543241
-0.31056368 -0.13270783 0.77659768
-0.30829075 -0.13290757 0.77776653
-0.30601096 -0.13310792 0.77893889
-0.30372441 -0.1333089 0.78011507
-0.30143207 -0.13351101 0.7812978
-0.29913163 -0.13371322 0.78248113
-0.29682308 -0.13391553 0.78366506
-0.29450771 -0.13411854 0.78485304
-0.29218605 -0.13432251 0.78604662
-0.28985736 -0.1345271 0.7872439
-0.28752151 -0.13473231 0.78844476
-0.26331502 -0.12459296 0.72910994
-0.26114503 -0.12478359 0.7302255
-0.25896841 -0.1249748 0.73134446
-0.25678512 -0.12516661 0.73246694
-0.25459507 -0.125359 0.73359275
-0.25239834 -0.12555198 0.73472214
-0.25019476 -0.12574555 0.73585486
-0.24798444 -0.12593974 0.73699123
-0.24576725 -0.12613451 0.73813105
-0.24354319 -0.1263299 0.73927438
-0.24131225 -0.12652588 0.7404213
-0.23907438 -0.12672248 0.74157178
-0.2368295 -0.12691969 0.74272579
-0.23457763 -0.12711748 0.74388331
-0.23231871 -0.12731591 0.74504447
-0.23005275 -0.12751496 0.74620926
-0.22777973 -0.12771465 0.74737787
-0.22549963 -0.12791499 0.7485503
-0.22321235 -0.12811597 0.74972636
-0.22091788 -0.12831758 0.75090617
-0.21861619 -0.12851982 0.75208968
-0.21630722 -0.1287227 0.75327694
-0.21399094 -0.12892622 0.7544679
-0.21166734 -0.12913039 0.75566274
-0.20933634 -0.12933519 0.75686121
-0.20699798 -0.12954067 0.75806361
-0.20465213 -0.12974678 0.75926977
-0.20229882 -0.12995355 0.76047975
-0.199938 -0.13016099 0.76169366
-0.19756962 -0.13036907 0.76291138
-0.19519366 -0.13057783 0.76413304
-0.1930207 -0.13093013 0.76619464
-0.19203243 -0.13210741 0.77308404
-0.19102624 -0.13330607 0.78009856
-0.34471682 -0.13047051 0.7795788
-0.33394885 -0.1274102 0.76129305
-0.33175504 -0.12759809 0.76241571
-0.32955465 -0.1277865 0.76354146
-0.32734898 -0.12797594 0.76467341
-0.32513481 -0.12816517 0.76580411
-0.32291552 -0.12835555 0.76694161
-0.32068926 -0.12854633 0.76808155
-0.31845635 -0.12873767 0.76922488
-0.3162168 -0.1289296 0.77037162
-0.31397054 -0.12912208 0.77152175
-0.31171757 -0.12931515 0.77267534
-0.30945787 -0.12950879 0.77383244
-0.30719137 -0.12970302 0.77499294
-0.30491808 -0.12989783 0.77615696
-0.3026379 -0.13009322 0.77732444
-0.30035207 -0.1302897 0.77849847
-0.29805711 -0.13048583 0.77967036
-0.29575682 -0.13068324 0.78084987
-0.29344803 -0.13088058 0.78202903
-0.29113314 -0.1310789 0.78321397
-0.28881121 -0.13127783 0.78440261
-0.26547578 -0.12183671 0.72799069
-0.26248547 -0.12163961 0.72681296
-0.26019832 -0.12176769 0.72757828
-0.25802815 -0.12195361 0.72868913
-0.25585136 -0.12214009 0.72980344
-0.25366786 -0.12232714 0.73092109
-0.25147769 -0.12251477 0.73204219
-0.2492808 -0.12270298 0.73316675
-0.24707715 -0.12289178 0.73429483
-0.24486667 -0.12308113 0.73542625
-0.24264941 -0.12327109 0.7365613
-0.24042529 -0.12346163 0.73769981
-0.23819424 -0.12365275 0.73884177
-0.23595628 -0.12384446 0.73998725
-0.23371136 -0.12403676 0.74113625
-0.23145947 -0.12422966 0.74228889
-0.22920062 -0.1244232 0.74344528
-0.22693475 -0.12461735 0.74460536
-0.2246618 -0.12481211 0.74576908
-0.22238173 -0.12500748 0.74693644
-0.2200945 -0.12520346 0.74810743
-0.21780011 -0.12540007 0.74928218
-0.21549846 -0.12559727 0.75046051
-0.21318962 -0.12579513 0.7516427
-0.21087344 -0.12599356 0.75282842
-0.20854995 -0.12619264 0.75401795
-0.20621911 -0.12639236 0.75521129
-0.20388086 -0.1265927 0.75640833
-0.20153521 -0.12679367 0.75760919
-0.19918209 -0.1269953 0.75881392
-0.19682148 -0.12719756 0.76002246
-0.19481908 -0.12764008 0.76266664
-0.19385153 -0.12878248 0.76949263
-0.19286647 -0.1299455 0.77644175
-0.34587994 -0.12815472 0.78220922
-0.33432236 -0.12486738 0.76214451
-0.33059511 -0.12447508 0.75975001
-0.32840145 -0.12465851 0.76086962
-0.32620054 -0.12484219 0.76199073
-0.3239935 -0.12502654 0.76311594
-0.32177997 -0.12521145 0.76424456
-0.31955984 -0.12539691 0.76537651
-0.31733313 -0.1255829 0.76651174
-0.31509984 -0.12576947 0.76765049
-0.31285986 -0.12595657 0.76879251
-0.31061324 -0.12614425 0.76993799
-0.30835989 -0.12633246 0.77108681
-0.3060998 -0.12652124 0.77223909
-0.30383298 -0.12671061 0.77339488
-0.30155933 -0.12690052 0.77455407
-0.29927897 -0.12709107 0.77571708
-0.29699272 -0.12728259 0.77688605
-0.29469714 -0.12747364 0.77805215
-0.29239583 -0.12766579 0.77922493
-0.29008773 -0.12785858 0.78040165
-0.28777257 -0.12805191 0.78158164
-0.26624966 -0.11961941 0.73011279
-0.26324934 -0.11942531 0.72892809
-0.26025879 -0.11923186 0.72774732
-0.25727791 -0.11903903 0.72657037
-0.25492436 -0.11913551 0.72715926
-0.25274739 -0.11931729 0.7282688
-0.2505638 -0.11949965 0.72938186
-0.24837346 -0.11968255 0.73049819
-0.24617645 -0.11986602 0.73161805
-0.24397267 -0.12005004 0.73274124
-0.24176215 -0.12023465 0.733868
-0.23954478 -0.12041982 0.73499817
-0.23732057 -0.12060554 0.73613179
-0.23508947 -0.12079182 0.73726881
-0.23285148 -0.1209787 0.7384094
-0.23060663 -0.12116619 0.73955381
-0.22835483 -0.12135427 0.74070179
-0.22609599 -0.12154294 0.7418533
-0.22383018 -0.1217322 0.74300849
-0.22155723 -0.12192203 0.74416715
-0.21927723 -0.12211248 0.74532956
-0.21699004 -0.12230348 0.74649537
-0.21469572 -0.12249511 0.74766499
-0.21239419 -0.12268732 0.74883825
-0.21008542 -0.12288015 0.7500152
-0.20776941 -0.1230736 0.75119591
-0.20544608 -0.12326765 0.75238031
-0.2031154 -0.1234623 0.75356841
-0.20077735 -0.12365757 0.75476027
-0.19843189 -0.12385347 0.75595593
-0.19660102 -0.12438023 0.75917113
-0.19565378 -0.1254883 0.76593429
-0.19468954 -0.12661627 0.7728191
-0.19370781 -0.12776472 0.77982879
-0.34705102 -0.12582329 0.78485763
-0.33542508 -0.12258507 0.76465839
-0.32944342 -0.12137389 0.75710332
-0.32725534 -0.12155199 0.75821424
-0.32506081 -0.1217306 0.75932837
-0.32285985 -0.12190973 0.76044577
-0.32065237 -0.12208939 0.76156646
-0.31843835 -0.12226958 0.76269042
-0.31621784 -0.12245031 0.76381779
-0.31399071 -0.12263157 0.76494843
-0.31175703 -0.12281337 0.76608247
-0.30951664 -0.1229957 0.76721978
-0.30726963 -0.12317858 0.76836056
-0.30501595 -0.123362 0.76950473
-0.30275553 -0.12354597 0.77065229
-0.30048838 -0.12373051 0.77180338
-0.29821441 -0.12391558 0.7729578
-0.29593468 -0.12410165 0.77411842
-0.29364714 -0.12428786 0.77528
-0.29135105 -0.12447392 0.77644062
-0.2890498 -0.12466129 0.77760935
-0.28674141 -0.12484913 0.77878106
-0.267028 -0.11738913 0.73224723
-0.26401767 -0.11719809 0.73105562
-0.26101717 -0.1170077 0.72986794
-0.25802639 -0.11681791 0.72868413
-0.25504526 -0.11662874 0.72750407
-0.25207382 -0.11644018 0.72632796
-0.24965648 -0.11650636 0.72674072
-0.24747272 -0.11668403 0.72784901
-0.24528232 -0.11686226 0.72896075
-0.24308518 -0.11704101 0.73007578
-0.24088134 -0.11722033 0.73119432
-0.23867072 -0.11740019 0.73231626
-0.23645329 -0.1175806 0.73344159
-0.23422903 -0.11776156 0.73457038
-0.23199801 -0.11794312 0.73570293
-0.22976008 -0.11812524 0.73683894
-0.22751524 -0.11830792 0.73797846
-0.22526346 -0.11849118 0.73912162
-0.22300462 -0.11867497 0.74026805
-0.2207388 -0.11885935 0.74141818
-0.21846594 -0.11904432 0.74257195
-0.216186 -0.11922985 0.74372929
-0.21389893 -0.11941597 0.74489021
-0.21160473 -0.11960267 0.74605483
-0.20930332 -0.11978995 0.74722302
-0.2069947 -0.11997782 0.74839491
-0.20467882 -0.12016628 0.74957049
-0.20235567 -0.12035533 0.75074977
-0.20002517 -0.12054497 0.75193268
-0.19836667 -0.12115011 0.75570744
-0.19743946 -0.12222444 0.76240879
-0.19649567 -0.12331797 0.76923007
-0.19553484 -0.12443126 0.77617449
-0.19455649 -0.12556483 0.78324544
-0.34823009 -0.12347601 0.7875241
-0.3365351 -0.12028765 0.76718885
-0.33036307 -0.1190377 0.75921679
-0.32713532 -0.11883691 0.75793612
-0.32392901 -0.11864067 0.75668448
-0.32173401 -0.11881464 0.75779408
-0.3195326 -0.11898912 0.75890696
-0.3173247 -0.11916413 0.76002312
-0.31511033 -0.11933965 0.76114261
-0.3128894 -0.11951569 0.76226538
-0.31066191 -0.11969225 0.76339144
-0.30842784 -0.11986934 0.76452088
-0.30618712 -0.12004694 0.76565361
-0.30393976 -0.12022506 0.76678967
-0.30168575 -0.12040372 0.7679292
-0.29942498 -0.12058292 0.76907206
-0.2971575 -0.12076264 0.77021831
-0.29488334 -0.12094294 0.77136827
-0.29260266 -0.1211239 0.77252239
-0.29031464 -0.12130518 0.7736786
-0.2880193 -0.12148681 0.77483708
-0.28571758 -0.12166921 0.77600038
-0.26781094 -0.11514577 0.73439419
-0.26479056 -0.11495785 0.73319566
-0.26177996 -0.11477053 0.73200095
-0.25877923 -0.11458384 0.73081023
-0.25578824 -0.11439775 0.72962338
-0.2528069 -0.11421225 0.72844028
-0.24983524 -0.11402737 0.72726107
-0.2468732 -0.11384308 0.72608572
-0.24439463 -0.11388022 0.72632259
-0.24220414 -0.1140538 0.72742969
-0.24000695 -0.11422791 0.72854012
-0.237803 -0.11440253 0.72965384
-0.23559235 -0.1145777 0.73077106
-0.23337495 -0.11475343 0.73189187
-0.23115076 -0.11492971 0.73301619
-0.2289197 -0.11510652 0.73414385
-0.22668177 -0.11528388 0.73527503
-0.22443695 -0.11546178 0.73640972
-0.22218516 -0.11564023 0.73754787
-0.21992643 -0.11581925 0.7386896
-0.21766068 -0.1159988 0.73983485
-0.21538791 -0.11617893 0.74098366
-0.21310806 -0.11635961 0.74213606
-0.21082109 -0.11654085 0.74329197
-0.208527 -0.11672266 0.74445152
-0.20622575 -0.11690504 0.74561477
-0.20391728 -0.11708799 0.74678159
-0.20160159 -0.11727151 0.7479521
-0.20011629 -0.11794934 0.75227523
-0.19920877 -0.11899047 0.75891554
-0.19828512 -0.12005017 0.76567423
-0.19734482 -0.12112889 0.77255428
-0.1963875 -0.12222718 0.77955914
-0.19541267 -0.12334558 0.7866922
-0.34941718 -0.12111273 0.7902087
-0.33765253 -0.11797498 0.76973623
-0.33136725 -0.11671641 0.76152456
-0.32812801 -0.11651892 0.76023608
-0.32489967 -0.1163221 0.7589519
-0.32168224 -0.11612596 0.75767213
-0.31847566 -0.11593047 0.75639665
-0.31621885 -0.11608034 0.75737453
-0.31401056 -0.11625072 0.75848615
-0.31179577 -0.1164216 0.75960106
-0.30957446 -0.11659297 0.76071924
-0.30734661 -0.11676487 0.76184076
-0.30511218 -0.11693726 0.76296556
-0.30287114 -0.11711017 0.7640937
-0.30062345 -0.11728359 0.76522517
-0.29836914 -0.11745753 0.7663601
-0.29610807 -0.11763197 0.76749825
-0.29384032 -0.11780695 0.76863986
-0.29156658 -0.11798275 0.76978695
-0.28928468 -0.11815853 0.77093381
-0.28699613 -0.11833489 0.77208447
-0.28470102 -0.11851191 0.77323943
-0.26859847 -0.11288922 0.73655379
-0.26556793 -0.11270444 0.73534822
-0.26254725 -0.11252026 0.73414648
-0.25953647 -0.11233669 0.73294878
-0.2565355 -0.11215371 0.7317549
-0.25354427 -0.11197133 0.73056495
-0.25056276 -0.11178954 0.72937888
-0.24759091 -0.11160834 0.72819662
-0.2446287 -0.11142773 0.72701824
-0.24167602 -0.1112477 0.72584355
-0.23913884 -0.11125711 0.725905
-0.23694162 -0.1114266 0.72701085
-0.23473769 -0.11159661 0.72812009
-0.23252706 -0.11176715 0.72923279
-0.23030965 -0.11193821 0.73034889
-0.22808544 -0.1121098 0.73146838
-0.2258544 -0.1122819 0.73259133
-0.2236165 -0.11245453 0.73371768
-0.22137211 -0.11262792 0.73484892
-0.21917617 -0.11283034 0.73616964
-0.21697235 -0.1130335 0.73749518
-0.21476057 -0.1132374 0.7388255
-0.21254079 -0.11344202 0.74016058
-0.21031299 -0.11364739 0.74150056
-0.20807709 -0.11385351 0.74284536
-0.20583309 -0.11406038 0.7441951
-0.20358092 -0.114268 0.74554974
-0.20185009 -0.1147775 0.74887401
-0.20096195 -0.11578602 0.75545418
-0.20005807 -0.11681243 0.76215106
-0.19913803 -0.1178572 0.76896775
-0.19820134 -0.11892081 0.77590734
-0.19724762 -0.1200038 0.78297341
-0.19627638 -0.1211067 0.79016936
-0.3506124 -0.11873329 0.79291171
-0.33877736 -0.11564689 0.77230048
-0.33237755 -0.11438094 0.76384634
-0.32912672 -0.11418682 0.76255
-0.32588691 -0.11399336 0.76125807
-0.32265806 -0.11380056 0.75997049
-0.3194401 -0.1136084 0.75868726
-0.31623301 -0.1134169 0.75740838
-0.31303668 -0.11322603 0.75613374
-0.3107098 -0.11334907 0.75695539
-0.30849463 -0.11351534 0.75806576
-0.30627298 -0.11368211 0.75917947
-0.30404475 -0.11384936 0.7602964
-0.30181 -0.11401711 0.76141667
-0.29956865 -0.11418536 0.76254022
-0.29732066 -0.1143541 0.76366711
-0.29506603 -0.11452334 0.76479733
-0.29280472 -0.11469309 0.76593089
-0.29053673 -0.11486336 0.76706797
-0.28826261 -0.11503437 0.76820999
-0.28598017 -0.11520528 0.76935136
-0.2836917 -0.11537701 0.77049816
-0.26939064 -0.11061935 0.73872608
-0.26634988 -0.11043776 0.73751342
-0.26331908 -0.11025675 0.73630464
-0.26029819 -0.11007635 0.73509985
-0.25728714 -0.10989653 0.733899
-0.25428596 -0.10971729 0.73270208
-0.25129452 -0.10953864 0.73150897
-0.24831283 -0.10936058 0.73031986
-0.24534082 -0.10918309 0.72913462
-0.24237843 -0.10900617 0.72795314
-0.23942551 -0.10882978 0.72677517
-0.2372794 -0.10902026 0.72804725
-0.23513216 -0.1092144 0.72934365
-0.23297726 -0.10940921 0.73064464
-0.23081467 -0.10960472 0.73195034
-0.22864431 -0.10980094 0.73326069
-0.22646621 -0.10999788 0.73457581
-0.22428027 -0.11019551 0.73589563
-0.22208643 -0.11039384 0.73722011
-0.21988471 -0.1105929 0.73854947
-0.21767502 -0.11079267 0.73988354
-0.21545734 -0.11099317 0.7412225
-0.21323162 -0.1111944 0.74256635
-0.2109978 -0.11139636 0.74391502
-0.20875588 -0.11159905 0.74526864
-0.20650575 -0.11180247 0.74662709
-0.20424743 -0.11200666 0.74799067
-0.20269924 -0.1126107 0.75202447
-0.20181479 -0.11360435 0.7586602
-0.20091464 -0.11461573 0.7654143
-0.1999983 -0.11564527 0.77228969
-0.19906534 -0.11669347 0.77928966
-0.19811532 -0.11776086 0.78641772
-0.19714779 -0.11884795 0.79367745
-0.35181585 -0.11633751 0.79563326
-0.3399097 -0.11330324 0.77488184
-0.33339408 -0.11203121 0.76618242
-0.33013159 -0.11184049 0.76487815
-0.32688016 -0.11165042 0.76357824
-0.32363981 -0.11146101 0.76228285
-0.3204104 -0.11127224 0.76099181
-0.31719193 -0.11108409 0.75970507
-0.31398433 -0.11089659 0.75842279
-0.31078753 -0.11070972 0.75714475
-0.30760148 -0.11052348 0.75587106
-0.30520678 -0.1106208 0.7565366
-0.30298477 -0.11078298 0.75764579
-0.30075628 -0.11094564 0.75875825
-0.29852122 -0.11110879 0.75987405
-0.29627955 -0.11127241 0.760993
-0.29403129 -0.11143652 0.7621153
-0.29177639 -0.1116011 0.76324093
-0.28951481 -0.11176618 0.7643699
-0.28724709 -0.11193196 0.7655037
-0.28497127 -0.1120977 0.76663715
-0.28268951 -0.11226425 0.76777625
-0.27018753 -0.10833606 0.7409113
-0.26713648 -0.10815769 0.73969144
-0.26409546 -0.10797991 0.73847556
-0.26106435 -0.10780269 0.73726356
-0.25804323 -0.10762607 0.73605567
-0.255032 -0.10745003 0.73485172
-0.25203058 -0.10727455 0.73365164
-0.24903898 -0.10709966 0.73245555
-0.24605702 -0.1069253 0.7312631
-0.24308474 -0.1067515 0.73007447
-0.24018304 -0.10660531 0.72907466
-0.23803796 -0.10679541 0.73037475
-0.23588519 -0.10698618 0.73167944
-0.23372473 -0.10717764 0.73298883
-0.23155653 -0.10736979 0.73430294
-0.22938053 -0.10756262 0.73562175
-0.22719671 -0.10775615 0.73694527
-0.22500502 -0.10795038 0.73827362
-0.2228054 -0.10814531 0.73960674
-0.22059783 -0.10834094 0.74094468
-0.21838227 -0.10853729 0.74228752
-0.21615863 -0.10873434 0.74363512
-0.21392693 -0.10893212 0.74498773
-0.2116871 -0.10913062 0.74634528
-0.20943907 -0.10932983 0.74770766
-0.20718282 -0.10952978 0.74907511
-0.20491832 -0.10973046 0.75044757
-0.20355573 -0.11042566 0.75520205
-0.2026749 -0.11140408 0.76189351
-0.20177856 -0.11240014 0.76870555
-0.20086606 -0.11341417 0.77564049
-0.19993691 -0.11444664 0.78270161
-0.19899069 -0.1154981 0.78989249
-0.35302755 -0.11392523 0.79837358
-0.34104967 -0.11094387 0.7774806
-0.33441678 -0.10966705 0.76853275
-0.33114254 -0.10947978 0.76722044
-0.32787952 -0.10929317 0.76591271
-0.32462755 -0.10910719 0.76460934
-0.32138661 -0.10892182 0.76331031
-0.31815672 -0.10873711 0.76201588
-0.31493771 -0.108553 0.76072568
-0.31172964 -0.10836953 0.75943995
-0.30853233 -0.10818666 0.75815845
-0.30534586 -0.10800443 0.75688136
-0.3021701 -0.10782281 0.75560856
-0.29970989 -0.10789556 0.75611842
-0.29748106 -0.10805365 0.75722635
-0.29524571 -0.10821223 0.75833756
-0.29300377 -0.10837126 0.75945204
-0.29075524 -0.10853076 0.76056981
-0.28850007 -0.10869073 0.76169086
-0.28623831 -0.10885119 0.76281536
-0.28397003 -0.10901219 0.76394361
-0.28169438 -0.10917342 0.76507348
-0.27098912 -0.10603923 0.74310946
-0.26792771 -0.10586412 0.74188232
-0.26487637 -0.10568959 0.74065924
-0.26183507 -0.10551563 0.73944014
-0.25880376 -0.10534224 0.73822504
-0.25578243 -0.10516942 0.737014
-0.25277096 -0.10499717 0.73580688
-0.24976926 -0.10482544 0.7346034
-0.24677736 -0.10465427 0.73340386
-0.24379519 -0.10448365 0.73220819
-0.24095197 -0.10436957 0.73140872
-0.23880138 -0.10455628 0.73271716
-0.23664306 -0.10474365 0.73403025
-0.234477 -0.1049317 0.73534805
-0.23230316 -0.10512042 0.73667061
-0.23012148 -0.10530983 0.73799795
-0.22793193 -0.10549992 0.73933011
-0.22573444 -0.1056907 0.74066699
-0.22352901 -0.10588217 0.74200881
-0.22131559 -0.10607433 0.74335551
-0.2190941 -0.1062672 0.74470705
-0.21686451 -0.10646077 0.74606353
-0.21462679 -0.10665503 0.74742496
-0.2123809 -0.10685002 0.7487914
-0.21012679 -0.10704572 0.75016284
-0.20786437 -0.10724212 0.75153923
-0.20559365 -0.10743926 0.75292075
-0.20441948 -0.10822207 0.75840658
-0.20354237 -0.10918497 0.76515448
-0.20264994 -0.1101654 0.77202517
-0.20174135 -0.1111636 0.77902043
-0.20081614 -0.11218005 0.7861436
-0.19987383 -0.11321525 0.79339814
-0.34219733 -0.10856862 0.78009683
-0.33544582 -0.10728834 0.77089757
-0.33215979 -0.10710458 0.76957726
-0.32888496 -0.10692145 0.76826137
-0.32562131 -0.10673893 0.76694995
-0.32236883 -0.10655706 0.76564312
-0.31912735 -0.10637578 0.76434064
-0.31589696 -0.10619514 0.76304269
-0.31267744 -0.1060151 0.76174903
-0.30946887 -0.10583568 0.76045978
-0.30627114 -0.10565686 0.75917494
-0.30308416 -0.10547863 0.75789434
-0.29990795 -0.10530102 0.75661808
-0.29674241 -0.105124 0.75534618
-0.29421908 -0.10517333 0.75570065
-0.29198343 -0.10532736 0.75680739
-0.28974125 -0.10548183 0.75791734
-0.28749245 -0.10563677 0.75903058
-0.28523707 -0.10579216 0.76014709
-0.28297535 -0.10594812 0.76126772
-0.2807062 -0.10610425 0.7623896
-0.27179548 -0.10372872 0.74532068
-0.26872364 -0.10355692 0.74408627
-0.26566195 -0.10338569 0.74285591
-0.26261035 -0.10321502 0.7416296
-0.25956881 -0.1030449 0.74040729
-0.2565372 -0.10287533 0.73918885
-0.25351551 -0.10270628 0.73797423
-0.25050378 -0.10253782 0.73676372
-0.24750187 -0.10236988 0.73555708
-0.24450982 -0.10220252 0.7343545
-0.24172583 -0.10211947 0.73375779
-0.23956971 -0.10230274 0.73507464
-0.23740582 -0.10248666 0.73639619
-0.23523414 -0.10267126 0.73772252
-0.23305464 -0.10285652 0.73905367
-0.23086724 -0.10304244 0.74038959
-0.22867194 -0.10322905 0.74173039
-0.22646867 -0.10341633 0.74307609
-0.22425736 -0.10360428 0.74442655
-0.22203802 -0.10379292 0.74578202
-0.21981059 -0.10398225 0.74714243
-0.21757503 -0.10417229 0.74850786
-0.21533126 -0.104363 0.74987823
-0.21307926 -0.10455442 0.7512536
-0.21081901 -0.10474655 0.75263411
-0.20855041 -0.10493938 0.75401962
-0.20627344 -0.10513292 0.75541025
-0.20529059 -0.10599972 0.76163846
-0.2044173 -0.1069468 0.76844352
-0.2035289 -0.1079113 0.7753737
-0.20262432 -0.10889334 0.78242999
-0.20170313 -0.10989343 0.78961593
-0.20076485 -0.11091205 0.79693502
-0.34335271 -0.10617734 0.78273076
-0.33648121 -0.10489495 0.77327704
-0.33318323 -0.10471473 0.77194846
-0.32989663 -0.10453514 0.77062458
-0.32662123 -0.10435615 0.76930511
-0.32335702 -0.10417778 0.76799011
-0.320104 -0.10400003 0.76667976
-0.31686202 -0.10382287 0.76537377
-0.31363106 -0.10364631 0.76407218
-0.3104111 -0.10347036 0.76277512
-0.30720204 -0.10329501 0.76148242
-0.30400386 -0.10312025 0.76019412
-0.30081645 -0.10294607 0.75891006
-0.29763979 -0.10277249 0.75763041
-0.29447386 -0.10259949 0.75635511
-0.29131857 -0.10242707 0.75508404
-0.28873429 -0.1024541 0.7552833
-0.28649184 -0.10260406 0.75638878
-0.2842429 -0.10275447 0.75749761
-0.28198731 -0.10290532 0.75860965
-0.27972499 -0.10305657 0.75972468
-0.2726067 -0.10140443 0.74754518
-0.26952434 -0.10123597 0.74630332
-0.26645219 -0.10106807 0.74506563
-0.26339021 -0.10090072 0.74383193
-0.26033825 -0.10073389 0.74260205
-0.25729635 -0.10056762 0.74137628
-0.2542645 -0.10040188 0.7401545
-0.25124264 -0.10023671 0.73893684
-0.24823068 -0.10007206 0.73772305
-0.24522862 -0.099907957 0.73651332
-0.2425047 -0.099854872 0.73612201
-0.24034299 -0.10003465 0.73744732
-0.23817351 -0.10021508 0.73877746
-0.2359962 -0.10039617 0.74011242
-0.23381098 -0.10057791 0.74145216
-0.23161787 -0.10076031 0.74279684
-0.22941674 -0.10094336 0.74414629
-0.22720763 -0.1011271 0.74550074
-0.22499049 -0.10131151 0.74686021
-0.22276521 -0.10149658 0.7482245
-0.22053181 -0.10168233 0.74959385
-0.21829018 -0.10186875 0.75096816
-0.21604036 -0.10205587 0.75234759
-0.21378224 -0.10224368 0.75373209
-0.21151578 -0.10243218 0.75512165
-0.20924097 -0.10262137 0.7565164
-0.20702304 -0.1028437 0.75815541
-0.20616916 -0.10375834 0.764898
-0.20529994 -0.10468937 0.77176154
-0.20441549 -0.10563754 0.77875131
-0.20351505 -0.10660312 0.78586954
-0.20259799 -0.10758652 0.79311907
-0.20166385 -0.10858823 0.80050361
-0.34451598 -0.10376988 0.78538263
-0.33752298 -0.10248674 0.77567118
-0.33421305 -0.10231011 0.77433443
-0.3309145 -0.1021341 0.77300227
-0.32762724 -0.10195868 0.77167463
-0.32435134 -0.10178389 0.77035171
-0.32108656 -0.10160967 0.76903313
-0.31783298 -0.10143606 0.76771909
-0.31459054 -0.10126305 0.7664097
-0.31135908 -0.10109061 0.76510459
-0.30813864 -0.10091877 0.76380402
-0.30492911 -0.1007475 0.7625078
-0.30173042 -0.10057681 0.76121593
-0.29854262 -0.10040671 0.75992852
-0.29536554 -0.10023718 0.75864542
-0.29219919 -0.10006822 0.75736666
-0.28904355 -0.099899836 0.75609225
-0.28589842 -0.099732004 0.75482202
-0.28325558 -0.099737875 0.75486642
-0.28100637 -0.09988378 0.75597072
-0.27875057 -0.1000301 0.75707817
-0.27342275 -0.099066213 0.74978292
-0.27032977 -0.098901145 0.74853361
-0.26724705 -0.098736592 0.74728823
-0.26417455 -0.098572589 0.74604696
-0.26111221 -0.098409131 0.74480981
-0.25806001 -0.098246194 0.74357665
-0.25501791 -0.098083816 0.74234766
-0.25198588 -0.097921968 0.74112272
-0.24896379 -0.097760648 0.73990178
-0.24595167 -0.097599864 0.73868489
-0.24328858 -0.097575635 0.73850149
-0.24112131 -0.097751886 0.73983544
-0.23894618 -0.097928762 0.74117416
-0.23676318 -0.098106287 0.74251777
-0.23457226 -0.098284468 0.74386632
-0.23237336 -0.098463289 0.74521971
-0.23016645 -0.098642766 0.7465781
-0.22795147 -0.098822892 0.74794137
-0.22572839 -0.09900368 0.74930966
-0.22349717 -0.099185131 0.75068301
-0.22125775 -0.099367253 0.75206137
-0.21901008 -0.099550039 0.75344479
-0.21675414 -0.099733494 0.75483328
-0.21448986 -0.099917635 0.75622696
-0.21221723 -0.10010246 0.75762582
-0.20993613 -0.10028796 0.75902975
-0.20790495 -0.10059917 0.76138514
-0.20705526 -0.10149768 0.7681855
-0.20619029 -0.1024124 0.77510852
-0.20530985 -0.10334389 0.78215855
-0.20441365 -0.10429268 0.78933948
-0.20350082 -0.10525905 0.79665345
-0.20257093 -0.10624349 0.80410421
-0.34568721 -0.10134605 0.78805262
-0.33857125 -0.10006357 0.77808022
-0.33524922 -0.099890582 0.77673513
-0.33193865 -0.099718198 0.77539468
-0.32863954 -0.099546418 0.77405894
-0.32535172 -0.099375211 0.77272767
-0.32207525 -0.099204607 0.77140111
-0.31880996 -0.099034578 0.77007896
-0.31555584 -0.098865137 0.7687614
-0.31231287 -0.098696277 0.76744837
-0.30908093 -0.098527983 0.76613975
-0.30586001 -0.098360263 0.7648356
-0.30265003 -0.098193124 0.76353592
-0.29945093 -0.098026536 0.76224059
-0.29626271 -0.09786053 0.76094973
-0.29308522 -0.097695075 0.75966316
-0.28991848 -0.097530179 0.75838095
-0.28676242 -0.097365849 0.75710315
-0.28361696 -0.097202055 0.75582951
-0.28048208 -0.09703882 0.75456023
-0.27778295 -0.097024672 0.7544502
-0.27424362 -0.09671393 0.75203395
-0.27113995 -0.096552268 0.75077689
-0.26804662 -0.096391149 0.749524
-0.26496357 -0.096230552 0.74827522
-0.2618908 -0.096070498 0.74703068
-0.25882822 -0.095910966 0.74579018
-0.25577581 -0.095751971 0.74455386
-0.2527335 -0.095593497 0.7433216
-0.24970125 -0.095435552 0.74209344
-0.24667899 -0.095278129 0.74086934
-0.24407755 -0.095281608 0.7408964
-0.24190466 -0.095454268 0.742239
-0.23972389 -0.095627561 0.74358648
-0.23753519 -0.095801488 0.74493891
-0.23533849 -0.09597604 0.74629617
-0.23313382 -0.096151233 0.74765849
-0.23092104 -0.096327066 0.7490257
-0.22870019 -0.096503548 0.75039804
-0.22647117 -0.096680671 0.75177532
-0.22423394 -0.096858449 0.75315768
-0.2219885 -0.097036891 0.75454521
-0.21973474 -0.097215973 0.75593776
-0.21747267 -0.097395733 0.75733554
-0.21520218 -0.097576149 0.7587384
-0.2129233 -0.097757243 0.76014656
-0.21063595 -0.097939007 0.76155996
-0.2087944 -0.09833543 0.76464248
-0.20794903 -0.099217512 0.77150142
-0.20708837 -0.10011557 0.77848458
-0.20621209 -0.10103008 0.78559572
-0.20532022 -0.10196175 0.79284018
-0.20441176 -0.10291075 0.80021954
-0.2034862 -0.10387757 0.80773741
-0.33962601 -0.097625293 0.78050423
-0.33629185 -0.097456001 0.77915078
-0.33296922 -0.097287305 0.77780205
-0.32965806 -0.097119182 0.77645791
-0.32635835 -0.096951641 0.77511847
-0.32306999 -0.096784681 0.77378362
-0.31979293 -0.096618287 0.77245331
-0.31652713 -0.096452475 0.77112764
-0.31327251 -0.096287221 0.7698065
-0.31002903 -0.096122533 0.76848984
-0.30679661 -0.095958412 0.7671777
-0.30357522 -0.095794849 0.76587003
-0.30036476 -0.09563183 0.76456672
-0.29716524 -0.095469378 0.76326793
-0.29397658 -0.095307477 0.7619735
-0.29079869 -0.09514612 0.76068348
-0.28763157 -0.094985306 0.7593978
-0.28447512 -0.094825037 0.75811648
-0.2813293 -0.094665311 0.75683945
-0.2781941 -0.09450613 0.75556684
-0.27506933 -0.094347447 0.75429821
-0.27195492 -0.094189264 0.75303352
-0.26885092 -0.094031602 0.75177306
-0.26575732 -0.093874477 0.75051683
-0.26267403 -0.093717866 0.74926478
-0.259601 -0.093561783 0.74801689
-0.25653821 -0.093406223 0.74677318
-0.25348559 -0.093251176 0.74553365
-0.25044307 -0.093096636 0.7442981
-0.24741063 -0.092942618 0.74306673
-0.24487166 -0.092972666 0.74330693
-0.24269311 -0.093141682 0.74465823
-0.24050668 -0.09331134 0.7460146
-0.23831223 -0.093481593 0.74737579
-0.23610979 -0.093652487 0.74874204
-0.23389925 -0.093823999 0.75011325
-0.2316806 -0.09399613 0.75148946
-0.22945383 -0.094168916 0.75287086
-0.22721885 -0.094342329 0.75425726
-0.22497562 -0.094516382 0.75564879
-0.22272408 -0.094691075 0.75704545
-0.22046423 -0.094866425 0.75844735
-0.21819595 -0.095042408 0.75985432
-0.21591927 -0.095219061 0.76126665
-0.21363409 -0.095396355 0.76268411
-0.21134041 -0.095574327 0.76410699
-0.20969149 -0.096052229 0.76792777
-0.20885056 -0.096917577 0.77484614
-0.2079943 -0.097798645 0.78189015
-0.20712236 -0.098695889 0.78906351
-0.20623486 -0.099610038 0.79637206
-0.20533086 -0.10054132 0.80381757
-0.20440979 -0.10149018 0.81140357
-0.34068742 -0.095171794 0.78294349
-0.33734098 -0.095006235 0.78158152
-0.3340061 -0.094841242 0.78022414
-0.33068284 -0.094676837 0.77887166
-0.32737109 -0.094512999 0.77752382
-0.32407081 -0.094349727 0.77618068
-0.32078189 -0.094187021 0.77484214
-0.31750429 -0.094024874 0.77350819
-0.31423792 -0.093863279 0.77217883
-0.31098282 -0.093702242 0.77085406
-0.30773884 -0.093541756 0.76953381
-0.30450594 -0.09338183 0.7682181
-0.3012841 -0.093222439 0.76690686
-0.29807323 -0.093063593 0.76560009
-0.2948733 -0.09290529 0.76429778
-0.29168424 -0.092747517 0.76299989
-0.28850594 -0.09259028 0.76170635
-0.28533843 -0.092433579 0.76041722
-0.28218165 -0.092277408 0.75913244
-0.27903551 -0.092121772 0.75785208
-0.27589998 -0.091966651 0.756576
-0.27277482 -0.091812007 0.7553038
-0.26966009 -0.09165787 0.75403571
-0.26655585 -0.091504246 0.75277191
-0.26346198 -0.091351137 0.75151235
-0.26037845 -0.091198541 0.75025702
-0.25730518 -0.091046445 0.74900579
-0.25424218 -0.09089487 0.74775881
-0.25118932 -0.090743788 0.74651593
-0.24814662 -0.090593211 0.74527717
-0.24567096 -0.090648644 0.7457332
-0.24348676 -0.09081398 0.74709338
-0.24129459 -0.090979926 0.74845856
-0.23909441 -0.091146484 0.74982876
-0.23688613 -0.091313645 0.75120395
-0.23466977 -0.091481432 0.75258428
-0.23244521 -0.091649823 0.75396955
-0.23021246 -0.091818847 0.75536001
-0.22797148 -0.091988489 0.75675565
-0.22572219 -0.092158765 0.75815642
-0.22346453 -0.092329659 0.75956231
-0.22119854 -0.092501208 0.76097357
-0.21892409 -0.092673384 0.76239002
-0.21664114 -0.0928462 0.76381171
-0.21434969 -0.093019679 0.76523882
-0.21204962 -0.093193784 0.76667112
-0.21059634 -0.093749337 0.77124149
-0.20975991 -0.094597608 0.77821988
-0.20890822 -0.095461376 0.78532577
-0.20804082 -0.096341051 0.79256254
-0.2071577 -0.097237289 0.79993558
-0.2062583 -0.098150499 0.80744821
-0.33504945 -0.09237989 0.78266138
-0.331714 -0.092219248 0.78130037
-0.32839018 -0.092059173 0.77994418
-0.32507786 -0.091899648 0.77859265
-0.32177699 -0.091740668 0.77724576
-0.31848747 -0.091582231 0.77590346
-0.31520933 -0.091424353 0.77456588
-0.31194252 -0.091267027 0.77323294
-0.30868688 -0.091110229 0.77190453
-0.30544245 -0.090953976 0.77058071
-0.30220908 -0.090798244 0.76926136
-0.29898679 -0.090643056 0.76794654
-0.2957755 -0.090488397 0.76663625
-0.29257515 -0.090334266 0.76533043
-0.28938571 -0.090180658 0.76402903
-0.28620705 -0.090027571 0.76273203
-0.28303918 -0.089875005 0.76143944
-0.27988204 -0.089722946 0.76015121
-0.27673557 -0.089571416 0.75886738
-0.27359965 -0.089420378 0.75758779
-0.27047417 -0.089269802 0.75631207
-0.26735917 -0.089119725 0.75504059
-0.26425463 -0.088970155 0.75377339
-0.26116055 -0.088821098 0.75251055
-0.25807676 -0.088672526 0.75125182
-0.25500327 -0.088524453 0.74999732
-0.25194004 -0.088376872 0.74874699
-0.24888703 -0.08822979 0.7475009
-0.24647549 -0.0883094 0.74817532
-0.24428557 -0.088470988 0.74954438
-0.24208769 -0.088633195 0.75091863
-0.23988169 -0.08879599 0.75229782
-0.23766761 -0.088959381 0.75368214
-0.23544534 -0.089123376 0.75507152
-0.23321488 -0.089287981 0.75646609
-0.23097613 -0.089453183 0.75786573
-0.22872908 -0.089619003 0.75927055
-0.22647375 -0.089785449 0.76068074
-0.22420999 -0.089952506 0.76209611
-0.22193776 -0.090120181 0.76351666
-0.21965708 -0.090288498 0.76494265
-0.21736784 -0.090457425 0.76637387
-0.21507004 -0.090627 0.76781052
-0.21276362 -0.090797208 0.7692526
-0.21150902 -0.091426477 0.77458388
-0.21067725 -0.092257358 0.78162324
-0.20983018 -0.093103461 0.7887916
-0.20896748 -0.09396524 0.79609281
-0.20808883 -0.094843209 0.80353111
-0.2071941 -0.095737964 0.81111169
-0.32941556 -0.089590006 0.78237951
-0.32609111 -0.089434274 0.78101951
-0.32277822 -0.089279085 0.77966428
-0.31947681 -0.089124434 0.7783137
-0.31618679 -0.088970311 0.77696776
-0.31290814 -0.088816725 0.77562654
-0.30964079 -0.088663667 0.77428991
-0.30638471 -0.088511139 0.77295786
-0.30313978 -0.088359132 0.77163041
-0.29990602 -0.088207647 0.77030754
-0.29668325 -0.088056676 0.76898909
-0.29347154 -0.087906219 0.76767522
-0.29027078 -0.087756284 0.76636583
-0.28708094 -0.087606855 0.7650609
-0.28390193 -0.08745794 0.76376039
-0.2807337 -0.087309524 0.76246434
-0.27757624 -0.087161623 0.76117271
-0.27442944 -0.087014206 0.75988537
-0.27129316 -0.086867265 0.75860214
-0.26816738 -0.086720794 0.75732303
-0.26505211 -0.086574808 0.75604814
-0.26194733 -0.08642932 0.75477761
-0.25885296 -0.086284317 0.75351131
-0.25576895 -0.086139806 0.7522493
-0.25269523 -0.085995764 0.7509914
-0.24963182 -0.085852213 0.7497378
-0.24728526 -0.08595477 0.75063342
-0.24508969 -0.086112596 0.75201166
-0.24288599 -0.086270981 0.75339484
-0.2406742 -0.086429961 0.75478321
-0.23845424 -0.086589523 0.75617665
-0.23622607 -0.086749688 0.75757533
-0.23398963 -0.086910434 0.75897908
-0.23174487 -0.087071776 0.76038808
-0.2294918 -0.087233722 0.76180238
-0.2272303 -0.087396272 0.76322186
-0.22496037 -0.087559432 0.76464671
-0.22268197 -0.087723203 0.76607692
-0.220395 -0.087887578 0.76751238
-0.21809946 -0.088052578 0.76895332
-0.21579528 -0.088218197 0.77039963
-0.21348241 -0.088384435 0.77185142
-0.21242966 -0.089083403 0.77795541
-0.21160261 -0.089896537 0.78505641
-0.21076033 -0.090724647 0.79228818
-0.20990241 -0.091568165 0.79965454
-0.20902835 -0.092427507 0.80715907
-0.20813848 -0.093303457 0.81480867
-0.32378572 -0.086802132 0.78209788
-0.32047227 -0.086651303 0.78073889
-0.31717032 -0.086500995 0.77938461
-0.31387979 -0.086351208 0.77803499
-0.31060064 -0.086201943 0.77669007
-0.30733281 -0.086053185 0.7753498
-0.30407622 -0.085904948 0.77401412
-0.30083087 -0.085757211 0.77268302
-0.2975966 -0.08560998 0.77135646
-0.29437348 -0.085463271 0.77003455
-0.29116136 -0.085317053 0.76871711
-0.2879602 -0.085171327 0.76740414
-0.28476998 -0.085026108 0.7660957
-0.28159061 -0.08488138 0.76479167
-0.27842203 -0.084737144 0.76349205
-0.27526423 -0.0845934 0.7621969
-0.27211711 -0.084450133 0.7609061
-0.26898047 -0.084307313 0.75961924
-0.26585442 -0.084164962 0.75833666
-0.26273888 -0.084023096 0.75705844
-0.25963384 -0.083881706 0.75578445
-0.25653926 -0.083740793 0.75451481
-0.25345501 -0.08360035 0.75324941
-0.25038111 -0.083460368 0.75198817
-0.24810043 -0.083584636 0.75310785
-0.24589907 -0.083738603 0.75449508
-0.24368963 -0.08389315 0.75588757
-0.24147196 -0.084048249 0.75728506
-0.2392461 -0.084203936 0.75868779
-0.23701197 -0.084360197 0.76009572
-0.23476955 -0.084517039 0.76150888
-0.23251878 -0.08467447 0.76292735
-0.23025957 -0.084832475 0.76435101
-0.22799197 -0.08499109 0.76578015
-0.22571582 -0.085150279 0.76721448
-0.22343116 -0.085310079 0.76865429
-0.22113791 -0.085470483 0.77009952
-0.21883599 -0.085631475 0.77155012
-0.21652544 -0.085793093 0.77300632
-0.21420608 -0.085955307 0.77446789
-0.21335833 -0.086719841 0.78135639
-0.21253614 -0.087514885 0.78851986
-0.21169879 -0.088324659 0.795816
-0.21084575 -0.089149542 0.80324835
-0.20997663 -0.089989983 0.81082082
-0.20909148 -0.090846643 0.81853944
-0.31815994 -0.084016263 0.78181642
-0.31485745 -0.083870329 0.78045839
-0.31156644 -0.083724901 0.77910513
-0.30828676 -0.083579965 0.77775645
-0.30501845 -0.083435543 0.77641249
-0.30176142 -0.083291613 0.77507317
-0.29851559 -0.083148181 0.77373844
-0.29528093 -0.083005242 0.77240831
-0.29205739 -0.082862794 0.77108276
-0.28884488 -0.082720831 0.76976174
-0.28564334 -0.082579352 0.76844519
-0.28245273 -0.082438357 0.76713318
-0.27927303 -0.082297854 0.76582569
-0.27610415 -0.08215782 0.76452261
-0.27294603 -0.082018264 0.76322395
-0.26979849 -0.081879146 0.76192939
-0.26666158 -0.081740484 0.76063907
-0.26353523 -0.081602283 0.75935304
-0.26041946 -0.081464551 0.75807136
-0.25731418 -0.081327282 0.75679398
-0.25421935 -0.081190474 0.75552094
-0.25113493 -0.081054129 0.7542522
-0.24892098 -0.081198819 0.7555986
-0.24671386 -0.081348896 0.75699514
-0.24449855 -0.081499517 0.75839674
-0.24227503 -0.081650704 0.75980359
-0.24004325 -0.08180245 0.76121569
-0.23780316 -0.081954762 0.76263303
-0.2355547 -0.082107633 0.76405561
-0.23329784 -0.082261086 0.76548356
-0.23103254 -0.082415111 0.76691687
-0.22875871 -0.082569711 0.76835549
-0.22647639 -0.082724907 0.76979965
-0.22418542 -0.082880668 0.77124912
-0.22188583 -0.083037026 0.77270412
-0.21957755 -0.08319398 0.77416462
-0.21726052 -0.083351523 0.77563065
-0.21509759 -0.083572946 0.77769113
-0.21429516 -0.084335513 0.78478724
-0.21347798 -0.08511214 0.79201412
-0.21264561 -0.08590319 0.7993753
-0.2117976 -0.086709082 0.80687457
-0.21093354 -0.08753024 0.81451589
-0.21005327 -0.088367231 0.82230455
-0.31253824 -0.081232406 0.78153521
-0.30924669 -0.081091352 0.78017819
-0.30596656 -0.080950789 0.77882582
-0.30269775 -0.080810718 0.77747816
-0.29944026 -0.080671124 0.77613515
-0.29619402 -0.080532014 0.77479678
-0.29295895 -0.080393381 0.77346301
-0.28973496 -0.080255218 0.77213377
-0.28652206 -0.080117546 0.77080917
-0.28332019 -0.079980336 0.76948911
-0.28012922 -0.079843596 0.76817352
-0.27694914 -0.079707317 0.76686239
-0.27377996 -0.079571515 0.76555586
-0.27062154 -0.079436176 0.76425374
-0.26747367 -0.079301238 0.76295549
-0.26433644 -0.079166748 0.76166159
-0.26120985 -0.079032727 0.76037216
-0.25809383 -0.078899153 0.75908703
-0.25498831 -0.078766026 0.75780624
-0.25195172 -0.078651592 0.75670528
-0.24974698 -0.078797176 0.75810593
-0.24753402 -0.078943282 0.75951165
-0.24531288 -0.079089947 0.76092267
-0.24308345 -0.079237148 0.76233888
-0.24084572 -0.079384901 0.76376045
-0.23859961 -0.079533204 0.76518726
-0.23634511 -0.079682067 0.76661944
-0.23408215 -0.079831481 0.76805699
-0.23181069 -0.079981461 0.76949996
-0.22953065 -0.080132 0.77094829
-0.22724205 -0.08028312 0.77240217
-0.22494479 -0.080434807 0.77386153
-0.22263883 -0.080587059 0.77532637
-0.22032413 -0.080739893 0.77679682
-0.21800064 -0.080893315 0.77827287
-0.21603759 -0.081186101 0.78108972
-0.21524025 -0.081930168 0.78824836
-0.21442817 -0.082687989 0.79553938
-0.21360095 -0.083459973 0.80296659
-0.21275809 -0.084246494 0.8105337
-0.21189922 -0.08504799 0.81824487
-0.21102391 -0.085864902 0.8261044
-0.30692053 -0.078450538 0.78125417
-0.30363992 -0.078314371 0.77989811
-0.30037069 -0.078178674 0.77854675
-0.29711276 -0.078043438 0.77720004
-0.29386607 -0.07790868 0.77585799
-0.29063058 -0.077774376 0.77452058
-0.28740621 -0.077640541 0.77318776
-0.28419292 -0.077507161 0.77185947
-0.28099069 -0.07737425 0.77053583
-0.2777994 -0.077241778 0.76921666
-0.27461901 -0.077109769 0.76790202
-0.27144948 -0.076978214 0.76659191
-0.2682907 -0.076847084 0.76528609
-0.26514253 -0.076716371 0.76398432
-0.26200503 -0.07658609 0.76268691
-0.2588782 -0.076456256 0.76139396
-0.25576195 -0.076326869 0.76010543
-0.25278902 -0.076237954 0.75922
-0.25057846 -0.07637953 0.76062989
-0.24835971 -0.076521635 0.76204509
-0.24613264 -0.076664269 0.76346546
-0.24389732 -0.076807439 0.76489127
-0.24165359 -0.076951139 0.76632231
-0.23940143 -0.077095374 0.76775867
-0.23714085 -0.077240162 0.76920056
-0.23487175 -0.077385485 0.77064776
-0.2325941 -0.077531368 0.77210051
-0.23030783 -0.077677786 0.77355868
-0.22801292 -0.077824771 0.77502239
-0.2257093 -0.077972308 0.77649164
-0.22339697 -0.07812041 0.77796656
-0.22107579 -0.078269064 0.77944696
-0.2187458 -0.078418307 0.78093314
-0.21698588 -0.078778312 0.7845183
-0.21619372 -0.079503499 0.79174012
-0.2153869 -0.080242179 0.79909629
-0.21456489 -0.080994695 0.80659026
-0.21372733 -0.081761457 0.81422615
-0.21287377 -0.082542889 0.82200807
-0.3013069 -0.075670682 0.78097337
-0.2980372 -0.07553938 0.77961826
-0.29477882 -0.075408541 0.77826786
-0.29153171 -0.075278148 0.77692211
-0.28829584 -0.075148202 0.775581
-0.2850711 -0.075018711 0.77424455
-0.28185746 -0.07488966 0.77291268
-0.27865481 -0.074761048 0.77158535
-0.27546322 -0.074632891 0.77026266
-0.27228251 -0.074505165 0.76894444
-0.26911271 -0.07437788 0.76763076
-0.26595354 -0.074250989 0.76632118
-0.2628051 -0.074124523 0.7650159
-0.25966737 -0.073998466 0.76371497
-0.2565403 -0.073872857 0.76241857
-0.25363183 -0.073808208 0.76175135
-0.25141549 -0.073945731 0.76317072
-0.24919088 -0.074083775 0.76459539
-0.24695793 -0.074222326 0.76602536
-0.2447166 -0.074361399 0.76746064
-0.24246688 -0.074501 0.76890141
-0.24020867 -0.074641109 0.77034748
-0.23794195 -0.074781753 0.77179903
-0.23566669 -0.074922934 0.77325612
-0.23338282 -0.075064652 0.7747187
-0.23109029 -0.075206898 0.77618682
-0.22878906 -0.075349689 0.77766049
-0.22647905 -0.075493023 0.77913976
-0.22416027 -0.075636901 0.78062469
