# .PCD v0.7 - Point Cloud Data file format
VERSION 0.7
FIELDS x y z
SIZE 4 4 4
TYPE F F F
COUNT 1 1 1
WIDTH 1441
HEIGHT 1
VIEWPOINT 0 0 0 1 0 0 0
POINTS 1441
DATA ascii
0.20960234 0.053428046 0.77763528
0.21246737 0.053459533 0.77809352
0.21533577 0.053491052 0.77855229
0.12954727 0.057112236 0.79070878
0.13208158 0.057003628 0.78920513
0.13460626 0.056895431 0.78770715
0.13712138 0.05678764 0.78621483
0.13962699 0.056680266 0.78472823
0.14212315 0.056573294 0.78324723
0.14460988 0.056466714 0.78177166
0.14708729 0.056360546 0.78030181
0.14955539 0.056254778 0.77883744
0.15201421 0.056149397 0.77737844
0.15446389 0.056044418 0.77592504
0.1569044 0.055939831 0.77447706
0.15933582 0.055835631 0.77303439
0.1617582 0.055731818 0.77159715
0.16417159 0.055628389 0.77016521
0.16657603 0.055525344 0.76873857
0.1689716 0.055422682 0.76731724
0.17135832 0.055320401 0.76590115
0.17397074 0.055293027 0.76552218
0.17677048 0.05532511 0.76596636
0.17957343 0.055357222 0.76641095
0.18237963 0.055389371 0.76685601
0.1851891 0.055421554 0.76730162
0.18800184 0.055453781 0.76774776
0.19081785 0.055486042 0.76819444
0.19363713 0.05551834 0.76864159
0.19645971 0.055550676 0.76908928
0.19928558 0.055583052 0.76953751
0.20211475 0.055615466 0.76998627
0.20494719 0.055647913 0.77043551
0.20778297 0.055680405 0.77088535
0.21062206 0.055712931 0.77133566
0.21346444 0.05574549 0.77178645
0.21631019 0.055778097 0.7722379
0.21915925 0.055810742 0.77268982
0.12925823 0.059764557 0.7889446
0.13178743 0.059651159 0.78744763
0.13430706 0.059538182 0.78595626
0.13681717 0.059425641 0.78447062
0.13931781 0.059313525 0.78299057
0.14180902 0.059201822 0.78151602
0.14429088 0.059090551 0.78004712
0.14676341 0.058979694 0.77858371
0.1492267 0.058869246 0.77712572
0.15168077 0.058759216 0.77567321
0.15412569 0.0586496 0.77422619
0.15656148 0.058540381 0.77278441
0.15898825 0.058431577 0.77134812
0.161406 0.058323178 0.76991713
0.16381478 0.058215171 0.76849133
0.16621469 0.058107574 0.76707095
0.16860572 0.058000367 0.76565576
0.17098795 0.057893556 0.76424575
0.17336141 0.057787139 0.76284093
0.17572619 0.057681117 0.76144135
0.17808227 0.057575472 0.76004678
0.18081833 0.057593986 0.76029116
0.18360284 0.057627168 0.76072919
0.18639056 0.05766039 0.76116776
0.18918149 0.057693645 0.76160675
0.19197565 0.057726946 0.76204634
0.19477302 0.057760276 0.76248634
0.19757365 0.057793651 0.76292694
0.20037751 0.057827067 0.76336801
0.20318459 0.057860512 0.76380956
0.20599493 0.057894003 0.76425165
0.20880854 0.057927534 0.76469427
0.21162543 0.057961103 0.76513743
0.21444555 0.057994705 0.76558101
0.21726894 0.058028352 0.76602519
0.22065836 0.058210488 0.76842952
0.22470339 0.058559064 0.77303106
0.12643674 0.062523663 0.78868425
0.12897047 0.062405065 0.78718823
0.1314946 0.062286917 0.78569788
0.13400921 0.06216922 0.78421324
0.13651432 0.062051963 0.78273416
0.13900998 0.061935142 0.78126055
0.1414963 0.061818771 0.77979261
0.14397328 0.061702833 0.77833015
0.14644097 0.061587319 0.77687305
0.14889945 0.061472252 0.77542156
0.15134877 0.06135761 0.77397543
0.15378895 0.061243385 0.77253461
0.15622008 0.061129592 0.77109921
0.15864219 0.061016228 0.76966918
0.16105531 0.06090327 0.76824433
0.16345954 0.06079074 0.76682484
0.16585489 0.06067862 0.76541054
0.16824143 0.06056691 0.76400143
0.17061919 0.060455617 0.76259756
0.17298824 0.06034473 0.76119882
0.17534858 0.060234245 0.75980514
0.17770031 0.060124166 0.75841659
0.18004349 0.060014497 0.75703317
0.1823781 0.059905216 0.75565469
0.18480667 0.0598295 0.75469959
0.18757297 0.059863713 0.75513119
0.19034243 0.059897967 0.75556326
0.19311507 0.059932262 0.75599587
0.19589087 0.059966598 0.75642896
0.19866988 0.060000971 0.75686258
0.20145206 0.060035381 0.75729662
0.20423742 0.060069829 0.75773114
0.20702597 0.060104318 0.75816619
0.20981777 0.060138848 0.75860178
0.21319607 0.060338508 0.76112032
0.2171582 0.06069639 0.76563472
0.22116761 0.06105854 0.77020293
0.22522505 0.061425015 0.77482569
0.12615536 0.065157168 0.78692907
0.12868398 0.065033846 0.78543967
0.13120309 0.064911 0.78395599
0.13371266 0.06478861 0.78247786
0.1362128 0.064666681 0.78100526
0.13870354 0.064545214 0.77953827
0.14118496 0.064424202 0.77807677
0.14365706 0.064303637 0.77662063
0.14611994 0.064183526 0.77517003
0.14857365 0.064063869 0.77372485
0.1510182 0.063944645 0.77228498
0.15345369 0.063825876 0.77085054
0.15588015 0.063707545 0.7694214
0.15829761 0.06358964 0.76799744
0.16070616 0.063472182 0.76657885
0.16310583 0.063355155 0.76516551
0.16549665 0.063238561 0.76375729
0.16787869 0.063122392 0.76235425
0.17025203 0.063006654 0.76095647
0.17261662 0.062891327 0.75956362
0.17497261 0.062776431 0.75817603
0.17732 0.062661961 0.75679344
0.17965885 0.062547892 0.75541586
0.18198918 0.062434245 0.75404328
0.18431109 0.062321018 0.75267577
0.18662457 0.062208187 0.75131309
0.18892968 0.062095769 0.74995536
0.19148508 0.062067579 0.74961489
0.19423653 0.062102836 0.75004071
0.1969911 0.062138133 0.750467
0.1997488 0.062173467 0.75089377
0.20250964 0.062208846 0.75132102
0.20587437 0.062426422 0.75394881
0.20975596 0.062793188 0.75837833
0.21368341 0.063164279 0.76286018
0.21765752 0.063539773 0.7673952
0.22167921 0.063919775 0.77198458
0.22574914 0.0643043 0.77662867
0.22986805 0.064693406 0.78132802
0.1233421 0.067907453 0.78667003
0.12587523 0.067778967 0.78518164
0.12839879 0.067650974 0.78369892
0.13091284 0.067523465 0.78222179
0.13341741 0.067396425 0.7807501
0.1359126 0.067269877 0.77928406
0.13839844 0.067143798 0.77782351
0.14087495 0.067018181 0.77636832
0.14334223 0.066893041 0.77491868
0.14580032 0.066768371 0.77347445
0.14824925 0.066644154 0.77203548
0.1506891 0.066520415 0.77060199
0.15311989 0.066397123 0.76917374
0.15554169 0.066274285 0.76775074
0.15795456 0.06615191 0.76633304
0.16035852 0.066029981 0.76492059
0.16275364 0.065908499 0.76351327
0.16513996 0.065787464 0.76211119
0.16751754 0.065666877 0.76071423
0.1698864 0.065546721 0.75932229
0.17224663 0.065427013 0.75793558
0.17459826 0.065307744 0.75655389
0.17694131 0.0651889 0.75517714
0.17927584 0.065070495 0.75380546
0.18160194 0.064952515 0.75243878
0.18391958 0.06483496 0.75107694
0.18622887 0.064717837 0.7497201
0.18852985 0.064601138 0.7483682
0.19082251 0.06448485 0.74702108
0.19310695 0.064368978 0.74567884
0.19538319 0.064253531 0.74434143
0.19868939 0.064475365 0.74691123
0.20249271 0.064850606 0.75125819
0.20634057 0.065230243 0.75565606
0.21023372 0.065614343 0.76010567
0.21417297 0.066002995 0.76460797
0.21815918 0.066396274 0.76916391
0.22219346 0.066794358 0.77377546
0.2262757 0.067197025 0.77844018
0.23040746 0.067604586 0.78316152
0.12053069 0.070655927 0.78641117
0.1230683 0.070522286 0.78492373
0.12559634 0.070389159 0.78344202
0.12811485 0.070256531 0.78196585
0.13062386 0.070124388 0.78049511
0.13312349 0.069992758 0.77903003
0.13561374 0.069861621 0.77757043
0.13809465 0.06973096 0.77611619
0.14056633 0.069600806 0.7746675
0.1430288 0.069471128 0.77322417
0.14548208 0.069341928 0.77178615
0.14792627 0.069213212 0.77035356
0.15036142 0.069084972 0.76892626
0.15278754 0.068957202 0.76750416
0.15520471 0.068829916 0.76608741
0.15761298 0.068703093 0.76467586
0.16001238 0.068576731 0.76326942
0.16240297 0.068450838 0.76186824
0.16478482 0.068325408 0.76047218
0.16715792 0.068200432 0.75908113
0.16952237 0.068075918 0.75769526
0.17187822 0.067951858 0.75631446
0.17422548 0.067828238 0.7549386
0.17656422 0.067705072 0.75356776
0.17889448 0.067582361 0.75220191
0.1812163 0.067460082 0.75084096
0.18352975 0.067338251 0.74948496
0.18583485 0.067216866 0.7481339
0.18813165 0.067095898 0.74678755
0.1904202 0.066975378 0.74544615
0.19270056 0.066855296 0.74410963
0.19536473 0.06686981 0.7442711
0.19913509 0.067257546 0.74858671
0.20294958 0.067649864 0.75295323
0.20680884 0.068046778 0.75737095
0.21071362 0.06844838 0.76184082
0.2146648 0.068854749 0.7663638
0.21866316 0.069265969 0.77094072
0.22270979 0.069682203 0.77557349
0.22680472 0.070103273 0.78026009
0.23094942 0.070529461 0.7850036
0.23514484 0.070960872 0.78980523
0.12026323 0.073263809 0.78466606
0.12279572 0.073125541 0.78318524
0.12531868 0.072987802 0.78171003
0.12783214 0.072850578 0.7802403
0.13033618 0.072713867 0.77877617
0.13283084 0.072577678 0.77731752
0.13531616 0.072441988 0.77586424
0.13779223 0.072306812 0.77441651
0.14025906 0.072172135 0.77297413
0.14271671 0.072037958 0.77153701
0.14516525 0.071904279 0.77010536
0.1476047 0.071771093 0.7686789
0.15003514 0.071638405 0.76725775
0.15245663 0.071506202 0.7658419
0.15486917 0.071374483 0.76443118
0.15727286 0.071243256 0.7630257
0.1596677 0.071112506 0.76162535
0.16205379 0.07098224 0.76023018
0.16443114 0.070852444 0.75884002
0.16679983 0.070723131 0.75745505
0.16915987 0.070594281 0.75607502
0.17151135 0.070465907 0.75470012
0.17385428 0.070337996 0.75333017
0.17618872 0.070210546 0.75196517
0.17851472 0.070083559 0.75060511
0.1808323 0.069957018 0.74924988
0.18314156 0.069830954 0.74789971
0.18544246 0.069705322 0.7465542
0.18773516 0.06958016 0.74521369
0.19001959 0.069455437 0.74387789
0.19229588 0.069331169 0.74254692
0.19580142 0.069647484 0.74593472
0.19958279 0.070052236 0.75026965
0.20340851 0.070461772 0.75465584
0.20727924 0.070876122 0.75909364
0.21119575 0.071295381 0.76358396
0.21515888 0.071719624 0.76812768
0.21916944 0.072148949 0.77272576
0.22322853 0.072583511 0.77737999
0.22733618 0.07302314 0.78208846
0.23149392 0.073468126 0.78685439
0.23570262 0.073918574 0.79167873
0.11745999 0.076003522 0.78440851
0.11999695 0.075860143 0.78292871
0.12252434 0.075717293 0.78145438
0.12504224 0.075574979 0.77998567
0.12755069 0.075433202 0.77852243
0.13004975 0.075291961 0.77706474
0.13253948 0.07515125 0.77561247
0.1350199 0.07501106 0.77416557
0.13749109 0.074871391 0.77272409
0.13995311 0.074732237 0.77128798
0.14240599 0.074593611 0.76985723
0.14484976 0.074455485 0.76843166
0.14728452 0.074317873 0.76701146
0.14971028 0.074180767 0.76559645
0.15212712 0.074044175 0.76418668
0.15453508 0.073908083 0.76278216
0.15693419 0.073772483 0.76138264
0.15932453 0.073637389 0.75998837
0.1617061 0.073502779 0.7585991
0.16407903 0.073368669 0.75721502
0.16644327 0.073235042 0.75583589
0.16879894 0.073101901 0.75446177
0.17114604 0.072969243 0.75309265
0.17348465 0.07283707 0.75172853
0.17581482 0.072705373 0.75036937
0.17813656 0.072574154 0.74901503
0.18044993 0.072443403 0.74766564
0.18275498 0.072313122 0.74632102
0.18505175 0.072183311 0.74498129
0.1873403 0.072053961 0.74364632
0.18962067 0.071925081 0.74231619
0.19249153 0.072020635 0.7433024
0.19624011 0.072437622 0.74760598
0.20003247 0.072859511 0.75196016
0.20386951 0.073286422 0.75636619
0.20775178 0.073718376 0.7608242
0.21168008 0.074155442 0.76533508
0.21565528 0.074597739 0.76989985
0.21967812 0.075045317 0.77451921
0.22374973 0.075498372 0.77919501
0.22787018 0.075956725 0.78392553
0.23204099 0.07642068 0.78871387
0.23626307 0.076890349 0.79356116
0.24053735 0.077365816 0.79846829
0.11743458 0.078750245 0.78423882
0.11981543 0.078499764 0.78174436
0.12225416 0.078297608 0.77973115
0.12476701 0.078150764 0.77826881
0.12727048 0.078004479 0.77681208
0.12976457 0.077858739 0.7753607
0.13224937 0.077713549 0.77391481
0.13472493 0.077568896 0.77247429
0.13719128 0.07742478 0.77103907
0.13964848 0.077281199 0.76960921
0.14209658 0.077138148 0.7681846
0.14453565 0.076995626 0.7667653
0.14696571 0.076853633 0.76535124
0.14938682 0.076712154 0.76394236
0.15179904 0.076571196 0.76253861
0.15420242 0.076430768 0.76114011
0.156597 0.076290846 0.75974673
0.1589828 0.076151423 0.7583583
0.16135994 0.076012529 0.75697511
0.16372839 0.075874127 0.75559682
0.16608824 0.07573624 0.75422364
0.16843952 0.075598843 0.75285536
0.1707823 0.075461946 0.75149208
0.17311659 0.075325541 0.75013369
0.17544249 0.075189635 0.74878025
0.17776 0.075054221 0.74743176
0.18006916 0.074919283 0.74608797
0.18237005 0.074784838 0.74474907
0.18466268 0.074650869 0.74341494
0.18694712 0.074517384 0.74208564
0.18922339 0.074384369 0.74076098
0.19292122 0.074806191 0.74496168
0.19668071 0.075240269 0.74928451
0.2004842 0.075679466 0.75365829
0.20433262 0.076123916 0.75808436
0.2082265 0.076573618 0.76256269
0.21216667 0.077028662 0.76709431
0.21615393 0.077489145 0.77168006
0.22018948 0.077955283 0.77632213
0.22427332 0.078426868 0.78101844
0.22840667 0.078904122 0.78577119
0.23259066 0.079387233 0.79058224
0.23682617 0.079876281 0.79545248
0.24111421 0.080371402 0.80038321
0.117539 0.081585892 0.78493613
0.11992165 0.081326172 0.78243738
0.12228913 0.081068076 0.7799542
0.12464163 0.080811605 0.77748674
0.12699148 0.080564484 0.77510917
0.12948065 0.080414288 0.77366418
0.13196054 0.080264658 0.77222455
0.13443124 0.080115587 0.77079034
0.13689277 0.079967059 0.76936138
0.13934517 0.079819083 0.76793766
0.14178854 0.079671659 0.76651931
0.1442229 0.07952477 0.76510614
0.14664829 0.079378426 0.76369816
0.14906475 0.079232618 0.76229531
0.15147237 0.079087347 0.7608977
0.15387119 0.078942612 0.75950521
0.15626122 0.078798398 0.75811768
0.15864256 0.078654714 0.75673532
0.16101521 0.078511551 0.75535792
0.16337925 0.07836891 0.75398558
0.16573471 0.078226782 0.75261819
0.16808166 0.078085177 0.75125581
0.1704201 0.07794407 0.74989825
0.17275012 0.077803493 0.74854571
0.17507175 0.077663407 0.74719799
0.17738502 0.07752382 0.74585503
0.17969002 0.077384748 0.74451703
0.18198673 0.077246167 0.74318373
0.18427524 0.077108085 0.7418552
0.18655558 0.076970488 0.74053138
0.18962577 0.077158071 0.74233615
0.19335285 0.077604204 0.7466284
0.19712305 0.078055441 0.75096971
0.20093799 0.078512192 0.75536412
0.20479785 0.078974336 0.75981039
0.20870338 0.079441935 0.76430917
0.21265547 0.079915114 0.76886159
0.21665488 0.080393955 0.77346849
0.22070305 0.080878757 0.7781328
0.22479938 0.081369102 0.78285038
0.22894572 0.081865437 0.78762561
0.23314293 0.08236786 0.79245943
0.23739198 0.082876489 0.79735291
0.24169388 0.083391458 0.80230743
0.11764359 0.084426574 0.78563458
0.12002802 0.084157579 0.78313142
0.1223973 0.083890282 0.78064412
0.12475153 0.083624654 0.77817225
0.1270909 0.083360702 0.77571607
0.12941556 0.083098412 0.77327532
0.13172562 0.082837768 0.77084988
0.13413882 0.08265119 0.76911372
0.13659555 0.082498297 0.76769096
0.13904321 0.082345977 0.7662735
0.14148182 0.082194202 0.76486117
0.1439115 0.082043 0.76345414
0.14633222 0.081892341 0.76205218
0.14874409 0.081742242 0.76065546
0.15114711 0.081592686 0.75926375
0.15354139 0.08144369 0.75787723
0.15592691 0.081295229 0.75649571
0.15830375 0.081147306 0.7551192
0.16067198 0.080999926 0.75374776
0.16303159 0.080853067 0.75238121
0.1653827 0.080706753 0.75101966
0.16772527 0.08056096 0.74966294
0.17005944 0.080415703 0.74831128
0.17238517 0.080270953 0.74696434
0.17470255 0.080126733 0.74562228
0.17701164 0.079983041 0.74428511
0.17931244 0.079839841 0.74295259
0.18160503 0.079697169 0.74162495
0.18388942 0.079554997 0.74030197
0.18635347 0.079493441 0.73972911
0.19004853 0.07995145 0.74399114
0.19378643 0.080414772 0.74830264
0.19756763 0.080883391 0.75266337
0.20139386 0.081357777 0.75707781
0.20526519 0.081837751 0.76154423
0.20918247 0.082323425 0.76606363
0.21314654 0.082814895 0.77063704
0.21715818 0.083312258 0.77526528
0.22121882 0.083815828 0.77995127
0.22532794 0.084325179 0.78469104
0.2294873 0.08484076 0.78948879
0.23369785 0.085362688 0.79434562
0.23796049 0.085891068 0.79926246
0.24227662 0.086426161 0.80424184
0.11774835 0.087272309 0.78633422
0.12013458 0.086994 0.78382665
0.12250561 0.086717457 0.78133494
0.12486161 0.086442657 0.77885896
0.12720269 0.086169563 0.77639836
0.12952904 0.085898206 0.77395338
0.13184077 0.085628539 0.77152365
0.13413803 0.085360564 0.76910919
0.13642097 0.085094258 0.76670974
0.13874252 0.084861934 0.76461643
0.14117643 0.084705867 0.76321024
0.14360142 0.084550373 0.76180923
0.14601752 0.084395446 0.76041335
0.14842477 0.084241085 0.75902253
0.15082325 0.084087297 0.7576369
0.15321298 0.083934061 0.75625622
0.15559401 0.083781391 0.75488061
0.15796641 0.08362928 0.75351006
0.16033019 0.083477698 0.75214434
0.16268544 0.08332669 0.75078368
0.16503215 0.083176203 0.7494278
0.16737044 0.083026282 0.74807698
0.16970028 0.082876876 0.74673086
0.17202178 0.082728028 0.7453897
0.17433493 0.082579702 0.74405324
0.17663981 0.082431912 0.74272168
0.17893647 0.082284652 0.74139482
0.1812249 0.082137905 0.74007261
0.18350522 0.081991695 0.73875523
0.18676747 0.082282171 0.74137247
0.19047318 0.082757317 0.74565357
0.19422193 0.083237968 0.74998432
0.19801423 0.083724141 0.75436479
0.20185174 0.084216289 0.75879914
0.20573464 0.084714264 0.76328593
0.20966373 0.085218169 0.76782614
0.21363986 0.085728094 0.77242064
0.21766381 0.086244151 0.7770704
0.22173703 0.08676666 0.78177828
0.22585897 0.087295182 0.78654033
0.23003145 0.087830186 0.7913608
0.23425539 0.088371791 0.79624069
0.23853175 0.088920116 0.8011812
0.11544997 0.090412624 0.78956336
0.11785332 0.090123132 0.78703523
0.12024133 0.08983548 0.78452319
0.12261413 0.089549646 0.78202707
0.1249719 0.089265637 0.77954686
0.12731469 0.088983387 0.77708197
0.12964272 0.088702917 0.77463269
0.13195612 0.088424198 0.77219868
0.13425502 0.088147238 0.76977998
0.13653956 0.087871999 0.76737636
0.1388099 0.08759848 0.76498777
0.14106613 0.087326653 0.76261389
0.14330842 0.08705651 0.7602548
0.14570417 0.086887807 0.75878149
0.14810684 0.086729236 0.7573967
0.15050076 0.086571231 0.75601691
0.15288597 0.086413816 0.75464219
0.15526253 0.086256959 0.75327241
0.15763049 0.086100683 0.75190765
0.15998986 0.085944973 0.75054783
0.16234072 0.085789807 0.74919283
0.1646831 0.085635215 0.74784279
0.16701707 0.085481174 0.74649757
0.16934265 0.085327692 0.74515718
0.17165989 0.085174754 0.74382162
0.17396884 0.085022368 0.74249083
0.17626953 0.084870517 0.74116474
0.17856205 0.084719218 0.73984349
0.18084639 0.084568456 0.73852688
0.18350944 0.084596552 0.73877221
0.18718332 0.085083328 0.74302322
0.19089973 0.085575745 0.74732339
0.19465941 0.08607389 0.75167364
0.19846284 0.086577751 0.75607383
0.20231175 0.08708784 0.76052839
0.20620629 0.087603979 0.76503575
0.21014725 0.088126265 0.76959682
0.21413548 0.088654816 0.7742126
0.21817227 0.089189917 0.7788856
0.22225763 0.089731343 0.7836138
0.22639254 0.090279229 0.78839844
0.2305782 0.090833835 0.79324174
0.2348156 0.091395289 0.79814488
0.23910587 0.09196379 0.80310953
0.11555331 0.093277976 0.79027015
0.11795847 0.092979029 0.78773743
0.12034826 0.092681997 0.78522086
0.12272284 0.092386857 0.78272039
0.12508233 0.092093579 0.78023571
0.12742689 0.091802165 0.77776676
0.12975661 0.091512553 0.77531314
0.13207167 0.09122476 0.77287489
0.13437223 0.090938784 0.77045202
0.13665839 0.090654574 0.76804411
0.13893032 0.090372153 0.7656514
0.14118813 0.090091474 0.76327342
0.14343196 0.089812532 0.76091021
0.14566194 0.089535326 0.75856161
0.1478782 0.089259811 0.75622743
0.15017965 0.089044571 0.75440389
0.15256037 0.088882998 0.75303501
0.15493247 0.088722013 0.75167108
0.15729597 0.088561602 0.75031203
0.15965097 0.08840178 0.74895799
0.16199747 0.088242523 0.74760878
0.16433553 0.088083848 0.7462644
0.1666652 0.087925732 0.74492484
0.16898651 0.08776819 0.74359012
0.17129953 0.087611213 0.74226016
0.17360428 0.087454788 0.74093491
0.17590083 0.08729893 0.73961443
0.1781892 0.087143622 0.73829865
0.18046944 0.086988866 0.73698753
0.1839166 0.087392993 0.74041134
0.18760101 0.08789698 0.74468124
0.1913282 0.088406824 0.74900073
0.19509888 0.08892262 0.75337064
0.19891348 0.089444317 0.75779063
0.20277385 0.089972503 0.7622655
0.20668006 0.090506956 0.76679349
0.21063299 0.091047809 0.77137572
0.21463341 0.091595151 0.7760129
0.21868302 0.092149451 0.78070903
0.22278072 0.092709988 0.78545803
0.22692858 0.093277395 0.7902652
0.23112755 0.09385179 0.79513162
0.23537852 0.094433293 0.80005825
0.23968296 0.095022239 0.80504787
0.11565684 0.096148454 0.79097813
0.11806381 0.095840037 0.78844088
0.12045539 0.095533587 0.78591985
0.12283173 0.095229097 0.7834149
0.12519297 0.094926536 0.78092587
0.12753925 0.09462589 0.77845258
0.12987068 0.094327122 0.77599472
0.13218741 0.094030224 0.77355224
0.13448961 0.093735188 0.77112508
0.13677742 0.093442 0.76871312
0.13905093 0.093150631 0.76631612
0.14131033 0.092861079 0.76393408
0.14355573 0.092573322 0.76156682
0.14578725 0.092287339 0.75921416
0.14800501 0.092003115 0.75687593
0.15020916 0.091720641 0.75455213
0.15239982 0.091439895 0.75224257
0.15460379 0.091176599 0.75007647
0.1569629 0.091012105 0.74872327
0.15931353 0.090848207 0.74737495
0.16165566 0.090684883 0.74603134
0.16398942 0.090522163 0.74469268
0.16631481 0.090360008 0.74335873
0.16863188 0.09019845 0.74202961
0.17094068 0.090037458 0.74070519
0.17324126 0.089877047 0.73938555
0.17553365 0.089717202 0.73807055
0.17781791 0.089557923 0.73676026
0.18067275 0.089686468 0.73781776
0.18432556 0.09020187 0.74205774
0.18802059 0.090723217 0.74634671
0.1917586 0.091250643 0.75068563
0.19554031 0.091784224 0.75507522
0.19936618 0.092323937 0.75951523
0.20323806 0.09287037 0.76401055
0.20715606 0.093423322 0.76855946
0.21112098 0.093982883 0.77316278
0.21513365 0.094549187 0.77782154
0.21919578 0.095122695 0.78253961
0.22330625 0.095702678 0.7873109
0.22746719 0.096289799 0.7921409
0.2316795 0.096884154 0.79703045
0.23594478 0.097486168 0.801983
0.24026279 0.098095462 0.80699545
0.11576054 0.09902408 0.79168737
0.11816934 0.098706156 0.78914565
0.12056272 0.098390259 0.78662008
0.12294083 0.098076396 0.78411072
0.1253038 0.097764507 0.78161722
0.1276518 0.097454593 0.77913952
0.12998495 0.097146645 0.77667749
0.13230339 0.096840627 0.7742309
0.13460723 0.096536495 0.77179939
0.13689664 0.096234277 0.76938319
0.13917178 0.095933944 0.76698208
0.14143276 0.095635489 0.76459593
0.14367969 0.095338859 0.76222444
0.14591277 0.095044091 0.75986779
0.14813204 0.094751127 0.75752556
0.1503377 0.094459973 0.75519782
0.15252982 0.094170585 0.75288421
0.15470858 0.093882985 0.75058484
0.15687405 0.093597122 0.74829942
0.15902637 0.093312994 0.74602783
0.16131531 0.093116969 0.74446064
0.16364476 0.092950225 0.74312752
0.16596588 0.092784077 0.74179924
0.16827874 0.092618525 0.74047565
0.17058335 0.092453569 0.73915684
0.17287974 0.092289187 0.73784262
0.17516802 0.092125401 0.73653316
0.17745155 0.091963939 0.73524231
0.18107308 0.092490569 0.73945266
0.18473634 0.093023263 0.74371147
0.18844207 0.093562141 0.74801975
0.19219093 0.094107285 0.75237811
0.19598375 0.094658822 0.7567876
0.19982097 0.095216706 0.76124781
0.20370442 0.09578155 0.7657637
0.20763423 0.096353136 0.77033347
0.21161121 0.096931592 0.77495813
0.21563625 0.097517036 0.77963871
0.21971093 0.098109908 0.78437871
0.22383431 0.098709539 0.78917265
0.22800839 0.099316537 0.79402554
0.23223411 0.099931039 0.79893845
0.23651265 0.10055328 0.80391318
0.2408455 0.10118362 0.80895263
0.11586445 0.10190488 0.79239798
0.11827506 0.1015774 0.78985161
0.12067023 0.10125203 0.78732157
0.12305011 0.10092874 0.78480768
0.12541483 0.1006075 0.78230977
0.12776454 0.1002883 0.77982771
0.1300994 0.099971116 0.77736133
0.13241954 0.099655949 0.77491063
0.13472505 0.099342711 0.77247494
0.13701609 0.099031433 0.77005452
0.13929282 0.098722093 0.76764911
0.14155538 0.098414697 0.76525885
0.14380389 0.098109201 0.76288337
0.14603847 0.097805582 0.76052248
0.14825928 0.097503856 0.75817627
0.15046644 0.097203985 0.75584453
0.15266006 0.096905947 0.75352705
0.15484025 0.096609734 0.75122368
0.15700716 0.096315317 0.74893439
0.15916091 0.096022703 0.74665904
0.16130161 0.095731847 0.7443974
0.16342938 0.095442757 0.74214947
0.16561843 0.095197998 0.74024624
0.16792706 0.09502849 0.7389282
0.17022748 0.094859585 0.73761481
0.17251976 0.094691291 0.73630619
0.17480388 0.094523586 0.7350021
0.17784338 0.094763257 0.73686576
0.18147521 0.095307119 0.74109477
0.18514897 0.09585727 0.74537265
0.18886538 0.096413799 0.74970013
0.19262521 0.096976832 0.75407821
0.19642921 0.097546473 0.75850767
0.20027781 0.098122686 0.76298821
0.20417291 0.098706111 0.76752484
0.20811461 0.09929651 0.77211571
0.21210375 0.099894024 0.77676189
0.21614169 0.100499 0.78146613
0.22022851 0.1011112 0.78622651
0.22436482 0.10173063 0.7910431
0.22855213 0.10235771 0.79591912
0.23279192 0.10299279 0.80085742
0.23708405 0.10363554 0.80585539
0.11596853 0.10479084 0.79310977
0.11838096 0.10445379 0.79055882
0.12077793 0.10411891 0.78802425
0.12315958 0.10378616 0.78550589
0.12552606 0.10345554 0.78300363
0.1278775 0.10312702 0.78051716
0.13021405 0.10280057 0.77804643
0.13253586 0.10247618 0.77559131
0.13484305 0.10215383 0.77315158
0.13713573 0.10183347 0.77072692
0.13941407 0.10151511 0.7683174
0.14167821 0.10119873 0.7659229
0.1439283 0.10088432 0.76354331
0.14616443 0.10057186 0.76117843
0.14838676 0.10026132 0.75882816
0.1505954 0.099952698 0.75649232
0.1527905 0.09964598 0.75417089
0.15497217 0.099341132 0.75186366
0.15714051 0.099038132 0.74957043
0.15929568 0.098736987 0.74729121
0.16143776 0.098437659 0.74502575
0.16356692 0.098140158 0.74277407
0.16568324 0.097844437 0.74053591
0.16778684 0.097550489 0.73831117
0.16987784 0.097258307 0.73609978
0.17216122 0.097083397 0.73477602
0.17463617 0.097020097 0.73429692
0.17823693 0.097574964 0.73849642
0.18187912 0.098136216 0.74274427
0.18556345 0.098703958 0.74704123
0.18929064 0.099278308 0.75138819
0.19306146 0.099859379 0.755786
0.19687682 0.10044736 0.76023614
0.20073675 0.10104199 0.76473659
0.20464356 0.10164415 0.76929408
0.20859721 0.10225354 0.77390623
0.21259858 0.10287028 0.77857405
0.21664956 0.10349502 0.78330237
0.22074857 0.10412668 0.78808314
0.22489789 0.1047661 0.79292256
0.22909848 0.10541341 0.79782176
0.23335129 0.10606877 0.80278182
0.23765822 0.10673273 0.80780703
0.12088583 0.10699091 0.7887283
0.12326925 0.10664868 0.78620541
0.12563747 0.10630864 0.78369862
0.12799065 0.10597075 0.78120774
0.13032889 0.105635 0.77873266
0.1326524 0.10530139 0.77627325
0.13496125 0.10496986 0.77382928
0.13725559 0.1046404 0.77140051
0.13953555 0.10431298 0.76898682
0.14180128 0.1039876 0.76658815
0.14405292 0.10366425 0.76420444
0.1462906 0.1033429 0.76183546
0.14851445 0.10302354 0.75948113
0.1507246 0.10270614 0.75714135
0.15292117 0.10239069 0.75481588
0.15510428 0.10207718 0.75250465
0.15727407 0.10176557 0.75020754
0.15943067 0.10145588 0.74792451
0.16157416 0.10114805 0.74565518
0.16370469 0.10084209 0.74339968
0.16582236 0.10053796 0.74115771
0.16792732 0.10023569 0.73892933
0.17001963 0.099935204 0.73671418
0.17209943 0.09963651 0.73451227
0.17502129 0.099826954 0.7359162
0.17863224 0.10039915 0.74013436
0.18228482 0.10097792 0.74440104
0.18597977 0.10156342 0.74871725
0.18971781 0.10215575 0.75308383
0.19349971 0.10275503 0.75750166
0.19732641 0.10336145 0.76197219
0.20119777 0.10397469 0.76649296
0.20511639 0.10459577 0.77107155
0.20908208 0.10522432 0.7757051
0.21309574 0.10586046 0.78039473
0.21715923 0.10650484 0.78514504
0.22127107 0.10715643 0.78994846
0.22543348 0.10781601 0.79481089
0.22964746 0.10848377 0.79973352
0.23391423 0.10915997 0.80471843
0.23823515 0.10984495 0.80976802
0.12810399 0.10881952 0.78189957
0.13044396 0.10847445 0.77942014
0.13276914 0.10813157 0.77695644
0.13507965 0.10779084 0.77450818
0.13737567 0.10745225 0.77207536
0.13965723 0.10711574 0.76965743
0.14192455 0.10678132 0.76725453
0.14417776 0.106449 0.76486671
0.14641698 0.10611873 0.76249361
0.14864235 0.1057905 0.76013517
0.15085399 0.1054643 0.75779134
0.15305206 0.1051401 0.75546193
0.15523665 0.1048179 0.75314683
0.15740788 0.10449766 0.75084579
0.15956587 0.10417937 0.74855876
0.16171077 0.10386302 0.74628568
0.16384269 0.10354858 0.74402636
0.1659617 0.10323602 0.74178052
0.16806795 0.10292533 0.73954815
0.17016156 0.10261651 0.73732919
0.17224264 0.10230954 0.73512352
0.17540811 0.10264622 0.73754269
0.17902932 0.10323588 0.74177951
0.18269235 0.10383234 0.74606526
0.18639798 0.10443575 0.7504009
0.19014691 0.1050462 0.75478715
0.19393994 0.10566383 0.75922501
0.19777793 0.10628882 0.76371574
0.20166095 0.10692091 0.7682575
0.20559141 0.10756107 0.77285725
0.20956922 0.10820894 0.77751237
0.21359561 0.10886486 0.78222537
0.21767132 0.10952888 0.78699654
0.22179602 0.11020054 0.79182261
0.22597164 0.11088049 0.79670829
0.23019882 0.11156875 0.80165356
0.23447993 0.11226615 0.80666459
0.23881492 0.11297233 0.81173867
0.13288607 0.11096672 0.7776407
0.13519825 0.11061676 0.77518821
0.13749589 0.11026898 0.77275103
0.13977912 0.10992339 0.77032918
0.14204803 0.10957991 0.76792216
0.14430282 0.10923858 0.76553011
0.14654358 0.10889935 0.7631529
0.14877048 0.10856225 0.76079047
0.15098365 0.10822721 0.75844258
0.15318318 0.10789423 0.75610912
0.15536922 0.10756331 0.75379002
0.1575419 0.1072344 0.75148511
0.15970129 0.10690747 0.74919403
0.16184755 0.10658253 0.74691689
0.16398081 0.10625957 0.74465358
0.16610119 0.10593855 0.74240392
0.16820876 0.10561946 0.7401678
0.1703037 0.10530229 0.73794508
0.17238612 0.10498703 0.73573583
0.1757967 0.10547803 0.73917663
0.17942815 0.10608526 0.74343204
0.18310171 0.10669956 0.74773699
0.18681808 0.10732102 0.75209212
0.19057797 0.10794976 0.75649822
0.19438216 0.1085859 0.76095623
0.19823146 0.10922958 0.76546705
0.20212626 0.10988072 0.7700302
0.20606863 0.11054013 0.77465123
0.2100586 0.1112075 0.77932805
0.21409763 0.11188328 0.78406388
0.21818583 0.11256721 0.78885674
0.22232349 0.11325914 0.7937057
0.22651234 0.11395963 0.79861462
0.23075338 0.11466885 0.80358481
0.23504835 0.11538737 0.8086201
0.23939751 0.11611496 0.81371891
0.13761634 0.11309065 0.77342796
0.13990119 0.1127359 0.77100188
0.14217174 0.11238337 0.76859087
0.14442809 0.112033 0.7661947
0.1466704 0.11168481 0.76381338
0.14889883 0.11133876 0.76144677
0.15111348 0.11099486 0.75909483
0.15331447 0.11065305 0.7567572
0.15550195 0.11031335 0.75443399
0.15767603 0.10997572 0.75212491
0.15983684 0.10964015 0.74982995
0.16198452 0.10930663 0.747549
0.16411915 0.10897512 0.74528182
0.16624089 0.10864562 0.74302834
0.16834983 0.10831811 0.74078852
0.17044611 0.10799257 0.73856217
0.17258632 0.10770425 0.73659033
0.17618723 0.10832252 0.74081868
0.17982876 0.10894735 0.74509192
0.1835129 0.10957965 0.74941617
0.18724005 0.11021932 0.75379092
0.19101095 0.1108665 0.75821698
0.19482644 0.11152134 0.76269543
0.19868679 0.1121837 0.76722533
0.20259371 0.11285422 0.77181101
0.20654806 0.11353304 0.7764535
0.21055028 0.11422009 0.78115219
0.2146033 0.11491662 0.78591573
0.21870276 0.11561994 0.79072577
0.22285348 0.11633232 0.79559779
0.22705564 0.11705353 0.80053014
0.23131062 0.11778393 0.80552536
0.23561953 0.11852376 0.81058508
0.23998292 0.11927295 0.81570876
0.14229563 0.1151917 0.76926064
0.14455356 0.11483226 0.76686031
0.14679739 0.11447503 0.76447469
0.14902733 0.11412002 0.76210392
0.15124346 0.11376721 0.75974774
0.15344593 0.11341656 0.75740612
0.15563487 0.11306807 0.75507885
0.15781039 0.11272171 0.75276583
0.15997262 0.11237746 0.75046694
0.16212171 0.11203533 0.74818212
0.16425775 0.11169527 0.74591118
0.16638084 0.11135726 0.74365389
0.16849113 0.11102129 0.74141026
0.17058873 0.11068735 0.73918015
0.17296807 0.11054351 0.73821962
0.17657886 0.11117928 0.74246538
0.18023117 0.11182226 0.74675924
0.18392594 0.1124727 0.75110292
0.18766394 0.11313074 0.7554974
0.19144595 0.11379654 0.75994366
0.19527273 0.11447022 0.76444256
0.19914538 0.11515208 0.76899612
0.20306335 0.11584151 0.77360016
0.20702974 0.11653993 0.77826422
0.21104427 0.11724681 0.78298491
0.21510911 0.11796306 0.78776807
0.21922216 0.11868715 0.79260361
0.22338602 0.11942019 0.79749894
0.22760139 0.12016223 0.80245429
0.23187058 0.1209141 0.80747539
0.23619352 0.12167545 0.81255972
0.14467916 0.11763632 0.76752663
0.14692456 0.11727006 0.7651369
0.149156 0.11690605 0.76276195
0.15137365 0.11654431 0.76040173
0.15357761 0.1161848 0.75805604
0.15576801 0.11582749 0.75572479
0.15794499 0.11547239 0.7534079
0.16010867 0.11511945 0.75110513
0.16225915 0.11476866 0.74881637
0.16439657 0.11442001 0.74654156
0.16652103 0.11407346 0.74428046
0.16863267 0.11372901 0.74203306
0.17073159 0.11338663 0.7397992
0.17335153 0.11339536 0.73985612
0.17697258 0.114049 0.74412084
0.18063539 0.11471007 0.74843407
0.18434083 0.1153788 0.75279725
0.18808977 0.11605539 0.75721174
0.19188292 0.11673996 0.76167822
0.19572106 0.11743264 0.76619768
0.19960508 0.11813362 0.77077127
0.20353515 0.11884267 0.77539754
0.20751368 0.11956086 0.78008342
0.21154213 0.12028866 0.784832
0.21561806 0.12102433 0.7896319
0.21974403 0.12176898 0.79449046
0.22392109 0.12252286 0.79940921
0.22815026 0.12328617 0.80438942
0.23243326 0.12405947 0.80943489
0.23677029 0.12484252 0.81454396
0.1425439 0.12082292 0.77060282
0.14480497 0.12044526 0.76819408
0.14705192 0.12006991 0.76580018
0.1492849 0.1196969 0.76342112
0.15150405 0.11932621 0.76105684
0.15370952 0.1189578 0.75870717
0.15590139 0.11859166 0.75637192
0.15807982 0.11822776 0.75405103
0.16024493 0.1178661 0.75174433
0.1623968 0.11750662 0.74945164
0.16453561 0.11714935 0.74717295
0.16666146 0.11679425 0.74490815
0.16877444 0.11644129 0.74265695
0.1708747 0.11609044 0.74041927
0.17373666 0.11625987 0.7414999
0.17736803 0.11693152 0.74578363
0.18104142 0.11761085 0.75011635
0.18475763 0.11829805 0.75449932
0.18851753 0.11899333 0.75893378
0.19232187 0.11969683 0.76342064
0.19617148 0.1204087 0.76796091
0.20006676 0.12112886 0.77255404
0.20400916 0.12185781 0.77720332
0.2079999 0.12259597 0.78191119
0.21203999 0.12334353 0.78667909
0.21612942 0.12410012 0.79150462
0.22026837 0.12486551 0.79638624
0.22445771 0.12563986 0.80132496
0.22870179 0.12642521 0.80633396
0.23299865 0.12722012 0.81140387
0.23734991 0.1280251 0.81653798
0.14266834 0.12364589 0.77127552
0.14493102 0.12325908 0.76886272
0.14717951 0.12287464 0.76646465
0.14941405 0.1224926 0.76408154
0.15163471 0.12211291 0.76171315
0.15384164 0.12173557 0.75935936
0.15603499 0.12136056 0.75702012
0.15821487 0.12098785 0.75469524
0.16038141 0.12061742 0.7523846
0.16253471 0.12024926 0.7500881
0.16467491 0.11988334 0.74780554
0.16680211 0.11951962 0.7455368
0.16891646 0.11915813 0.74328184
0.17101803 0.11879879 0.74104041
0.17412353 0.11913715 0.74315101
0.17776528 0.11982697 0.74745393
0.18144955 0.12052488 0.75180739
0.18517631 0.12123054 0.75620908
0.18894723 0.12194467 0.76066369
0.19276285 0.12266727 0.76517111
0.19662397 0.12339849 0.7697323
0.20053071 0.12413806 0.77434558
0.20448539 0.12488705 0.77901763
0.20848837 0.12564531 0.78374749
0.21254355 0.12641479 0.78854734
0.2166432 0.12719052 0.79338616
0.22079526 0.12797686 0.79829121
0.22499879 0.1287729 0.80325663
0.22925596 0.12957945 0.8082878
0.23356682 0.1303962 0.81338245
0.23793234 0.13122329 0.81854165
0.142793 0.1264738 0.77194947
0.14505725 0.12607779 0.76953238
0.14730732 0.12568423 0.76713026
0.14954339 0.12529311 0.76474297
0.15176557 0.1249044 0.76237047
0.15397401 0.12451811 0.76001269
0.15616882 0.12413419 0.75766939
0.15835017 0.12375265 0.75534058
0.16051812 0.12337343 0.75302601
0.16267285 0.12299654 0.75072557
0.16481443 0.12262194 0.74843913
0.166943 0.1222496 0.74616653
0.1690587 0.12187953 0.74390775
0.17116164 0.1215117 0.74166262
0.1745121 0.12202726 0.74480945
0.17816429 0.1227354 0.74913168
0.18185985 0.12345231 0.75350738
0.18559687 0.12417632 0.75792652
0.18937889 0.12490948 0.76240146
0.19320586 0.12565136 0.76692963
0.19707854 0.12640209 0.77151185
0.2009968 0.12716125 0.7761454
0.20496382 0.12793045 0.78084028
0.20897914 0.128709 0.78559238
0.21304524 0.12949808 0.79040861
0.21715944 0.13029566 0.7952767
0.22132494 0.13110331 0.8002063
0.22554193 0.13192075 0.80519569
0.22981286 0.13274904 0.81025124
0.23413776 0.13358781 0.81537074
0.23851766 0.13443722 0.82055527
0.14291787 0.12930664 0.77262455
0.14518371 0.12890142 0.77020329
0.14743537 0.12849872 0.76779705
0.14967296 0.12809847 0.7654056
0.15189667 0.12770075 0.76302904
0.15410662 0.12730546 0.7606672
0.1563029 0.12691261 0.75831985
0.15848568 0.12652218 0.75598699
0.16065507 0.12613414 0.75366843
0.1628112 0.1257485 0.75136411
0.16495419 0.12536518 0.74907374
0.16708416 0.12498421 0.74679744
0.1692012 0.12460554 0.74453479
0.17130546 0.12422916 0.74228585
0.17490242 0.12493031 0.74647534
0.17856511 0.12565693 0.750817
0.18227178 0.12639284 0.75521415
0.18601938 0.12713555 0.7596519
0.18981256 0.12788789 0.76414728
0.19365089 0.12864919 0.76869619
0.19753528 0.12941967 0.77329987
0.20146534 0.13019869 0.77795464
0.20544453 0.13098812 0.78267157
0.20947488 0.13178883 0.78745592
0.21355098 0.13259701 0.79228497
0.21767814 0.13341564 0.7971763
0.2218582 0.13424541 0.80213434
0.22608769 0.13508384 0.80714405
0.23037247 0.13593407 0.81222427
0.2347115 0.13679504 0.81736875
0.14304297 0.13214445 0.77330083
0.14531039 0.13172998 0.77087533
0.14756361 0.13131806 0.76846486
0.14980277 0.13090873 0.76606941
0.15202798 0.1305019 0.76368868
0.15423942 0.1300976 0.76132274
0.15643719 0.12969579 0.75897139
0.15862143 0.12929645 0.75663453
0.16079226 0.12889959 0.75431204
0.16294982 0.12850514 0.75200379
0.1650942 0.12811309 0.74970955
0.16722552 0.12772344 0.74742931
0.16934393 0.12733613 0.74516284
0.17166364 0.12710972 0.74383789
0.17529452 0.12784638 0.74814874
0.17896771 0.12859161 0.75250983
0.18268481 0.12934618 0.75692546
0.18644378 0.13010825 0.76138508
0.19024819 0.13087997 0.76590109
0.194098 0.13166088 0.77047098
0.19799475 0.13245165 0.77509856
0.20193608 0.13325034 0.7797724
0.20592748 0.13406017 0.78451145
0.20996863 0.1348805 0.78931201
0.21405914 0.1357107 0.79417026
0.21820082 0.13655148 0.79909045
0.22239099 0.13740081 0.80406064
0.22663611 0.13826229 0.80910194
0.2309348 0.13913463 0.8142069
0.23528807 0.14001805 0.81937659
0.14316829 0.13498724 0.77397829
0.14543729 0.13456346 0.77154851
0.14769208 0.13414235 0.76913393
0.14993279 0.13372384 0.7667343
0.15215954 0.13330792 0.76434952
0.15437247 0.13289456 0.76197946
0.15657173 0.13248377 0.75962412
0.15875742 0.1320755 0.75728321
0.16092968 0.13166974 0.75495672
0.16308865 0.13126647 0.75264448
0.16523443 0.13086566 0.75034636
0.16736713 0.1304673 0.74806219
0.16948691 0.13007134 0.74579197
0.17204709 0.13002032 0.74549943
0.17568836 0.13077554 0.74982965
0.17937216 0.13153958 0.75421041
0.18309927 0.13231261 0.75864273
0.18687013 0.13309456 0.76312619
0.19068582 0.13388579 0.76766288
0.19454718 0.13468651 0.77225399
0.19845524 0.13549703 0.7769013
0.20240901 0.13631628 0.78159863
0.2064127 0.1371467 0.78636003
0.21046905 0.13798964 0.79119325
0.21456973 0.13883924 0.79606456
0.21872133 0.13969943 0.80099666
0.22292836 0.14057267 0.80600351
0.22718717 0.14145616 0.81106925
0.23149987 0.14235085 0.81619912
0.23586746 0.14325692 0.82139426
0.14329381 0.13783501 0.77465695
0.14556439 0.13740191 0.77222282
0.14782076 0.13697153 0.76980406
0.15006304 0.13654384 0.76740038
0.15229131 0.13611878 0.76501149
0.15450574 0.13569635 0.76263732
0.15670648 0.13527653 0.76027787
0.15889363 0.13485931 0.75793296
0.16106734 0.13444464 0.75560248
0.16322771 0.1340325 0.75328624
0.1653749 0.13362293 0.75098431
0.16750899 0.13321581 0.74869627
0.16963013 0.13281119 0.74642217
0.17243227 0.13294396 0.74716842
0.17608397 0.13371789 0.75151807
0.17977843 0.13450091 0.75591868
0.18351644 0.13529314 0.76037121
0.1872987 0.13609475 0.76487637
0.1911255 0.13690551 0.76943296
0.19499843 0.13772616 0.77404523
0.19891784 0.13855655 0.77871221
0.20288421 0.13939664 0.78343356
0.20690022 0.14024781 0.78821731
0.21096748 0.1411107 0.79306692
0.21508276 0.14198273 0.79796791
0.21924892 0.14286543 0.80292881
0.22346835 0.14375989 0.80795586
0.22774094 0.14466563 0.81304628
0.23206773 0.14558285 0.81820124
0.2364497 0.14651178 0.82342196
0.14113301 0.14113301 0.77779049
0.14341956 0.14068776 0.77533674
0.14569174 0.14024532 0.77289838
0.14794968 0.13980566 0.77047545
0.1501935 0.13936874 0.76806754
0.15242332 0.13893454 0.76567459
0.15463926 0.13850299 0.76329631
0.15684146 0.1380741 0.76093274
0.15903006 0.13764788 0.75858378
0.16120525 0.1372243 0.75624943
0.16336705 0.1368033 0.75392926
0.16551562 0.13638486 0.75162327
0.16765109 0.13596898 0.74933136
0.16977358 0.13555564 0.74705338
0.17281917 0.13588072 0.74884492
0.17648137 0.13667354 0.75321418
0.18018655 0.13747567 0.7576347
0.18393549 0.13828726 0.76210749
0.18772873 0.13910834 0.7666325
0.19156718 0.13993914 0.77121109
0.19545177 0.14077994 0.77584475
0.19938363 0.14163114 0.7805357
0.2033616 0.14249146 0.78527701
0.20739305 0.14336567 0.79009479
0.21146998 0.14424774 0.79495591
0.21559887 0.14514172 0.79988271
0.21977796 0.146046 0.80486619
0.22401096 0.14696261 0.80991769
0.22829741 0.14789078 0.8150329
0.23263839 0.14883077 0.8202132
0.23703486 0.14978276 0.82545972
0.14125736 0.14400022 0.77847582
0.14354554 0.14354554 0.77601779
0.14581931 0.14309372 0.77357519
0.14807881 0.14264473 0.77114791
0.1503242 0.14219856 0.76873589
0.15255556 0.14175516 0.76633883
0.154773 0.14131448 0.76395649
0.1569767 0.14087652 0.76158887
0.15916677 0.14044127 0.75923586
0.16134337 0.1400087 0.75689739
0.16350658 0.13957879 0.75457323
0.16565657 0.13915151 0.75226337
0.16779341 0.13872685 0.74996752
0.16991729 0.13830477 0.74768579
0.17320779 0.13883068 0.75052887
0.17688057 0.13964255 0.75491792
0.18059652 0.14046396 0.75935853
0.18435645 0.14129509 0.7638517
0.1881628 0.14213736 0.76840508
0.19201092 0.14298686 0.7729975
0.19590722 0.14384796 0.77765268
0.19985117 0.14471981 0.78236598
0.20384124 0.14560089 0.7871291
0.2078833 0.14649494 0.79196244
0.21197489 0.14739975 0.79685396
0.21611734 0.14831582 0.80180627
0.22030957 0.14924197 0.80681306
0.22455621 0.15018091 0.81188905
0.22885662 0.15113173 0.8170293
0.23321185 0.15209468 0.82223505
0.23762292 0.15306997 0.82750756
0.14138195 0.14687251 0.77916241
0.14367174 0.14640835 0.77670002
0.1459471 0.1459471 0.77425313
0.14820819 0.14548877 0.77182162
0.1504551 0.1450333 0.76940536
0.15268801 0.14458068 0.76700419
0.15490697 0.14413083 0.76461774
0.15711215 0.14368376 0.76224601
0.15930368 0.14323945 0.75988895
0.16148172 0.14279789 0.75754642
0.16364639 0.14235905 0.75521839
0.16579776 0.14192289 0.75290453
0.167936 0.14148939 0.75060481
0.17006123 0.14105853 0.74831915
0.1735982 0.14179395 0.75222051
0.17728157 0.14262502 0.75662941
0.18100837 0.14346589 0.76109022
0.18477938 0.14431675 0.76560402
0.18859741 0.1451793 0.77017993
0.19245672 0.14604872 0.77479219
0.19636482 0.14693032 0.77946913
0.20031996 0.14782231 0.78420115
0.20432316 0.14872502 0.78899002
0.20838033 0.14964224 0.79385597
0.21248364 0.15056787 0.79876643
0.21663642 0.15150391 0.8037321
0.22084373 0.15245342 0.80876929
0.22510409 0.15341489 0.81386995
0.22941856 0.15438859 0.81903541
0.2337881 0.15537471 0.82426679
0.14150675 0.14974986 0.77985018
0.14379816 0.14927618 0.77738345
0.14607511 0.14880548 0.77493221
0.14833777 0.14833777 0.77249646
0.15058625 0.14787298 0.77007604
0.15282068 0.14741109 0.76767063
0.15504116 0.14695206 0.76528013
0.15724783 0.14649583 0.76290429
0.15944085 0.14604247 0.76054323
0.16162033 0.14559187 0.75819671
0.16378641 0.14514406 0.75586462
0.1659392 0.14469898 0.75354677
0.16807882 0.14425662 0.75124317
0.17033921 0.14393003 0.74954236
0.17399034 0.14477059 0.75391972
0.1776844 0.14562105 0.75834864
0.1814221 0.14648154 0.76282984
0.18520424 0.14735228 0.76736432
0.18903352 0.14823492 0.77196085
0.19290495 0.1491251 0.77659667
0.19682457 0.15002711 0.78129405
0.20079118 0.15093957 0.78604585
0.20480734 0.15186395 0.7908597
0.20887567 0.15280166 0.79574305
0.21298978 0.15374759 0.80066913
0.21715969 0.15470853 0.80567342
0.22138052 0.15568049 0.81073505
0.22565469 0.15666473 0.81586063
0.22998327 0.15766148 0.82105148
0.23436727 0.15867101 0.82630873
0.14163177 0.15263228 0.78053916
0.14392479 0.15214907 0.77806801
0.14620335 0.15166891 0.77561253
0.14846759 0.15119176 0.7731725
0.15071762 0.15071762 0.77074784
0.15295358 0.15024644 0.76833826
0.15517561 0.1497782 0.76594377
0.15738377 0.14931281 0.76356381
0.15957823 0.14885029 0.76119858
0.16175917 0.14839065 0.75884801
0.16392668 0.14793383 0.75651193
0.16608086 0.14747982 0.75419015
0.16822191 0.1470286 0.75188267
0.17072263 0.14690086 0.75122952
0.17438428 0.14776072 0.75562668
0.17808907 0.14863072 0.76007575
0.18183772 0.14951102 0.76457745
0.18563105 0.1504018 0.76913279
0.18947113 0.15130427 0.77374792
0.19335483 0.15221551 0.77840781
0.19728644 0.15313843 0.78312749
0.20126601 0.1540726 0.78790468
0.20529728 0.15502039 0.79275155
0.20937544 0.15597768 0.797647
0.21350473 0.15694718 0.80260491
0.21768549 0.15792869 0.80762416
0.22191991 0.15892328 0.8127104
0.22620799 0.15993048 0.81786108
0.23055077 0.16095053 0.82307744
0.23494932 0.16198368 0.82836086
0.141757 0.15551981 0.78122932
0.14405166 0.15502702 0.77875388
0.14633182 0.15453735 0.77629405
0.14859764 0.15405077 0.77384979
0.15084921 0.15356721 0.77142078
0.15308671 0.15308671 0.76900703
0.15531026 0.1526092 0.76660836
0.15751992 0.15213463 0.76422435
0.15971586 0.15166296 0.76185507
0.16189824 0.15119423 0.75950044
0.16406718 0.15072839 0.75716037
0.1662228 0.15026541 0.75483465
0.1683652 0.14980525 0.75252312
0.17110777 0.1498851 0.75292426
0.17478 0.15076442 0.75734138
0.17849556 0.15165412 0.76181066
0.18225525 0.15255439 0.76633304
0.18605983 0.15346541 0.77090937
0.18991013 0.15438737 0.77554071
0.19380565 0.15531942 0.78022271
0.19775054 0.15626441 0.78496969
0.20174308 0.15722047 0.78977233
0.20578395 0.15818766 0.79463083
0.20987742 0.15916878 0.79955935
0.2140187 0.16015969 0.80453706
0.21821384 0.16116446 0.80958438
0.22246194 0.16218193 0.81469542
0.22676419 0.16321243 0.81987202
0.23112158 0.16425623 0.82511532
0.23553415 0.1653128 0.83042282
0.14188246 0.15841246 0.78192079
0.14417873 0.15791005 0.77944088
0.14646052 0.15741083 0.77697676
0.14872791 0.15691477 0.77452821
0.15098105 0.15642181 0.77209496
0.15322007 0.15593193 0.76967698
0.15544514 0.15544514 0.76727414
0.15765633 0.15496135 0.76488614
0.15985374 0.1544805 0.76251274
0.16203758 0.15400265 0.76015407
0.16420794 0.15352775 0.75780994
0.16636494 0.15305574 0.75548017
0.16850874 0.15258665 0.75316471
0.17149466 0.15288284 0.75462669
0.17517751 0.15378179 0.7590639
0.17890394 0.15469137 0.76355356
0.18267471 0.1556118 0.76809675
0.18649061 0.15654321 0.77269423
0.19035247 0.15748586 0.77734709
0.1942628 0.15844129 0.78206313
0.1982168 0.15940511 0.78682053
0.20729008 0.16440248 0.81148744
0.20932981 0.16376142 0.80832314
0.21122913 0.16302919 0.8047089
0.21453869 0.1633904 0.80649179
0.21874386 0.16441531 0.8115508
0.22300763 0.16545728 0.81669384
0.22732301 0.16651049 0.8218925
0.23169386 0.16757733 0.82715839
0.13969555 0.16182554 0.78511351
0.14200816 0.16131023 0.78261346
0.14430605 0.16079816 0.78012913
0.14658943 0.16028938 0.77766067
0.14885841 0.1597838 0.77520782
0.15111311 0.15928139 0.77277029
0.15335369 0.15878214 0.77034813
0.15558025 0.15828599 0.76794106
0.15779296 0.15779296 0.765549
0.15999185 0.1573029 0.76317149
0.16217713 0.1568159 0.76080877
0.16434893 0.1563319 0.75846058
0.16650738 0.1558509 0.75612694
0.16865255 0.15537281 0.75380749
0.17188331 0.15589418 0.75633687
0.17557687 0.15681292 0.76079428
0.17931418 0.15774256 0.76530451
0.1830961 0.15868329 0.76986855
0.18692338 0.15963531 0.77448738
0.19079687 0.1605988 0.77916187
0.19472001 0.16157618 0.78390378
0.20538218 0.16803998 0.81526351
0.2076316 0.16753723 0.81282437
0.209822 0.16700119 0.8102237
0.21194059 0.16642314 0.8074193
0.21505743 0.1666339 0.80844182
0.2192803 0.16768493 0.813541
0.22355549 0.16874833 0.81870019
0.2278837 0.16982415 0.82391965
0.23227 0.17091566 0.82921523
0.1398198 0.16473818 0.78581184
0.14213404 0.16421312 0.78330725
0.14443359 0.1636914 0.78081864
0.14671858 0.163173 0.77834582
0.14898913 0.16265786 0.77588856
0.1512454 0.16214597 0.77344686
0.15348752 0.16163729 0.77102041
0.1557156 0.1611318 0.76860917
0.15792979 0.16062945 0.76621294
0.16013019 0.16013019 0.76383138
0.16231695 0.15963402 0.76146466
0.16449016 0.1591409 0.75911242
0.16665001 0.1586508 0.75677466
0.16879658 0.15816373 0.75445127
0.17227373 0.15891917 0.75805479
0.17597802 0.15985788 0.76253253
0.17972632 0.16080776 0.76706344
0.18351942 0.16176897 0.77164853
0.18735817 0.16274177 0.77628881
0.19124335 0.16372631 0.78098518
