# .PCD v0.7 - Point Cloud Data file format
VERSION 0.7
FIELDS x y z
SIZE 4 4 4
TYPE F F F
COUNT 1 1 1
WIDTH 573
HEIGHT 1
VIEWPOINT 0 0 0 1 0 0 0
POINTS 573
DATA ascii
0.3588919 -0.58912444 1.2812616
0.36267129 -0.58793294 1.2786702
0.35080698 -0.58618712 1.2847179
0.35433599 -0.58454156 1.2811114
0.35784513 -0.58290493 1.2775245
0.36187795 -0.58215147 1.2758732
0.37197015 -0.5910446 1.2953638
0.3390967 -0.58488488 1.2918395
0.34267828 -0.58323389 1.2881929
0.34623975 -0.58159226 1.284567
0.34978122 -0.57995981 1.2809614
0.3533026 -0.57833612 1.2773751
0.35680413 -0.57672113 1.2738081
0.36108813 -0.57639533 1.2730885
0.3711482 -0.58518457 1.2925013
0.38151494 -0.59423846 1.3124987
0.33089098 -0.58191174 1.2953532
0.33450556 -0.58026475 1.2916869
0.33809969 -0.57862699 1.2880412
0.34167358 -0.57699847 1.2844161
0.34522745 -0.57537907 1.2808113
0.3487612 -0.57376844 1.277226
0.35227498 -0.57216638 1.2736597
0.35576916 -0.57057321 1.2701132
0.3603017 -0.57066417 1.2703158
0.37033346 -0.57935607 1.2896641
0.38066387 -0.58829874 1.3095708
0.32991546 -0.57564563 1.2915343
0.33352217 -0.57402116 1.2878896
0.33710852 -0.57240576 1.2842653
0.34067476 -0.57079941 1.2806612
0.34422088 -0.56920183 1.2770768
0.34774691 -0.56761271 1.2735114
0.3512533 -0.56603235 1.2699658
0.35474023 -0.56446087 1.2664399
0.35951871 -0.56495798 1.2675552
0.36952031 -0.57354993 1.2868323
0.37981987 -0.58239049 1.3066672
0.3289457 -0.56941634 1.2877378
0.33254454 -0.56781411 1.2841145
0.33612317 -0.56622088 1.2805114
0.33968154 -0.56463623 1.2769276
0.34321985 -0.56305999 1.273363
0.34673846 -0.56149262 1.2698183
0.35023755 -0.5599339 1.2662933
0.35371721 -0.55838376 1.2627877
0.35873914 -0.55927652 1.2648066
0.36870727 -0.56776398 1.284001
0.38057256 -0.57893163 1.3092567
0.38954699 -0.58548683 1.3240813
0.32798159 -0.5632236 1.2839637
0.33157262 -0.56164342 1.2803614
0.33514333 -0.56007177 1.2767786
0.33869389 -0.55850846 1.2732148
0.34222466 -0.55695391 1.2696708
0.34573585 -0.55540788 1.2661465
0.34922764 -0.55387056 1.2626419
0.35293943 -0.55271649 1.260011
0.35796207 -0.55361837 1.262067
0.36789653 -0.56200147 1.2811776
0.38157719 -0.57583463 1.3127128
0.38866526 -0.57950687 1.3210843
0.32341972 -0.55863404 1.2838129
0.32702315 -0.55706704 1.2802116
0.33060616 -0.55550832 1.2766294
0.33416897 -0.55395794 1.2730665
0.33771196 -0.55241627 1.2695235
0.34142265 -0.55118555 1.2666953
0.34536597 -0.5503574 1.264792
0.34929743 -0.54953164 1.2628943
0.35321715 -0.54870838 1.2610024
0.35718948 -0.54798633 1.259343
0.36708933 -0.55626416 1.2783666
0.38224527 -0.5722096 1.3150111
0.38778749 -0.57355398 1.3181007
0.32247469 -0.55249161 1.2800616
0.32607004 -0.55094594 1.2764804
0.32978296 -0.54963827 1.2734507
0.33376488 -0.54880804 1.2715272
0.33773476 -0.54798025 1.2696092
0.34169272 -0.54715496 1.2676972
0.34563872 -0.54633218 1.2657908
0.3495729 -0.54551184 1.2638903
0.35349524 -0.54469389 1.2619952
0.3574059 -0.54387856 1.2601061
0.36628458 -0.5505504 1.2755641
0.38261369 -0.56812334 1.3162786
0.3869164 -0.56763184 1.3151398
0.39772317 -0.57658094 1.3358738
0.3220396 -0.54724211 1.2783345
0.32604849 -0.54641229 1.276396
0.33004525 -0.54558498 1.2744635
0.33402991 -0.54476017 1.2725368
0.33800256 -0.54393786 1.2706159
0.34196317 -0.543118 1.2687007
0.34591195 -0.54230064 1.2667915
0.34984881 -0.54148573 1.2648878
0.35377383 -0.5406732 1.2629898
0.35768718 -0.53986329 1.2610978
0.36548555 -0.54486495 1.2727815
0.37561789 -0.55318272 1.2922114
0.38651568 -0.56241506 1.3137778
0.3968187 -0.57057363 1.3328359
0.3263084 -0.54234707 1.2774135
0.3303079 -0.54152519 1.2754778
0.33429533 -0.54070592 1.273548
0.33827069 -0.53988904 1.271624
0.3422341 -0.53907466 1.2697059
0.34618556 -0.53826272 1.2677935
0.35012513 -0.53745323 1.2658869
0.35405287 -0.53664619 1.263986
0.35796887 -0.53584158 1.2620909
0.36469001 -0.53920424 1.2700111
0.37478694 -0.54741609 1.2893528
0.385708 -0.55662054 1.3110324
0.395915 -0.56458884 1.3298006
0.32656866 -0.53827524 1.2784324
0.33057103 -0.53745902 1.2764938
0.3345612 -0.53664511 1.2745608
0.33853936 -0.53583384 1.2726339
0.34250546 -0.53502488 1.2707126
0.34645966 -0.53421843 1.2687973
0.35040191 -0.53341436 1.2668875
0.35433233 -0.53261274 1.2649837
0.35825101 -0.53181356 1.2630856
0.36389792 -0.53356808 1.2672527
0.37396055 -0.54167622 1.2865099
0.38431621 -0.55000943 1.3063017
0.39501551 -0.55863142 1.3267794
0.32682937 -0.53419697 1.279453
0.33083451 -0.53338623 1.2775112
0.33482748 -0.53257793 1.2755753
0.33880839 -0.53177208 1.2736452
0.34277728 -0.53096873 1.271721
0.34673417 -0.5301677 1.2698026
0.35067913 -0.52936912 1.2678899
0.35461226 -0.52857298 1.265983
0.35853359 -0.52777928 1.264082
0.36310929 -0.52795643 1.2645063
0.37313783 -0.53596163 1.2836795
0.38346577 -0.54419994 1.303411
0.39412004 -0.55270088 1.3237716
0.40510845 -0.5614661 1.3447652
0.3270905 -0.53011221 1.2804753
0.33109847 -0.52930707 1.2785305
0.33509418 -0.52850425 1.2765913
0.33907786 -0.52770394 1.2746582
0.3430495 -0.52690607 1.2727309
0.34700906 -0.52611053 1.2708093
0.35095677 -0.52531749 1.2688937
0.35489261 -0.52452677 1.2669839
0.35881662 -0.52373856 1.2650799
0.36272886 -0.52295268 1.2631816
0.37231871 -0.53027207 1.2808615
0.38261554 -0.53841108 1.300521
0.39321691 -0.54678088 1.3207382
0.4041777 -0.55544889 1.3416755
0.32735205 -0.52602088 1.2814991
0.33136278 -0.52522129 1.2795511
0.33536136 -0.52442414 1.2776091
0.33934778 -0.52362937 1.2756729
0.34332213 -0.52283698 1.2737424
0.34728444 -0.52204692 1.2718178
0.35123488 -0.52125943 1.2698992
0.35517344 -0.52047426 1.2679864
0.3591001 -0.51969147 1.2660793
0.36301503 -0.518911 1.264178
0.37150317 -0.52460754 1.2780559
0.38176596 -0.5326435 1.2976333
0.39232954 -0.54090405 1.3177577
0.40325117 -0.54945922 1.3385999
0.33162758 -0.52112901 1.2805736
0.33562893 -0.52033746 1.2786285
0.33961809 -0.51954824 1.2766891
0.34359524 -0.51876146 1.2747557
0.34756029 -0.51797694 1.272828
0.35151345 -0.51719493 1.2709063
0.35545465 -0.51641524 1.2689904
0.359384 -0.51563793 1.2670803
0.3633016 -0.51486301 1.2651761
0.37069115 -0.51896763 1.2752624
0.3809194 -0.52690047 1.2947558
0.39144659 -0.53505421 1.314792
0.40232894 -0.54349697 1.3355385
0.33189279 -0.51703024 1.2815977
0.33589691 -0.51624423 1.2796494
0.33988887 -0.51546061 1.277707
0.3438687 -0.51467931 1.2757703
0.34783655 -0.51390046 1.2738397
0.35179245 -0.51312399 1.2719151
0.35573635 -0.51234984 1.269996
0.3596684 -0.51157802 1.268083
0.36358863 -0.51080859 1.2661756
0.36988273 -0.51335239 1.2724812
0.38007659 -0.52118284 1.2918911
0.39057076 -0.52923495 1.3118503
0.40141085 -0.53756189 1.3324909
0.33215836 -0.51292485 1.2826233
0.33616531 -0.51214451 1.280672
0.34016004 -0.51136643 1.2787263
0.34414268 -0.51059073 1.2767867
0.34811327 -0.50981748 1.2748531
0.35207188 -0.50904661 1.2729254
0.35601845 -0.50827795 1.2710032
0.35995322 -0.50751168 1.2690872
0.3638761 -0.50674772 1.2671767
0.3690778 -0.5077616 1.2697121
0.3792375 -0.51549047 1.289039
0.3897005 -0.52344388 1.3089273
0.40049061 -0.53164542 1.3294362
0.33242443 -0.5088129 1.2836508
0.33643416 -0.50803816 1.2816961
0.34043166 -0.50726569 1.2797474
0.34441707 -0.50649565 1.2778047
0.34839043 -0.50572801 1.2758681
0.35235173 -0.50496268 1.2739372
0.35630107 -0.50419962 1.2720121
0.36023849 -0.50343889 1.270093
0.36416405 -0.50268048 1.2681795
0.36827642 -0.50219512 1.2669551
0.37840208 -0.5098232 1.2861995
0.38882911 -0.51767188 1.3060005
0.3995786 -0.52576131 1.3264087
0.41068503 -0.53412795 1.3475163
0.33269089 -0.50469434 1.2846797
0.33670345 -0.50392526 1.282722
0.34070373 -0.50315851 1.2807702
0.34469193 -0.50239408 1.2788244
0.34866801 -0.50163203 1.2768847
0.35263208 -0.50087231 1.2749507
0.3565841 -0.50011486 1.2730227
0.36052424 -0.49935967 1.2711004
0.36445251 -0.4986068 1.269184
0.36836892 -0.49785617 1.2672733
0.37757033 -0.50418073 1.2833723
0.3879616 -0.51192564 1.3030866
0.39867344 -0.51990747 1.3234041
0.40973955 -0.52816141 1.3444141
0.3329578 -0.50056922 1.2857103
0.33697313 -0.49980581 1.2837495
0.34097624 -0.49904469 1.2817945
0.34496719 -0.49828595 1.2798457
0.34894603 -0.49752951 1.2779028
0.35291281 -0.49677536 1.2759658
0.35686761 -0.49602354 1.2740347
0.36081043 -0.49527392 1.2721094
0.36474136 -0.49452659 1.2701899
0.36866042 -0.49378154 1.2682762
0.3767435 -0.49856475 1.2805618
0.38709408 -0.50619996 1.3001728
0.3977724 -0.51408011 1.320413
0.40879837 -0.52222216 1.3413259
0.33724326 -0.49567968 1.2847785
0.34124917 -0.49492431 1.2828206
0.34524292 -0.49417123 1.2808686
0.34922451 -0.49342045 1.2789227
0.35319406 -0.49267197 1.2769827
0.35715154 -0.49192572 1.2750484
0.36109704 -0.4911817 1.2731199
0.36503068 -0.49043998 1.2711974
0.36895242 -0.48970047 1.2692807
0.37591729 -0.49296936 1.2777535
0.38624075 -0.50051314 1.2973067
0.39688146 -0.50828677 1.3174555
0.40785703 -0.51630455 1.3382373
0.33751386 -0.49154702 1.2858094
0.34152254 -0.49079731 1.2838483
0.34551907 -0.49004993 1.2818933
0.34950346 -0.48930484 1.2799442
0.35347569 -0.48856196 1.278001
0.35743594 -0.48782137 1.2760637
0.36138412 -0.48708296 1.2741321
0.36532047 -0.48634687 1.2722067
0.36924487 -0.48561296 1.2702868
0.37509573 -0.48739982 1.274961
0.38538447 -0.4948428 1.2944306
0.39598823 -0.50251138 1.3144904
0.40692347 -0.51041847 1.3351741
0.32567686 -0.489654 1.2927725
0.32972518 -0.48890287 1.2907894
0.3337611 -0.48815396 1.2888122
0.33778486 -0.48740768 1.2868419
0.3417964 -0.48666373 1.2848777
0.34579566 -0.48592201 1.2829194
0.34978279 -0.48518261 1.2809672
0.3537578 -0.48444539 1.2790209
0.35772079 -0.4837105 1.2770807
0.36167172 -0.48297775 1.275146
0.36561069 -0.48224723 1.2732173
0.3695378 -0.48151895 1.2712946
0.37427786 -0.48185471 1.272181
0.384532 -0.48919752 1.2915673
0.39509901 -0.49676192 1.3115387
0.40599561 -0.50456101 1.3321296
0.41724935 -0.51262063 1.3534085
0.31371108 -0.48774061 1.2998121
0.31779984 -0.48698825 1.2978071
0.32187602 -0.48623824 1.2958083
0.32593966 -0.48549053 1.2938157
0.3299908 -0.48474512 1.2918292
0.33402979 -0.48400235 1.2898498
0.33805639 -0.48326182 1.2878762
0.34207073 -0.48252359 1.2859089
0.34607276 -0.48178756 1.2839475
0.35006264 -0.48105383 1.2819921
0.35404038 -0.4803223 1.2800425
0.35800606 -0.47959304 1.2780991
0.3619597 -0.47886595 1.2761614
0.36590141 -0.4781411 1.2742298
0.36983117 -0.47741842 1.2723038
0.37374908 -0.47669792 1.2703837
0.38368326 -0.48357713 1.2887166
0.3942138 -0.49103823 1.3086002
0.40507194 -0.49873018 1.3290989
0.4162845 -0.50667775 1.3502789
0.30161428 -0.48580623 1.3069286
0.30574417 -0.48505276 1.3049017
0.30986124 -0.48430166 1.302881
0.31396559 -0.48355287 1.3008666
0.31805733 -0.48280641 1.2988585
0.32213637 -0.48206225 1.2968565
0.32620287 -0.48132032 1.2948606
0.33025709 -0.48058099 1.2928716
0.33429891 -0.479844 1.2908889
0.33832833 -0.47910926 1.2889123
0.34234548 -0.47837678 1.2869418
0.34635031 -0.47764653 1.2849772
0.35034296 -0.47691846 1.2830186
0.35432345 -0.47619265 1.2810659
0.35829186 -0.47546908 1.2791194
0.36224818 -0.47474763 1.2771785
0.36619258 -0.47402844 1.2752438
0.37012503 -0.47331139 1.2733147
0.37404558 -0.4725965 1.2713915
0.38283828 -0.47798151 1.2858784
0.39333254 -0.48534015 1.3056748
0.40415248 -0.49292588 1.3260821
0.41532156 -0.50075912 1.3471553
0.3059932 -0.48084646 1.3059646
0.31011325 -0.48010126 1.3039407
0.31422055 -0.47935835 1.3019229
0.31831515 -0.47861776 1.2999115
0.32239711 -0.47787941 1.2979062
0.32646662 -0.47714353 1.2959075
0.33052373 -0.47641009 1.2939155
0.33456844 -0.47567892 1.2919297
0.3386007 -0.47494999 1.2899499
0.34262064 -0.47422326 1.2879761
0.34662828 -0.47349876 1.2860085
0.3506237 -0.47277647 1.2840468
0.35460696 -0.47205639 1.282091
0.35857809 -0.47133851 1.2801412
0.36253715 -0.47062275 1.2781973
0.36648425 -0.46990925 1.2762594
0.37041935 -0.46919784 1.2743273
0.37434256 -0.4684886 1.272401
0.38199702 -0.4724105 1.2830528
0.39245522 -0.47966748 1.3027625
0.40324107 -0.48715252 1.3230916
0.41436607 -0.4948715 1.3440561
0.30624264 -0.47663331 1.3070292
0.31036565 -0.47589397 1.3050019
0.31447589 -0.47515699 1.3029809
0.31857345 -0.47442234 1.3009663
0.32265836 -0.47368994 1.2989579
0.32673091 -0.47296011 1.2969565
0.33079088 -0.47223252 1.2949613
0.33483839 -0.47150713 1.2929722
0.33887354 -0.47078404 1.2909893
0.34289625 -0.47006309 1.2890123
0.34690669 -0.46934438 1.2870414
0.35090491 -0.46862787 1.2850766
0.35489091 -0.46791348 1.2831177
0.35886475 -0.46720129 1.2811646
0.36282656 -0.46649131 1.2792177
0.3668074 -0.46582288 1.2773848
0.37105408 -0.46550423 1.276511
0.37529492 -0.46518594 1.2756381
0.38115942 -0.4668639 1.2802395
0.39158314 -0.4740217 1.2998676
0.40232965 -0.48140022 1.3201011
0.4134149 -0.48901078 1.3409709
0.30649248 -0.47241321 1.3080955
0.31061849 -0.4716799 1.306065
0.31473166 -0.47094885 1.3040407
0.31883213 -0.47022006 1.3020227
0.32292017 -0.46949387 1.3000119
0.32699558 -0.46876991 1.2980072
0.33105844 -0.46804813 1.2960087
0.33510885 -0.46732864 1.2940165
0.33914679 -0.46661136 1.2920303
0.34317234 -0.46589622 1.2900501
0.34718558 -0.46518329 1.288076
0.3511866 -0.46447259 1.2861081
0.35528284 -0.46390435 1.2845347
0.35956123 -0.46358523 1.2836511
0.36383379 -0.46326661 1.2827688
0.3681004 -0.46294838 1.2818877
0.37236112 -0.46263048 1.2810074
0.37661594 -0.46231297 1.2801282
0.38086498 -0.46199599 1.2792505
0.39071327 -0.46839896 1.2969801
0.40142235 -0.47567388 1.3171241
0.41246819 -0.48317701 1.3379
0.30674273 -0.46818629 1.3091636
0.31087172 -0.46745893 1.3071297
0.31498784 -0.46673381 1.3051021
0.31909144 -0.46601126 1.3030816
0.32318237 -0.46529093 1.3010675
0.3272607 -0.46457288 1.2990596
0.33132643 -0.46385702 1.2970579
0.33537966 -0.46314335 1.2950623
0.33942047 -0.46243191 1.2930729
0.34362859 -0.46196425 1.2917652
0.34793913 -0.46164471 1.2908717
0.35224369 -0.46132562 1.2899795
0.35654229 -0.46100691 1.2890882
0.36083499 -0.46068871 1.2881985
0.36512172 -0.46037087 1.2873098
0.36940253 -0.46005344 1.2864221
0.37367734 -0.45973638 1.2855356
0.37794635 -0.45941979 1.2846503
0.38220945 -0.45910364 1.2837663
0.38984731 -0.46280119 1.2941055
0.40051913 -0.46997333 1.3141606
0.41152576 -0.47736987 1.3348432
0.3069934 -0.46395242 1.3102334
0.31112531 -0.46323103 1.3081961
0.31524462 -0.46251217 1.3061659
0.31935117 -0.46179557 1.3041422
0.32344502 -0.46108121 1.3021249
0.32752624 -0.46036905 1.3001137
0.33184236 -0.46000218 1.2990776
0.33618549 -0.4596822 1.2981739
0.34052256 -0.45936263 1.2972715
0.34485358 -0.4590435 1.2963703
0.34917861 -0.45872486 1.2954704
0.35349765 -0.45840663 1.2945716
0.35781071 -0.45808885 1.2936742
0.36211774 -0.45777145 1.2927779
0.36641875 -0.45745444 1.2918826
0.37071383 -0.45713791 1.2909887
0.37500295 -0.45682177 1.2900959
0.37928614 -0.45650607 1.2892044
0.3835634 -0.45619079 1.288314
0.38898519 -0.45722818 1.2912437
0.39961997 -0.46429834 1.3112103
0.41058764 -0.47158924 1.3318002
0.30724448 -0.45971164 1.3113049
0.31137949 -0.45899642 1.3092648
0.31553972 -0.45833871 1.3073887
0.31992203 -0.45801786 1.3064735
0.32429814 -0.45769736 1.3055593
0.32866815 -0.45737737 1.3046465
0.33303207 -0.45705783 1.303735
0.33738992 -0.45673874 1.3028249
0.34174171 -0.45642012 1.301916
0.34608737 -0.45610186 1.3010082
0.350427 -0.45578414 1.3001019
0.35476059 -0.45546681 1.2991967
0.35908806 -0.45514986 1.2982926
0.36340955 -0.45483333 1.2973897
0.36772498 -0.45451722 1.296488
0.37203446 -0.45420161 1.2955878
0.37633795 -0.45388636 1.2946886
0.38063544 -0.45357159 1.2937907
0.384927 -0.45325723 1.292894
0.38921258 -0.4529433 1.2919985
0.39872482 -0.4586488 1.3082732
0.40965533 -0.46583661 1.3287761
0.31227475 -0.45568985 1.3130292
0.31667826 -0.45536944 1.312106
0.32107553 -0.45504948 1.311184
0.32546663 -0.45472997 1.3102634
0.32985157 -0.45441091 1.3093441
0.33423033 -0.45409226 1.3084259
0.33860302 -0.45377409 1.3075092
0.34296954 -0.45345637 1.3065937
0.34733 -0.45313913 1.3056796
0.35168433 -0.4528223 1.3047667
0.35603252 -0.45250586 1.3038548
0.36037463 -0.4521898 1.3029442
0.36471063 -0.4518742 1.3020347
0.36904061 -0.45155901 1.3011266
0.37336457 -0.45124429 1.3002198
0.37768248 -0.45093 1.2993141
0.3819944 -0.45061615 1.2984098
0.3863003 -0.45030272 1.2975067
0.3906002 -0.44998971 1.2966048
0.39783373 -0.45302454 1.3053493
0.40872544 -0.46010807 1.3257599
0.31340638 -0.45269808 1.3177873
0.31782499 -0.45237863 1.3168573
0.32223737 -0.45205963 1.3159287
0.32664356 -0.4517411 1.3150015
0.33104351 -0.45142299 1.3140755
0.33543727 -0.4511053 1.3131508
0.33982489 -0.45078811 1.3122274
0.3442063 -0.45047134 1.3113053
0.34858158 -0.45015502 1.3103845
0.35295063 -0.44983903 1.3094647
0.35731354 -0.44952351 1.3085462
0.36167037 -0.44920841 1.307629
0.3660211 -0.44889379 1.3067131
0.37036568 -0.44857958 1.3057984
0.37470421 -0.44826579 1.304885
0.37903666 -0.44795242 1.3039728
0.3833631 -0.44763955 1.3030621
0.38768345 -0.44732705 1.3021524
0.39199781 -0.44701505 1.3012441
0.39694655 -0.44742531 1.3024384
0.40779978 -0.45440546 1.3227574
0.3189801 -0.44936612 1.3216434
0.32340768 -0.44904807 1.3207079
0.327829 -0.4487305 1.3197739
0.3322441 -0.44841337 1.3188412
0.33665296 -0.44809669 1.3179098
0.3410556 -0.44778046 1.3169798
0.34545198 -0.44746464 1.3160509
0.3498421 -0.44714919 1.3151231
0.35422605 -0.44683418 1.3141966
0.35860386 -0.44651964 1.3132715
0.36297548 -0.44620553 1.3123477
0.36734095 -0.44589186 1.3114251
0.37170029 -0.44557863 1.3105038
0.37605348 -0.4452658 1.3095838
0.38040063 -0.44495347 1.3086652
0.38474163 -0.44464153 1.3077477
0.38989773 -0.44526783 1.3095897
0.39745215 -0.44858631 1.3193499
0.40511927 -0.45195386 1.3292543
0.32014364 -0.44633165 1.3264643
0.32458654 -0.44601458 1.3255221
0.32902315 -0.44569802 1.3245813
0.33345345 -0.44538188 1.3236417
0.33787748 -0.44506618 1.3227035
0.3422952 -0.44475091 1.3217665
0.3467066 -0.44443598 1.3208306
0.3511118 -0.44412157 1.3198961
0.3555108 -0.4438076 1.3189631
0.35990351 -0.44349399 1.3180311
0.36429006 -0.44318089 1.3171005
0.36867037 -0.44286817 1.3161712
0.37304458 -0.44255599 1.3152434
0.37949201 -0.44468084 1.3215582
0.38703856 -0.44802645 1.3315011
0.39469793 -0.45142099 1.3415895
0.32131568 -0.44327489 1.3313204
0.32577398 -0.44295886 1.3303713
0.33022597 -0.44264331 1.3294235
0.33467162 -0.44232821 1.3284771
0.33911088 -0.44201347 1.3275319
0.3435438 -0.44169918 1.3265879
0.3479704 -0.44138527 1.3256452
0.3523908 -0.44107193 1.3247041
0.35680482 -0.44075891 1.323764
0.36146769 -0.44075736 1.3237593
0.3688944 -0.44408306 1.3337476
0.37643135 -0.44745615 1.3438783
0.38408136 -0.45087814 1.3541558
0.32697019 -0.43988076 1.3352562
0.33143762 -0.43956622 1.3343015
0.33589867 -0.43925208 1.3333479
0.34035325 -0.43893835 1.3323956
0.34480152 -0.43862507 1.3314446
0.35068569 -0.44012231 1.3359895
0.35809943 -0.44347411 1.3461639
0.36562511 -0.44687513 1.3564876
0.32817519 -0.43677995 1.3401772
0.33265817 -0.4364664 1.3392152
0.33970264 -0.43947545 1.3484478
0.3471016 -0.44285375 1.3588135
0.35461414 -0.44628313 1.3693359
