# .PCD v0.7 - Point Cloud Data file format
VERSION 0.7
FIELDS x y z
SIZE 4 4 4
TYPE F F F
COUNT 1 1 1
WIDTH 1371
HEIGHT 1
VIEWPOINT 0 0 0 1 0 0 0
POINTS 1371
DATA ascii
-0.12507564 0.010063558 0.81606501
-0.12200183 0.010047209 0.81473929
-0.11893793 0.010030909 0.81341755
-0.11588391 0.010014659 0.81209975
-0.11283978 0.0099984612 0.81078631
-0.10980547 0.0099823158 0.80947703
-0.10678096 0.0099662235 0.80817205
-0.10376617 0.0099501805 0.80687118
-0.10076108 0.0099341907 0.80557454
-0.098215312 0.0099638728 0.80798143
-0.096003383 0.010030204 0.81336033
-0.093761809 0.010097425 0.81881142
-0.091489978 0.010165553 0.82433593
-0.089187279 0.010234606 0.82993549
-0.086853087 0.010304604 0.8356117
-0.084486745 0.010375565 0.84136605
-0.082087584 0.010447511 0.84720021
-0.079654925 0.010520462 0.85311586
-0.077188052 0.010594438 0.85911471
-0.074686237 0.010669462 0.86519849
-0.072148733 0.010745556 0.871369
-0.069574781 0.010822744 0.87762827
-0.16272835 0.013194191 0.832169
-0.15953158 0.013172331 0.83079028
-0.15634538 0.013150547 0.82941628
-0.15316972 0.013128833 0.8280468
-0.15000452 0.013107191 0.82668179
-0.14684975 0.013085621 0.82532138
-0.14370534 0.013064122 0.82396537
-0.14057122 0.01304269 0.82261372
-0.13744739 0.013021332 0.82126659
-0.13433377 0.013000043 0.81992388
-0.13123032 0.012978824 0.81858557
-0.12813699 0.012957673 0.81725156
-0.1250537 0.012936591 0.8159219
-0.12198045 0.012915577 0.81459653
-0.11891716 0.012894631 0.81327552
-0.11586376 0.012873751 0.81195855
-0.11282019 0.012852932 0.81064552
-0.10978644 0.012832182 0.80933672
-0.10676248 0.012811498 0.80803216
-0.10374825 0.012790879 0.80673176
-0.1007437 0.012770329 0.8054356
-0.097828932 0.012760296 0.80480283
-0.095623203 0.012844907 0.81013936
-0.093388014 0.012930648 0.81554711
-0.091122791 0.013017541 0.82102752
-0.08882691 0.013105609 0.82658207
-0.086499758 0.013194879 0.83221233
-0.084140688 0.013285371 0.83791983
-0.081749037 0.013377115 0.84370613
-0.079324126 0.013470135 0.84957296
-0.076865248 0.013564456 0.85552192
-0.074371696 0.013660108 0.86155474
-0.07184273 0.013757118 0.86767328
-0.069277674 0.013855535 0.87388051
-0.16912346 0.016177027 0.83479005
-0.16590603 0.016150143 0.83340281
-0.16269925 0.016123349 0.8320201
-0.1595031 0.016096644 0.83064204
-0.15631753 0.016070027 0.82926852
-0.15314245 0.016043495 0.8278994
-0.14997786 0.016017053 0.82653487
-0.14682369 0.015990699 0.82517493
-0.14367987 0.015964432 0.8238194
-0.14054637 0.015938248 0.82246828
-0.13742313 0.015912153 0.82112163
-0.1343101 0.015886141 0.81977934
-0.13120723 0.015860215 0.81844145
-0.12811448 0.015834372 0.81710798
-0.12503177 0.015808616 0.81577879
-0.1219591 0.015782943 0.81445396
-0.11889638 0.015757352 0.81313342
-0.11584357 0.015731843 0.81181705
-0.11280061 0.015706412 0.81050479
-0.10976741 0.01568106 0.80919647
-0.10674401 0.015655788 0.80789238
-0.10373033 0.015630597 0.80659246
-0.10072633 0.015605488 0.80529672
-0.097731955 0.015580457 0.80400503
-0.095246017 0.015637405 0.80694377
-0.093017198 0.015741372 0.81230879
-0.090758547 0.015846729 0.81774563
-0.088469453 0.015953507 0.82325572
-0.086149305 0.016061734 0.82884061
-0.083797462 0.01617144 0.8345018
-0.081413269 0.016282655 0.84024084
-0.078996062 0.016395409 0.84605932
-0.076545134 0.016509736 0.85195899
-0.074059792 0.016625669 0.85794151
-0.071539313 0.016743243 0.86400878
-0.068983108 0.016862538 0.87016481
-0.066390224 0.016983546 0.87640923
-0.16909315 0.019114878 0.83464044
-0.16587631 0.019083114 0.83325356
-0.16267015 0.019051459 0.83187133
-0.15947463 0.019019909 0.83049369
-0.15628965 0.018988464 0.82912064
-0.15311521 0.018957121 0.82775211
-0.14995123 0.018925883 0.82638812
-0.14679767 0.018894749 0.82502866
-0.14365444 0.018863713 0.82367349
-0.14052151 0.01883278 0.82232285
-0.13739887 0.01880195 0.82097667
-0.13428643 0.018771222 0.81963491
-0.13118415 0.018740593 0.81829751
-0.12809198 0.018710064 0.81696445
-0.12500985 0.018679632 0.81563568
-0.12193774 0.018649301 0.81431133
-0.11887559 0.018619068 0.8129912
-0.11582336 0.018588934 0.81167543
-0.11278098 0.018558895 0.81036383
-0.10974839 0.018528949 0.80905622
-0.10672554 0.018499093 0.80775255
-0.10371241 0.018469334 0.80645311
-0.10070896 0.018439669 0.80515784
-0.097715139 0.0184101 0.80386668
-0.094871789 0.018407958 0.80377322
-0.092649311 0.018529862 0.8090961
-0.090397201 0.018653391 0.8144899
-0.088114858 0.018778577 0.81995606
-0.085801676 0.018905453 0.82549608
-0.083457023 0.019034058 0.83111149
-0.08108025 0.019164424 0.83680385
-0.078670703 0.019296588 0.84257472
-0.076227687 0.019430585 0.84842569
-0.073750496 0.01956646 0.85435849
-0.071238562 0.019704282 0.86037648
-0.068691045 0.019844079 0.86648065
-0.066107124 0.019985873 0.87267202
-0.16906285 0.022051675 0.8344909
-0.16584665 0.022015041 0.83310455
-0.16264111 0.021978527 0.8317228
-0.15944619 0.021942137 0.83034563
-0.15626183 0.021905864 0.828973
-0.15308797 0.02186971 0.82760483
-0.14992459 0.021833679 0.82624131
-0.14677162 0.021797765 0.82488227
-0.143629 0.021761971 0.82352769
-0.1404967 0.021726293 0.82217759
-0.13737462 0.021690732 0.82083184
-0.13426279 0.021655288 0.81949055
-0.13116108 0.021619957 0.81815356
-0.12806948 0.021584744 0.81682098
-0.12498794 0.021549644 0.81549275
-0.1219164 0.021514658 0.81416881
-0.11885481 0.021479785 0.8128491
-0.11580314 0.021445027 0.81153375
-0.11276133 0.02141038 0.81022263
-0.10972933 0.021375844 0.80891573
-0.10670708 0.021341417 0.8076129
-0.1036945 0.02130709 0.80631387
-0.10069159 0.021272874 0.80501902
-0.097698316 0.021238765 0.80372828
-0.094714627 0.021204766 0.80244172
-0.092284314 0.02129638 0.80590862
-0.090038717 0.021437788 0.81125987
-0.087763086 0.021581087 0.81668264
-0.085456833 0.021726314 0.82217836
-0.083119333 0.02187351 0.8277486
-0.080749944 0.022022711 0.83339483
-0.078348011 0.022173963 0.8391186
-0.075912856 0.022327309 0.84492159
-0.073443823 0.022482803 0.85080582
-0.070940316 0.022640526 0.85677451
-0.068401434 0.022800479 0.86282748
-0.065826423 0.022962706 0.86896658
-0.063214511 0.02312726 0.87519372
-0.17225887 0.025029067 0.83573192
-0.16903256 0.024987422 0.83434141
-0.16581698 0.024945917 0.83295554
-0.16261207 0.024904549 0.83157426
-0.15941776 0.024863321 0.83019763
-0.15623403 0.024822228 0.82882547
-0.15306078 0.024781268 0.82745785
-0.14989799 0.024740446 0.82609475
-0.14674561 0.024699757 0.82473612
-0.14360358 0.0246592 0.8233819
-0.14047186 0.02461878 0.82203227
-0.1373504 0.024578493 0.82068706
-0.13423914 0.024538336 0.81934625
-0.13113801 0.024498308 0.81800967
-0.12804699 0.024458414 0.81667757
-0.12496603 0.02441865 0.81534982
-0.12189506 0.024379011 0.8140263
-0.11883405 0.024339505 0.81270713
-0.11578294 0.024300124 0.81139219
-0.11274169 0.024260871 0.81008154
-0.10971025 0.024221744 0.80877507
-0.10668857 0.024182744 0.80747283
-0.10367659 0.024143865 0.80617464
-0.10067423 0.024105098 0.8048802
-0.097681507 0.024066458 0.80359
-0.094698355 0.02402794 0.80230385
-0.091922201 0.024041191 0.8027463
-0.089683071 0.024200194 0.80805546
-0.087414131 0.024361314 0.81343538
-0.08511477 0.024524594 0.81888735
-0.08278437 0.024690077 0.82441288
-0.080422319 0.024857808 0.83001351
-0.078027956 0.025027834 0.8356908
-0.075600609 0.025200203 0.84144622
-0.073139757 0.025375018 0.84728342
-0.070644557 0.025552288 0.85320252
-0.068114258 0.025732053 0.85920501
-0.065548107 0.025914367 0.86529255
-0.062945321 0.026099281 0.87146688
-0.17222795 0.027968641 0.8355819
-0.16900228 0.027922116 0.83419192
-0.16578731 0.027875744 0.83280653
-0.16258302 0.027829528 0.83142579
-0.15938933 0.027783463 0.83004957
-0.15620621 0.027737552 0.82867795
-0.15303358 0.027691791 0.8273108
-0.14987139 0.02764618 0.82594818
-0.14671962 0.027600721 0.82459003
-0.14357819 0.02755541 0.82323635
-0.14044707 0.027510252 0.8218872
-0.1373262 0.027465237 0.8205424
-0.13421549 0.027420368 0.81920189
-0.13111496 0.02737565 0.81786591
-0.12802452 0.027331077 0.81653422
-0.12494413 0.027286649 0.81520694
-0.12187374 0.027242364 0.8138839
-0.11881329 0.027198223 0.81256515
-0.11576274 0.027154224 0.81125063
-0.11272206 0.02711037 0.80994046
-0.10969119 0.027066657 0.80863452
-0.10667006 0.027023083 0.80733269
-0.10365865 0.026979648 0.80603504
-0.10065689 0.026936352 0.80474156
-0.097664692 0.026893176 0.80345166
-0.094682075 0.026850142 0.80216599
-0.091708995 0.026807245 0.80088443
-0.089330219 0.02694086 0.80487627
-0.087067924 0.027119517 0.81021374
-0.084775418 0.027300559 0.81562251
-0.082452103 0.027484033 0.82110393
-0.080097347 0.027669992 0.82665956
-0.077710502 0.027858483 0.83229083
-0.075291 0.028049588 0.83800024
-0.072838195 0.028243382 0.84378994
-0.070351258 0.028439872 0.84966022
-0.06782949 0.028639119 0.85561287
-0.065272123 0.028841171 0.86164933
-0.062678427 0.0290461 0.86777169
-0.060047597 0.029253958 0.8739816
-0.17219706 0.030907165 0.83543205
-0.16897202 0.03085576 0.83404255
-0.16575767 0.030804524 0.83265764
-0.16255401 0.03075346 0.83127737
-0.15936095 0.030702567 0.8299017
-0.15617841 0.030651838 0.82853049
-0.1530064 0.03060128 0.82716388
-0.14984483 0.030550886 0.82580173
-0.14669365 0.03050066 0.82444406
-0.14355281 0.030450597 0.82309085
-0.14042228 0.030400699 0.82174212
-0.13730198 0.030350965 0.82039773
-0.13419189 0.030301394 0.81905782
-0.13109192 0.030251982 0.8177222
-0.12800205 0.03020273 0.81639093
-0.12492223 0.030153643 0.81506407
-0.12185241 0.030104714 0.81374151
-0.11879255 0.030055946 0.81242329
-0.11574256 0.030007331 0.81110919
-0.11270244 0.029958878 0.80979949
-0.10967212 0.029910579 0.80849397
-0.10665154 0.029862434 0.80719256
-0.10364069 0.029814446 0.80589545
-0.10063949 0.02976661 0.80460244
-0.097647898 0.029718924 0.80331349
-0.094665818 0.029671377 0.80202824
-0.091693275 0.02962398 0.8007471
-0.088980131 0.029660044 0.80172193
-0.086724445 0.029855957 0.80701751
-0.084438764 0.030054474 0.81238353
-0.082122482 0.030255651 0.81782138
-0.079774976 0.030459536 0.82333249
-0.077395618 0.030666189 0.8289184
-0.074983954 0.030875746 0.83458281
-0.072539113 0.03108819 0.84032524
-0.070060395 0.031303581 0.8461473
-0.067547083 0.031521972 0.85205054
-0.064998463 0.031743437 0.85803676
-0.062413771 0.031968027 0.86410761
-0.05979225 0.032195825 0.87026507
-0.17216617 0.033844631 0.83528221
-0.16894177 0.033788353 0.83389324
-0.16572805 0.033732258 0.8325088
-0.16252501 0.033676352 0.83112907
-0.15933256 0.033620633 0.82975388
-0.15615064 0.033565093 0.82838315
-0.15297924 0.033509735 0.82701701
-0.14981826 0.033454563 0.82565534
-0.14666769 0.033399571 0.82429814
-0.14352745 0.033344761 0.82294542
-0.1403975 0.033290129 0.82159716
-0.13727781 0.03323568 0.82025331
-0.1341683 0.033181407 0.81891382
-0.13106892 0.033127308 0.81757867
-0.12797962 0.033073384 0.81624788
-0.12490037 0.03301964 0.81492144
-0.12183112 0.032966066 0.81359929
-0.11877181 0.032912668 0.81228143
-0.11572238 0.032859441 0.8109678
-0.11268283 0.032806393 0.80965853
-0.10965306 0.032753512 0.80835348
-0.10663304 0.032700799 0.80705255
-0.10362274 0.032648262 0.80575585
-0.10062209 0.032595888 0.80446333
-0.097631052 0.032543685 0.80317491
-0.094649561 0.032491639 0.80189049
-0.091677547 0.032439746 0.80060977
-0.088715009 0.03238802 0.79933316
-0.086383678 0.032570895 0.80384648
-0.084104776 0.032786608 0.80917025
-0.081795484 0.033005197 0.814565
-0.079455204 0.033226721 0.82003224
-0.077083394 0.033451285 0.8255744
-0.074679412 0.033678953 0.83119321
-0.072242476 0.033909734 0.83688891
-0.069771916 0.034143701 0.84266323
-0.067267023 0.03438092 0.84851778
-0.064727075 0.034621459 0.85445422
-0.062151354 0.034865394 0.86047447
-0.059539065 0.035112783 0.86658001
-0.17536983 0.036842402 0.8365255
-0.17213529 0.036781043 0.83513236
-0.1689115 0.036719892 0.83374387
-0.16569842 0.036658943 0.83235997
-0.162496 0.036598198 0.83098072
-0.15930416 0.036537651 0.829606
-0.15612285 0.036477301 0.82823575
-0.15295206 0.036417156 0.82687008
-0.1497917 0.036357209 0.82550895
-0.14664173 0.036297459 0.82415229
-0.14350209 0.036237903 0.82280004
-0.14037275 0.036178544 0.82145226
-0.13725364 0.036119379 0.82010889
-0.13414469 0.036060404 0.81876981
-0.13104589 0.036001623 0.81743515
-0.1279572 0.035943031 0.81610483
-0.12487852 0.035884634 0.81477886
-0.12180984 0.035826422 0.81345719
-0.11875109 0.035768401 0.81213981
-0.11570224 0.035710569 0.81082666
-0.11266323 0.035652921 0.80951774
-0.10963401 0.035595458 0.808213
-0.10661454 0.035538182 0.80691254
-0.10360479 0.035481095 0.80561632
-0.10060469 0.035424188 0.80432421
-0.097614199 0.035367463 0.80303627
-0.094633266 0.03531092 0.80175245
-0.091661833 0.035254553 0.80047256
-0.08869984 0.03519835 0.79919642
-0.086045571 0.035264578 0.80070025
-0.083773419 0.035497211 0.80598229
-0.081471093 0.035732936 0.81133449
-0.079137996 0.035971817 0.81675839
-0.076773696 0.036214005 0.82225746
-0.074377328 0.036459472 0.82783091
-0.07194826 0.036708295 0.83348054
-0.069485798 0.036960531 0.83920771
-0.066989273 0.037216265 0.84501421
-0.06445796 0.03747556 0.85090166
-0.061891124 0.037738491 0.85687166
-0.059288014 0.038005136 0.86292601
-0.05664786 0.038275581 0.86906654
-0.17533834 0.039782651 0.8363753
-0.17210443 0.039716408 0.83498263
-0.16888127 0.039650384 0.83359462
-0.16566882 0.039584585 0.83221126
-0.162467 0.039519001 0.83083248
-0.15927579 0.039453637 0.82945824
-0.1560951 0.039388485 0.82808852
-0.15292491 0.03932355 0.82672334
-0.14976515 0.039258827 0.82536262
-0.14661577 0.039194319 0.82400644
-0.14347674 0.039130021 0.82265466
-0.14034797 0.039065931 0.8213073
-0.13722946 0.039002057 0.81996441
-0.13412112 0.038938388 0.81862587
-0.1310229 0.038874928 0.81729168
-0.12793477 0.038811672 0.81596184
-0.12485667 0.038748622 0.81463629
-0.12178856 0.038685776 0.81331509
-0.11873038 0.038623136 0.81199813
-0.1156821 0.038560696 0.81068546
-0.11264364 0.038498461 0.80937701
-0.10961498 0.038436424 0.80807275
-0.10659608 0.038374588 0.80677277
-0.10358687 0.038312949 0.8054769
-0.10058729 0.038251508 0.80418515
-0.097597353 0.038190268 0.80289769
-0.09461695 0.038129218 0.80161422
-0.091646075 0.038068369 0.80033493
-0.088684648 0.038007706 0.79905957
-0.085732602 0.037947219 0.7977879
-0.083444662 0.038186539 0.80281931
-0.08114925 0.038439117 0.80812943
-0.078823417 0.038695134 0.81351179
-0.076466464 0.038954612 0.81896698
-0.074077681 0.039217595 0.82449579
-0.071656421 0.039484151 0.83009976
-0.069202036 0.039754361 0.83578056
-0.06671381 0.040028289 0.8415395
-0.064191066 0.040306017 0.84737837
-0.061633062 0.040587626 0.85329884
-0.059039071 0.040873203 0.8593027
-0.05640832 0.04116283 0.86539167
-0.17530686 0.042721838 0.83622509
-0.17207357 0.042650715 0.83483297
-0.16885106 0.04257983 0.83344549
-0.16563922 0.04250918 0.8320626
-0.16243804 0.042438764 0.8306843
-0.15924743 0.04236858 0.82931054
-0.15606736 0.04229863 0.8279413
-0.15289776 0.042228907 0.82657659
-0.14973862 0.042159416 0.82521641
-0.14658985 0.042090155 0.8238607
-0.14345141 0.042021118 0.82250941
-0.14032324 0.041952308 0.82116252
-0.1372053 0.041883726 0.81982011
-0.13409755 0.041815363 0.81848198
-0.13099991 0.041747224 0.81714827
-0.12791236 0.041679308 0.81581891
-0.12483484 0.041611612 0.81449383
-0.12176729 0.041544136 0.81317306
-0.11870968 0.041476876 0.81185657
-0.11566196 0.041409839 0.81054437
-0.11262407 0.041343011 0.80923635
-0.10959597 0.041276403 0.80793256
-0.10657761 0.041210011 0.806633
-0.10356895 0.041143831 0.80533761
-0.10056993 0.04107786 0.80404633
-0.097580522 0.041012105 0.80275923
-0.094600663 0.040946554 0.80147618
-0.091630317 0.040881217 0.8001973
-0.088669442 0.040816091 0.79892254
-0.085717961 0.040751163 0.79765165
-0.083118476 0.040854845 0.79968107
-0.08083 0.041124038 0.80495018
-0.078511328 0.041396882 0.81029075
-0.076161675 0.04167337 0.81570268
-0.073780432 0.041953579 0.82118738
-0.071366951 0.042237584 0.8267464
-0.068920568 0.042525455 0.83238113
-0.066440597 0.042817276 0.83809316
-0.063926369 0.043113131 0.84388417
-0.061377149 0.043413106 0.84975576
-0.058792215 0.043717287 0.85570973
-0.056170791 0.044025756 0.86174762
-0.053512119 0.04433861 0.86787134
-0.17527534 0.045659963 0.83607477
-0.17204271 0.045583967 0.83468324
-0.16882081 0.045508221 0.83329624
-0.16560961 0.045432724 0.83191383
-0.16240905 0.045357481 0.83053607
-0.15921906 0.045282483 0.82916278
-0.1560396 0.045207731 0.82779402
-0.15287063 0.045133229 0.82642984
-0.14971207 0.045058973 0.82507008
-0.1465639 0.044984959 0.82371485
-0.14342608 0.044911195 0.82236415
-0.1402985 0.044837669 0.8210178
-0.13718116 0.044764377 0.8196758
-0.13407399 0.044691328 0.81833822
-0.13097693 0.044618513 0.81700492
-0.12788996 0.044545941 0.81567603
-0.12481301 0.044473603 0.81435144
-0.12174604 0.044401497 0.81303114
-0.118689 0.044329625 0.81171513
-0.11564184 0.044257987 0.81040335
-0.11260451 0.044186577 0.8090958
-0.10957696 0.044115402 0.80779248
-0.10655916 0.044044454 0.80649334
-0.10355105 0.043973733 0.80519837
-0.10055257 0.043903239 0.80390757
-0.097563706 0.043832969 0.80262089
-0.094584383 0.043762926 0.80133832
-0.091614574 0.043693107 0.80005985
-0.088654228 0.043623507 0.79878545
-0.085703291 0.043554131 0.79751509
-0.08279483 0.043502372 0.79656732
-0.080513321 0.043787949 0.8017965
-0.078201696 0.044077322 0.80709517
-0.075859323 0.044370547 0.81246442
-0.073485568 0.044667695 0.81790549
-0.071079798 0.044968851 0.82341993
-0.068641379 0.045274101 0.82900929
-0.066169627 0.04558352 0.83467501
-0.063663855 0.045897197 0.84041876
-0.06112336 0.046215221 0.84624207
-0.058547407 0.046537682 0.85214663
-0.05593526 0.046864677 0.85813415
-0.053286143 0.047196299 0.86420643
-0.16557993 0.048355199 0.83176476
-0.16237999 0.048275132 0.83038747
-0.15919062 0.048195325 0.82901472
-0.15601179 0.048115786 0.82764655
-0.15284342 0.048036505 0.8262828
-0.14968549 0.047957484 0.82492357
-0.1465379 0.04787872 0.82356876
-0.14340065 0.047800217 0.82221842
-0.14027369 0.047721975 0.82087255
-0.13715692 0.047643986 0.81953102
-0.13405034 0.04756625 0.81819391
-0.13095388 0.047488768 0.81686109
-0.12786749 0.047411539 0.81553268
-0.12479112 0.047334559 0.81420857
-0.12172472 0.047257829 0.81288874
-0.11866825 0.047181353 0.81157321
-0.11562166 0.047105119 0.81026191
-0.11258489 0.04702913 0.80895483
-0.1095579 0.046953388 0.80765194
-0.10654065 0.046877887 0.80635327
-0.1035331 0.046802633 0.80505878
-0.10053517 0.046727613 0.8037684
-0.097546838 0.046652835 0.80248213
-0.094568066 0.046578299 0.80120003
-0.091598786 0.046504002 0.79992199
-0.088638969 0.046429936 0.798648
-0.085688569 0.046356112 0.79737812
-0.082854465 0.046342328 0.79714102
-0.080579676 0.046651389 0.80245727
-0.078274362 0.046964616 0.80784512
-0.075937897 0.047282089 0.81330597
-0.073569618 0.047603872 0.81884104
-0.071168892 0.047930069 0.82445198
-0.068735026 0.048260767 0.83014035
-0.066267356 0.048596062 0.83590782
-0.063765146 0.048936039 0.84175587
-0.061227687 0.049280822 0.84768647
-0.058654211 0.049630485 0.85370111
-0.056043953 0.049985148 0.85980171
-0.053396128 0.050344922 0.86599022
-0.15916221 0.051107131 0.82886678
-0.15598397 0.051022794 0.82749897
-0.15281622 0.05093874 0.82613575
-0.14965889 0.050854962 0.82477701
-0.14651193 0.050771456 0.82342273
-0.14337528 0.05068823 0.82207292
-0.14024891 0.050605275 0.82072753
-0.13713273 0.050522588 0.81938648
-0.13402674 0.050440166 0.81804979
-0.13093086 0.05035802 0.81671751
-0.12784503 0.050276138 0.81538951
-0.12476924 0.050194524 0.81406587
-0.12170341 0.050113171 0.81274647
-0.11864751 0.050032079 0.81143135
-0.11560148 0.049951255 0.81012052
-0.11256527 0.049870688 0.80881387
-0.10953885 0.049790382 0.80751145
-0.10652214 0.049710333 0.8062132
-0.10351515 0.049630549 0.80491924
-0.10051778 0.049551018 0.80362934
-0.097529992 0.049471736 0.80234355
-0.094551757 0.049392708 0.80106187
-0.091583014 0.049313933 0.79978424
-0.088623732 0.049235407 0.79851073
-0.085673854 0.049157131 0.79724121
-0.083027154 0.049253397 0.7988025
-0.0807487 0.049582534 0.80414051
-0.078439668 0.049916152 0.80955118
-0.076099344 0.050254282 0.81503505
-0.073727101 0.050597031 0.82059383
-0.071322277 0.050944485 0.82622892
-0.068884194 0.051296741 0.8319419
-0.066412166 0.051653907 0.83773446
-0.06390547 0.052016083 0.84360832
-0.061363369 0.052383363 0.84956497
-0.058785122 0.052755877 0.8556065
-0.056169938 0.053133726 0.86173451
-0.053516995 0.053516995 0.86795044
-0.16487446 0.057012662 0.87466323
-0.1615262 0.056918755 0.87322253
-0.14963232 0.053751413 0.82463056
-0.14648595 0.053663168 0.82327676
-0.1433499 0.053575214 0.82192737
-0.14022411 0.053487547 0.82058245
-0.13710853 0.053400166 0.81924188
-0.13400312 0.053313069 0.81790566
-0.13090782 0.053226255 0.8165738
-0.12782259 0.053139731 0.8152464
-0.12474737 0.05305348 0.81392318
-0.12168212 0.052967515 0.81260431
-0.11862678 0.052881818 0.81128961
-0.11558132 0.052796405 0.80997926
-0.11254568 0.052711267 0.80867308
-0.1095198 0.052626397 0.80737108
-0.10650367 0.052541807 0.80607331
-0.10349721 0.052457485 0.80477971
-0.10050038 0.052373435 0.80349022
-0.097513139 0.052289654 0.80220491
-0.09453544 0.05220614 0.80092365
-0.091567241 0.052122891 0.7996465
-0.088608496 0.052039914 0.79837346
-0.085659154 0.051957194 0.79710442
-0.083200559 0.052176625 0.80047083
-0.080918461 0.052526016 0.80583107
-0.078605667 0.052880175 0.8112644
-0.076261483 0.053239148 0.81677163
-0.073885255 0.053603027 0.82235408
-0.071476325 0.05397192 0.82801348
-0.069034018 0.054345928 0.83375132
-0.066557609 0.054725148 0.83956915
-0.064046413 0.055109702 0.84546882
-0.061499666 0.055499699 0.85145199
-0.058916617 0.055895254 0.8575204
-0.05629646 0.05629646 0.86367553
-0.053638414 0.056703467 0.86991966
-0.16484515 0.060083751 0.87450778
-0.16149753 0.059984796 0.87306756
-0.15816092 0.059886176 0.87163216
-0.15483521 0.059787855 0.87020111
-0.15152048 0.059689883 0.86877513
-0.14019933 0.056368805 0.82043749
-0.13708435 0.056276735 0.8190974
-0.13397953 0.056184962 0.81776166
-0.13088481 0.056093488 0.81643027
-0.12780015 0.056002311 0.81510323
-0.12472551 0.055911437 0.81378055
-0.12166083 0.055820853 0.81246209
-0.11860605 0.055730555 0.81114787
-0.11556116 0.055640556 0.80983794
-0.11252608 0.055550851 0.8085323
-0.10950077 0.055461429 0.80723077
-0.10648518 0.055372294 0.80593342
-0.10347927 0.05528345 0.80464029
-0.100483 0.055194885 0.80335128
-0.097496293 0.055106603 0.80206633
-0.094519138 0.055018604 0.80078554
-0.091551483 0.054930888 0.79950887
-0.088593267 0.054843448 0.79823619
-0.085644446 0.054756287 0.79696757
-0.083374701 0.05511209 0.8021462
-0.081088953 0.055481914 0.80752891
-0.078772359 0.055856764 0.81298482
-0.076424316 0.056236759 0.81851554
-0.074044101 0.056621958 0.82412207
-0.071631052 0.057012469 0.82980585
-0.069184482 0.057408404 0.83556861
-0.066703707 0.057809878 0.84141201
-0.064187974 0.058217 0.8473376
-0.061636567 0.058629904 0.85334736
-0.059048682 0.059048682 0.85944259
-0.056423556 0.059473477 0.86562538
-0.16481584 0.063153736 0.87435228
-0.16146889 0.063049756 0.8729127
-0.15813291 0.062946111 0.87147778
-0.15480781 0.062842771 0.87004703
-0.1514937 0.062739819 0.86862165
-0.14819041 0.06263718 0.86720067
-0.14489791 0.062534891 0.86578447
-0.13395594 0.059055846 0.81761771
-0.1308618 0.058959715 0.8162868
-0.12777773 0.058863897 0.81496024
-0.12470366 0.058768392 0.81363797
-0.12163955 0.058673196 0.81231999
-0.11858535 0.058578305 0.81100625
-0.11554101 0.058483724 0.80969679
-0.11250649 0.058389444 0.80839151
-0.10948173 0.058295466 0.8070904
-0.1064667 0.058201794 0.80579352
-0.10346134 0.058108423 0.80450082
-0.10046561 0.058015354 0.80321229
-0.097479463 0.057922579 0.80192786
-0.094502851 0.057830106 0.80064756
-0.091535725 0.057737917 0.79937124
-0.088578045 0.057646029 0.79809904
-0.085808575 0.057674613 0.79849482
-0.083549559 0.058059864 0.80382854
-0.081260167 0.058450297 0.80923402
-0.078939773 0.058846015 0.81471264
-0.076587848 0.059247203 0.82026702
-0.074203618 0.059653889 0.82589751
-0.071786441 0.060066205 0.83160597
-0.069335617 0.06048426 0.83739388
-0.066850431 0.060908169 0.84326279
-0.064330168 0.061338067 0.84921467
-0.061774049 0.061774049 0.85525078
-0.059181325 0.062216267 0.86137319
-0.056551225 0.062664874 0.86758405
-0.16478655 0.06622263 0.87419689
-0.16144022 0.066113614 0.87275773
-0.1581049 0.066004954 0.87132335
-0.15478048 0.065896638 0.86989349
-0.15146695 0.065788671 0.86846823
-0.14816427 0.06568107 0.86704779
-0.14487241 0.065573826 0.86563206
-0.14159128 0.065466933 0.86422098
-0.1383208 0.065360382 0.86281437
-0.13506097 0.065254174 0.86141241
-0.12468181 0.061624341 0.8134954
-0.12161826 0.061524533 0.81217784
-0.11856465 0.06142506 0.81086469
-0.11552087 0.061325897 0.80955565
-0.11248691 0.061227053 0.80825084
-0.10946271 0.061128527 0.80695021
-0.10644823 0.061030321 0.80565381
-0.10344342 0.060932428 0.80436152
-0.10044824 0.060834851 0.80307341
-0.097462632 0.060737584 0.8017894
-0.094486549 0.060640622 0.80050945
-0.091519967 0.060543977 0.79923362
-0.088562816 0.060447633 0.79796183
-0.085987724 0.060614295 0.8001619
-0.083725169 0.061020035 0.80551803
-0.081432112 0.06143124 0.81094629
-0.079107933 0.061848022 0.81644815
-0.076752074 0.062270548 0.8220259
-0.074363835 0.062698923 0.82768077
-0.071942508 0.063133217 0.8334139
-0.0694874 0.063573584 0.83922708
-0.066997811 0.064020135 0.84512192
-0.064472966 0.064472966 0.85109973
-0.061912153 0.064932257 0.85716277
-0.059314579 0.065398127 0.86331266
-0.056679469 0.065870732 0.86955148
-0.16811401 0.069404863 0.87548488
-0.16475728 0.069290444 0.87404162
-0.16141158 0.069176398 0.87260294
-0.1580769 0.069062717 0.87116903
-0.1547531 0.068949401 0.86973959
-0.15144013 0.068836421 0.86831445
-0.14813815 0.068723887 0.8668949
-0.14484692 0.068611696 0.86547971
-0.1415664 0.068499871 0.8640691
-0.13829653 0.068388395 0.86266297
-0.13503732 0.068277292 0.86126155
-0.13178867 0.068166554 0.85986465
-0.12855054 0.068056174 0.85847229
-0.12532289 0.067946143 0.85708433
-0.11550073 0.064167067 0.80941445
-0.11246733 0.064063668 0.80811012
-0.10944369 0.063960597 0.80680996
-0.10642976 0.063857853 0.80551398
-0.10342551 0.063755453 0.80422223
-0.10043088 0.063653372 0.80293459
-0.097445808 0.063551612 0.801651
-0.09447027 0.06345018 0.80037153
-0.091504216 0.063349076 0.79909611
-0.088547602 0.063248292 0.7978248
-0.086167611 0.063566275 0.80183589
-0.083901495 0.063992664 0.8072145
-0.081604771 0.06442482 0.81266576
-0.079276815 0.064862847 0.81819111
-0.076917 0.065306887 0.82379228
-0.07452473 0.065757118 0.82947159
-0.072099246 0.0662136 0.83522969
-0.069639854 0.066676453 0.84106827
-0.067145817 0.067145817 0.84698892
-0.064616397 0.067621812 0.85299313
-0.06205086 0.068104602 0.85908318
-0.059448432 0.068594344 0.86526084
-0.1680841 0.072476625 0.87532914
-0.164728 0.072357155 0.87388623
-0.16138296 0.072238088 0.87244815
-0.15804891 0.072119407 0.87101483
-0.1547258 0.072001114 0.86958617
-0.15141344 0.071883149 0.86816144
-0.14811203 0.071765624 0.86674207
-0.14482142 0.071648493 0.86532742
-0.14154153 0.071531735 0.86391729
-0.13827229 0.07141535 0.86251169
-0.13501367 0.071299352 0.86111069
-0.13176563 0.071183734 0.85971433
-0.12852809 0.071068473 0.85832232
-0.12530105 0.070953608 0.85693496
-0.12208441 0.0708391 0.85555208
-0.11887813 0.070724964 0.8541736
-0.10942467 0.066791683 0.80666977
-0.1064113 0.066684417 0.80537426
-0.10340759 0.066577487 0.80408287
-0.1004135 0.066470906 0.80279565
-0.097428977 0.066364668 0.80151254
-0.094453983 0.066258758 0.80023348
-0.091488473 0.066153206 0.7989586
-0.088587843 0.066089347 0.79818738
-0.086348265 0.06653063 0.80351692
-0.08407858 0.066977851 0.80891824
-0.081778169 0.067431122 0.81439257
-0.079446413 0.06789057 0.81994152
-0.077082671 0.068356328 0.82556665
-0.074686326 0.068828575 0.83127016
-0.072256677 0.069307424 0.83705336
-0.069792964 0.069792964 0.84291744
-0.067294464 0.070285328 0.84886396
-0.064760469 0.070784695 0.854895
-0.062190197 0.071291201 0.86101228
-0.059582885 0.071805015 0.86721778
-0.16805419 0.0755473 0.87517345
-0.16469875 0.075422794 0.87373108
-0.16135433 0.075298689 0.87229341
-0.15802093 0.075175002 0.87086058
-0.15469843 0.075051717 0.86943239
-0.15138684 0.074928842 0.86800891
-0.14808592 0.074806288 0.86658925
-0.14479594 0.074684218 0.86517513
-0.14151666 0.074562542 0.86376554
-0.13824803 0.074441247 0.86236042
-0.13499004 0.074320354 0.86095995
-0.1317426 0.074199855 0.85956401
-0.12850566 0.074079737 0.85817254
-0.12527922 0.073960021 0.85678566
-0.12206317 0.073840685 0.85540324
-0.11885749 0.073721729 0.85402524
-0.1156621 0.073603153 0.8526516
-0.11247699 0.073484972 0.85128248
-0.1093021 0.073367156 0.84991771
-0.10039615 0.069287486 0.80265695
-0.097412169 0.069176756 0.80137426
-0.094437711 0.06906639 0.80009568
-0.09147273 0.068956368 0.79882115
-0.088772722 0.069045454 0.79985315
-0.08652968 0.06950745 0.80520511
-0.084256411 0.069975667 0.81062913
-0.081952304 0.070450231 0.8161267
-0.079616748 0.070931286 0.8216995
-0.077249065 0.071418948 0.82734877
-0.074848637 0.071913399 0.83307672
-0.072414786 0.072414786 0.83888501
-0.069946736 0.072923191 0.8447746
-0.067443781 0.073438779 0.85074741
-0.064905174 0.073961712 0.85680526
-0.062330164 0.074492149 0.86295009
-0.059717949 0.075030245 0.86918366
-0.17139018 0.07874684 0.87646425
-0.16802429 0.078616872 0.8750177
-0.16466948 0.078487322 0.87357581
-0.16132574 0.078358211 0.8721388
-0.15799296 0.078229524 0.87070644
-0.1546711 0.078101255 0.86927879
-0.15136006 0.077973366 0.86785543
-0.14805986 0.077845909 0.86643678
-0.14477047 0.077718884 0.86502296
-0.1414918 0.077592276 0.86361378
-0.13822378 0.077466078 0.8622092
-0.13496639 0.077340297 0.86080921
-0.13171957 0.077214919 0.8594138
-0.12848325 0.07708995 0.85802281
-0.12525739 0.076965384 0.8566364
-0.12204193 0.07684122 0.85525441
-0.11883683 0.076717444 0.85387683
-0.11564205 0.076594085 0.85250378
-0.11245752 0.07647112 0.85113513
-0.10928321 0.076348543 0.84977084
-0.10611904 0.076226354 0.84841084
-0.102965 0.076104559 0.84705532
-0.099821009 0.075983159 0.84570408
-0.091457002 0.071758568 0.79868376
-0.088958383 0.072013929 0.80152595
-0.086711854 0.072496794 0.80690032
-0.084435001 0.072986186 0.81234735
-0.082127199 0.07348223 0.81786835
-0.079787806 0.073985055 0.82346493
-0.078090869 0.075144045 0.83636463
-0.075025693 0.075025693 0.8350473
-0.072573565 0.075535752 0.84072441
-0.070101179 0.076067232 0.84663987
-0.067593753 0.076606259 0.85263926
-0.065050535 0.07715296 0.85872418
-0.06247076 0.077707529 0.8648966
-0.059853628 0.07827013 0.87115842
-0.17135964 0.081820369 0.87630808
-0.16799441 0.081685357 0.87486207
-0.16464026 0.081550784 0.87342077
-0.16129713 0.081416644 0.87198412
-0.15796499 0.081282951 0.8705523
-0.15464379 0.081149712 0.86912525
-0.15133344 0.081016891 0.86770272
-0.14803399 0.080884553 0.86628538
-0.14474501 0.080752477 0.86487079
-0.14146695 0.080620944 0.86346209
-0.13819955 0.080489852 0.86205804
-0.13494277 0.080359176 0.86065853
-0.13169655 0.080228932 0.8592636
-0.12846082 0.080099106 0.85787308
-0.12523557 0.079969697 0.85648715
-0.12202071 0.079840712 0.8551057
-0.1188162 0.07971213 0.85372859
-0.11562201 0.07958398 0.85235602
-0.11243806 0.079456225 0.85098779
-0.10926433 0.079328895 0.84962404
-0.10610073 0.079201959 0.84826452
-0.10294726 0.079075433 0.84690946
-0.099803843 0.07894931 0.84555864
-0.096670434 0.078823589 0.84421211
-0.093546994 0.07869827 0.84286994
-0.090433478 0.078573354 0.84153205
-0.08732982 0.078448825 0.84019834
-0.084235981 0.078324683 0.8388688
-0.08115191 0.078200936 0.83754343
-0.078077614 0.078077614 0.83622265
-0.075175323 0.078123376 0.83671278
-0.072733037 0.078670427 0.84257179
-0.070256308 0.079225197 0.84851342
-0.067744397 0.079787843 0.85453945
-0.065196551 0.080358535 0.86065167
-0.06261199 0.080937453 0.86685193
-0.17132913 0.084892809 0.87615204
-0.16796452 0.084752738 0.87470645
-0.16461101 0.084613137 0.87326562
-0.16126855 0.084473997 0.87182963
-0.15793703 0.084335312 0.87039828
-0.15461646 0.084197082 0.86897165
-0.15130673 0.084059298 0.86754966
-0.14800785 0.083921984 0.86613244
-0.1447195 0.083784975 0.86471844
-0.14144209 0.083648555 0.86331046
-0.13817532 0.08351256 0.86190695
-0.13491915 0.083377004 0.86050791
-0.13167354 0.083241902 0.85911351
-0.12843843 0.083107211 0.85772347
-0.12521376 0.082972974 0.85633802
-0.1219995 0.082839169 0.85495704
-0.11879557 0.082705781 0.85358042
-0.11560196 0.082572833 0.85220826
-0.11241861 0.082440309 0.85084057
-0.10924544 0.08230821 0.84947717
-0.10608243 0.082176529 0.84811819
-0.10292953 0.082045279 0.84676361
-0.099786684 0.081914447 0.84541327
-0.096653841 0.081784025 0.84406722
-0.09353096 0.081654012 0.84272546
-0.090418003 0.081524432 0.84138805
-0.087314926 0.081395268 0.84005505
-0.084221654 0.081266508 0.8387261
-0.081138141 0.081138141 0.83740133
-0.078064345 0.08101017 0.83608055
-0.075339712 0.081248716 0.83854246
-0.072893217 0.081818923 0.84442741
-0.070412129 0.08239717 0.85039532
-0.06789571 0.08298365 0.85644817
-0.065343216 0.083578534 0.86258781
-0.062753871 0.084182017 0.8688162
-0.17129862 0.087964155 0.87599605
-0.16793467 0.087819047 0.874551
-0.16458181 0.087674417 0.87311065
-0.16123995 0.087530263 0.87167507
-0.1579091 0.087386586 0.87024426
-0.15458915 0.087243378 0.86881816
-0.15128006 0.08710064 0.86739665
-0.14798173 0.086958341 0.86597955
-0.14469409 0.08681646 0.86456662
-0.14141726 0.0866751 0.86315888
-0.13815111 0.08653421 0.86175585
-0.13489555 0.086393781 0.86035734
-0.13165052 0.086253792 0.85896331
-0.12841602 0.086114272 0.85757387
-0.12519196 0.0859752 0.85618889
-0.12197829 0.085836574 0.85480839
-0.11877496 0.085698389 0.85343224
-0.11558194 0.08556065 0.85206062
-0.11239915 0.085423358 0.85069335
-0.10922657 0.085286498 0.84933043
-0.10606414 0.085150085 0.84797198
-0.10291182 0.085014105 0.84661782
-0.099769533 0.084878556 0.84526795
-0.096637249 0.084743433 0.84392232
-0.093515038 0.084608845 0.84258199
-0.090402596 0.084474556 0.84124464
-0.087300062 0.084340736 0.839912
-0.084207319 0.084207319 0.83858335
-0.081124336 0.084074311 0.83725882
-0.078051083 0.083941735 0.83593851
-0.075504832 0.084387757 0.84038025
-0.073054105 0.084981307 0.84629118
-0.070568629 0.085583232 0.8522855
-0.06804771 0.086193763 0.85836548
-0.065490551 0.086813055 0.86453271
-0.062896378 0.087441303 0.87078917
-0.17464253 0.091185041 0.8772893
-0.17126811 0.091034397 0.87584001
-0.16790479 0.090884253 0.87439543
-0.1645526 0.090734608 0.87295574
-0.1612114 0.090585455 0.8715207
-0.15788117 0.090436786 0.87009037
-0.15456183 0.090288602 0.86866468
-0.15125339 0.090140902 0.86724371
-0.14795575 0.0899937 0.86582744
-0.14466877 0.089846924 0.86441535
-0.14139241 0.089700565 0.86300719
-0.13812691 0.089554809 0.86160487
-0.13487194 0.089409493 0.86020684
-0.13162753 0.089264646 0.85881329
-0.12839362 0.089120284 0.85742432
-0.12517016 0.088976376 0.85603982
-0.12195709 0.088832937 0.8546598
-0.11875434 0.088689953 0.85328412
-0.1155619 0.088547431 0.85191298
-0.11237971 0.088405371 0.85054618
-0.1092077 0.088263758 0.84918374
-0.10604586 0.088122614 0.84782577
-0.1028941 0.08798191 0.84647208
-0.09975256 0.087841801 0.84512413
-0.096620813 0.087701969 0.84377879
-0.093498982 0.087562539 0.84243733
-0.090387166 0.087423652 0.84110111
-0.087285161 0.087285161 0.83976865
-0.084192961 0.087147094 0.83844036
-0.081110522 0.087009467 0.83711624
-0.078091413 0.086931951 0.83637047
-0.075670682 0.087540589 0.84222615
-0.073215701 0.088157684 0.84816319
-0.070725843 0.088783503 0.85418421
-0.06820038 0.089418277 0.8602913
-0.06563855 0.090062194 0.86648643
-0.17461139 0.094259247 0.87713289
-0.17123763 0.09410356 0.87568414
-0.16787498 0.093948379 0.8742401
-0.16452338 0.093793705 0.87280077
-0.16118282 0.093639545 0.8713662
-0.15785325 0.093485907 0.86993653
-0.15453456 0.093332753 0.86851138
-0.15122673 0.093180105 0.86709088
-0.1479297 0.093027957 0.86567503
-0.14464347 0.09287633 0.86426413
-0.14136755 0.092724949 0.86285543
-0.13810268 0.092574321 0.86145377
-0.13484836 0.092424162 0.8600564
-0.13160455 0.092274457 0.85866332
-0.12837124 0.092125244 0.85727483
-0.12514837 0.091976516 0.85589081
-0.12193588 0.091828257 0.8545112
-0.11873373 0.091680482 0.85313606
-0.11554189 0.091533184 0.85176539
-0.11236028 0.091386363 0.85039914
-0.10918885 0.091239996 0.84903711
-0.10602778 0.091094293 0.84768128
-0.10287645 0.090948753 0.84632695
-0.099735431 0.090803899 0.84497905
-0.096604139 0.090659268 0.84363317
-0.093483031 0.090515316 0.84229362
-0.09037172 0.09037172 0.84095734
-0.08727026 0.090228572 0.8396253
-0.084178612 0.090085879 0.83829749
-0.081096724 0.08994364 0.83697385
-0.07826212 0.090075269 0.83819872
-0.075837247 0.090707295 0.84408003
-0.073378012 0.091348141 0.85004348
-0.070883758 0.09199807 0.85609144
-0.068353742 0.092657298 0.86222589
-0.065787211 0.09332604 0.86844891
-0.17458026 0.097332358 0.87697649
-0.17120713 0.09717162 0.87552822
-0.16784514 0.097011417 0.87408477
-0.1644942 0.096851729 0.87264597
-0.16115429 0.09669257 0.87121195
-0.15782532 0.096533939 0.86978263
-0.15450726 0.096375816 0.86835796
-0.15120007 0.096218228 0.86693805
-0.14790367 0.096061148 0.86552274
-0.14461796 0.095904544 0.86411172
-0.14134327 0.095748663 0.8627072
-0.13807841 0.095592745 0.86130238
-0.13482478 0.095437765 0.85990602
-0.13158157 0.09528321 0.85851341
-0.12834886 0.095129155 0.8571254
-0.12512659 0.094975606 0.85574186
-0.12191469 0.094822541 0.85436273
-0.11871314 0.094669968 0.85298806
-0.11552188 0.094517902 0.85161787
-0.11234109 0.094366513 0.85025388
-0.10917 0.094215199 0.84889054
-0.10600945 0.09406472 0.84753466
-0.10285876 0.093914516 0.84618133
-0.099718198 0.093764871 0.84483302
-0.09658768 0.093615748 0.84348941
-0.093467034 0.093467034 0.84214944
-0.090356275 0.093318775 0.84081364
-0.087255374 0.093170993 0.83948207
-0.084164269 0.093023665 0.83815467
-0.081082933 0.092876814 0.83683151
-0.078433566 0.093232356 0.84003496
-0.076004557 0.093887985 0.84594226
-0.07354106 0.094552785 0.85193223
-0.071042366 0.095227003 0.85800701
-0.068507798 0.095910922 0.86416918
-0.065936558 0.09660472 0.8704204
-0.17454915 0.10040437 0.87682021
-0.17117667 0.10023859 0.87537241
-0.16781531 0.10007335 0.87392938
-0.16446501 0.099908657 0.87249112
-0.16112575 0.099744514 0.87105769
-0.15779743 0.099580906 0.86962891
-0.15448 0.099417821 0.86820471
-0.15117341 0.099255271 0.86678523
-0.14787763 0.099093266 0.86537039
-0.14459257 0.098931752 0.86395997
-0.14131822 0.098770797 0.86255431
-0.13805437 0.098610267 0.86115247
-0.13480118 0.098450296 0.85975546
-0.13155861 0.098290913 0.85836357
-0.12832649 0.098132029 0.85697603
-0.12510481 0.097973652 0.85559297
-0.12189352 0.097815782 0.85421431
-0.11869282 0.097658642 0.85284203
-0.1155018 0.097501516 0.85146987
-0.11232173 0.097345501 0.85010737
-0.10915136 0.097189568 0.84874564
-0.10599116 0.097034164 0.84738851
-0.10284119 0.096879385 0.84603685
-0.099701159 0.096725002 0.84468865
-0.096571118 0.096571118 0.84334481
-0.093451023 0.096417725 0.84200519
-0.09034083 0.096264824 0.84066993
-0.087240487 0.0961124 0.83933884
-0.084149934 0.095960453 0.83801192
-0.081069142 0.095808983 0.83668917
-0.078605771 0.096403308 0.84187931
-0.076172605 0.097082734 0.84781265
-0.073704816 0.097771697 0.85382932
-0.071201704 0.098470442 0.85993135
-0.068662547 0.099179231 0.86612117
-0.066086575 0.099898316 0.87240082
-0.17790101 0.10364667 0.87811589
-0.17451802 0.10347529 0.87666386
-0.1711462 0.10330446 0.8752166
-0.16778551 0.10313421 0.87377417
-0.16443586 0.10296451 0.87233645
-0.16109721 0.10279537 0.87090343
-0.15776953 0.10262678 0.86947513
-0.15445274 0.10245875 0.86805153
-0.1511468 0.10229126 0.86663258
-0.14785163 0.10212433 0.86521822
-0.14456721 0.10195792 0.86380845
-0.14129354 0.10179213 0.86240375
-0.13803017 0.1016266 0.86100143
-0.13477749 0.1014617 0.85960436
-0.13153563 0.10129756 0.85821372
-0.12830414 0.10113385 0.85682672
-0.12508336 0.1009709 0.85544616
-0.12187232 0.10080796 0.85406578
-0.11867224 0.10064608 0.85269421
-0.11548214 0.10048445 0.85132492
-0.11230209 0.1003232 0.84995872
-0.10913236 0.10016258 0.84859794
-0.10597301 0.1000027 0.84724337
-0.10282351 0.099843115 0.84589136
-0.099684045 0.099684045 0.8445437
-0.09655457 0.099525481 0.84320027
-0.093435034 0.099367417 0.84186113
-0.090325393 0.09920986 0.84052628
-0.087225601 0.099052794 0.83919561
-0.084135599 0.098896235 0.83786917
-0.08118213 0.098894596 0.83785528
-0.078778736 0.099588215 0.84373176
-0.076341391 0.10029163 0.84969127
-0.07386931 0.10100497 0.85573483
-0.07136175 0.10172845 0.86186427
-0.068817995 0.10246235 0.86808205
-0.17448702 0.10654517 0.87650812
-0.17111568 0.10636921 0.87506056
-0.1677556 0.10619391 0.87361842
-0.16440673 0.10601929 0.87218189
-0.16106872 0.10584515 0.87074935
-0.1577417 0.10567161 0.8693217
-0.1544255 0.10549861 0.86789846
-0.15112016 0.10532618 0.86647987
-0.14782564 0.10515432 0.86506611
-0.14454183 0.10498302 0.86365682
-0.14130573 0.10483973 0.86247814
-0.13935968 0.10566834 0.8692947
-0.13733381 0.10647228 0.87590849
-0.13524608 0.10726414 0.8824228
-0.12828179 0.10413462 0.85667741
-0.12506148 0.10396678 0.85529661
-0.12185147 0.1037994 0.85391963
-0.11865159 0.10363241 0.85254586
-0.11546212 0.10346605 0.85117733
-0.11228272 0.1033001 0.84981215
-0.10911376 0.10313493 0.84845328
-0.10595477 0.10297012 0.84709752
-0.10280584 0.10280584 0.84574598
-0.099666938 0.10264207 0.84439874
-0.096538022 0.10247882 0.84305578
-0.093419053 0.1023161 0.84171712
-0.090309963 0.1021539 0.8403827
-0.087210715 0.1019922 0.83905244
-0.084121272 0.10183101 0.83772647
-0.081359908 0.10206971 0.83969009
-0.078952461 0.10278717 0.84559238
-0.076510936 0.10351479 0.8515783
-0.074034542 0.10425272 0.85764897
-0.071522504 0.10500113 0.86380583
-0.068974152 0.10576037 0.87005186
-0.17445585 0.10961385 0.87635154
-0.17108534 0.10943297 0.87490541
-0.16772608 0.10925277 0.87346476
-0.16437751 0.10907293 0.87202692
-0.16104017 0.10889383 0.87059504
-0.15771379 0.10871533 0.86916792
-0.15439832 0.10853744 0.8677457
-0.15109324 0.10835981 0.86632556
-0.14779921 0.10818293 0.86491144
-0.14478362 0.1082067 0.86510152
-0.14269722 0.10894088 0.8709712
-0.14056903 0.10967474 0.87683833
-0.13840099 0.11040977 0.88271487
-0.13619643 0.11114881 0.88862336
-0.13395494 0.11189178 0.89456332
-0.12503998 0.10696191 0.85514957
-0.12183011 0.10678935 0.85376996
-0.118631 0.10661773 0.85239786
-0.11544225 0.10644674 0.85103083
-0.11226351 0.10627612 0.84966671
-0.10909495 0.10610604 0.84830695
-0.10593651 0.10593651 0.8469516
-0.10278816 0.10576753 0.84560055
-0.099649832 0.10559908 0.84425384
-0.096521489 0.10543116 0.84291136
-0.093403071 0.10526378 0.84157312
-0.09029454 0.10509692 0.84023917
-0.087195851 0.10493059 0.83890939
-0.084106952 0.1047648 0.83758384
-0.081538461 0.10525874 0.84153289
-0.079126954 0.10600026 0.84746122
-0.076681226 0.10675229 0.85347366
-0.074200511 0.10751502 0.85957164
-0.071684003 0.1082886 0.86575627
-0.069131017 0.10907339 0.87203056
-0.17442475 0.11268148 0.87619531
-0.1710549 0.11249556 0.87474972
-0.16769615 0.11231027 0.87330884
-0.16434853 0.11212563 0.87187314
-0.16101195 0.11194164 0.87044245
-0.1576857 0.11175782 0.86901313
-0.15437129 0.11157529 0.86759377
-0.15106697 0.11139283 0.86617494
-0.14777336 0.11121088 0.86476016
-0.14549346 0.11180024 0.86934292
-0.14334014 0.11251431 0.87489545
-0.14114977 0.11323003 0.88046086
-0.13892853 0.11395262 0.88607955
-0.13667198 0.11467878 0.89172608
-0.13438332 0.11541156 0.89742404
-0.12180892 0.10977841 0.85362148
-0.11861065 0.10960224 0.85225165
-0.11542227 0.10942631 0.8508836
-0.11224412 0.10925094 0.84951997
-0.10907614 0.10907614 0.84816074
-0.10591828 0.1089019 0.84680581
-0.10277049 0.1087282 0.84545523
-0.099632725 0.10855506 0.84410888
-0.096504942 0.10838247 0.84276688
-0.093387097 0.10821044 0.84142923
-0.090279125 0.10803895 0.8400957
-0.087180987 0.107868 0.8387664
-0.084099747 0.10770669 0.83751208
-0.081717804 0.10846181 0.84338379
-0.079302214 0.10922758 0.84933829
-0.076852284 0.11000425 0.85537761
-0.074367218 0.11079198 0.86150289
-0.071846224 0.11159095 0.86771554
-0.069288604 0.11240152 0.87401837
-0.17102447 0.11555707 0.87459409
-0.16766638 0.11536676 0.87315375
-0.16431931 0.11517708 0.87171811
-0.16098323 0.11498803 0.87028724
-0.1576582 0.11479966 0.86886162
-0.15434411 0.11461196 0.867441
-0.15104009 0.11442432 0.8660208
-0.14802073 0.11444901 0.86620772
-0.14585525 0.11514888 0.87150466
-0.14366302 0.11585727 0.87686616
-0.14143306 0.1165657 0.8822279
-0.13917616 0.11728328 0.88765889
-0.13688515 0.11800444 0.89311701
-0.13456321 0.11873224 0.89862531
-0.11859009 0.11258553 0.85210395
-0.11540232 0.11240485 0.8507365
-0.11222474 0.11222474 0.84937334
-0.10905734 0.11204521 0.84801453
-0.10590005 0.11186625 0.84666008
-0.10275283 0.11168787 0.84530997
-0.099615633 0.11151004 0.8439641
-0.096488409 0.11133278 0.84262252
-0.093371116 0.11115609 0.84128523
-0.090263709 0.11097997 0.83995229
-0.087166123 0.11080439 0.8386234
-0.084283836 0.11089979 0.8393454
-0.081897929 0.111679 0.84524286
-0.079478256 0.11246923 0.85122377
-0.07702411 0.11327075 0.85729003
-0.074534692 0.11408371 0.8634429
-0.072009176 0.11490826 0.86968356
-0.17099406 0.1186175 0.87443858
-0.1676366 0.11842219 0.87299871
-0.16429017 0.11822751 0.87156361
-0.16095474 0.11803348 0.87013322
-0.15763025 0.11784009 0.86870754
-0.15431666 0.11764736 0.86728674
-0.15101399 0.11745532 0.86587107
-0.1481802 0.11762758 0.86714095
-0.14598373 0.11832365 0.87227237
-0.14376108 0.11902799 0.87746465
-0.14150439 0.11973449 0.88267291
-0.13921717 0.12044632 0.88792044
-0.13689877 0.12116329 0.89320588
-0.13454734 0.12188406 0.89851934
-0.11856948 0.11556772 0.85195583
-0.11538235 0.11538235 0.85058933
-0.11220536 0.11519751 0.84922665
-0.10903855 0.11501326 0.84786844
-0.10588183 0.11482959 0.8465144
-0.10273518 0.1146465 0.84516472
-0.099598557 0.11446401 0.84381938
-0.096471891 0.11428209 0.84247828
-0.093355156 0.11410075 0.8411414
-0.090248294 0.11391998 0.83980882
-0.087151259 0.11373978 0.83848041
-0.08446873 0.11410688 0.84118664
-0.082078859 0.1149104 0.84711015
-0.079655088 0.11572532 0.85311764
-0.077196695 0.11655188 0.85921097
-0.074702911 0.11739029 0.86539167
-0.07217288 0.11824068 0.87166065
-0.16760682 0.1214765 0.87284362
-0.16426104 0.12127685 0.87140906
-0.16092625 0.12107785 0.8699792
-0.1576024 0.12087951 0.86855406
-0.15428939 0.12068181 0.8671335
-0.15098721 0.12048475 0.86571759
-0.14814714 0.12065592 0.86694747
-0.14592424 0.12134752 0.87191689
-0.14367212 0.12204406 0.87692171
-0.14139193 0.12274685 0.88197142
-0.13907716 0.12345051 0.88702744
-0.13673581 0.12416241 0.89214265
-0.13435824 0.12487414 0.89725661
-0.11854883 0.11854883 0.85180748
-0.11536247 0.1183589 0.85044271
-0.112186 0.11816925 0.84908009
-0.10901975 0.11798027 0.84772223
-0.10586362 0.11779191 0.84636879
-0.10271754 0.11760414 0.84501958
-0.099581473 0.11741696 0.84367466
-0.09645538 0.11723038 0.84233403
-0.093339197 0.11704439 0.84099764
-0.090232894 0.11685899 0.83966547
-0.08713641 0.11667418 0.83833754
-0.084654443 0.11732809 0.84303606
-0.082260586 0.11815612 0.84898573
-0.079832703 0.11899591 0.85501987
-0.077370062 0.11984774 0.86114055
-0.07487189 0.12071183 0.86734921
-0.072337329 0.12158828 0.8736468
-0.16757707 0.12452975 0.87268871
-0.16423194 0.12432511 0.87125462
-0.16089779 0.12412115 0.8698253
-0.15757455 0.12391785 0.86840057
-0.15426219 0.12371521 0.86698055
-0.15096062 0.12351324 0.86556512
-0.1479324 0.12353118 0.86569083
-0.14568712 0.12421744 0.87050009
-0.14340836 0.12490405 0.87531179
-0.14110266 0.12559687 0.88016695
-0.13876346 0.12629034 0.88502669
-0.13639477 0.12698823 0.88991743
-0.13399319 0.12768763 0.89481878
-0.13156193 0.12839177 0.89975327
-0.11852827 0.12152898 0.85165972
-0.11534223 0.12133403 0.85029352
-0.11216647 0.12113979 0.84893233
-0.10900085 0.12094615 0.84757531
-0.10584541 0.12075321 0.84622318
-0.10269989 0.12056074 0.84487438
-0.099564396 0.1203689 0.84353
-0.09643887 0.12017766 0.84218985
