# .PCD v0.7 - Point Cloud Data file format
VERSION 0.7
FIELDS x y z
SIZE 4 4 4
TYPE F F F
COUNT 1 1 1
WIDTH 426
HEIGHT 1
VIEWPOINT 0 0 0 1 0 0 0
POINTS 426
DATA ascii
-0.047542192 -0.25129443 1.2850829
-0.057319198 -0.2499117 1.3014616
-0.051895197 -0.24593811 1.2807684
-0.047060449 -0.24426614 1.2720612
-0.042716745 -0.24505921 1.2761914
-0.061694257 -0.24449207 1.2970366
-0.056219094 -0.24061772 1.2764832
-0.051315345 -0.23872791 1.2664577
-0.047004595 -0.23949961 1.2705516
-0.042665888 -0.24027632 1.274672
-0.038298946 -0.24105807 1.2788192
-0.066039667 -0.23910914 1.2926416
-0.060514443 -0.23533395 1.2722327
-0.055532929 -0.23323831 1.2609035
-0.051254716 -0.23398893 1.2649614
-0.046948876 -0.23474438 1.2690455
-0.042615153 -0.23550479 1.2731563
-0.038253255 -0.2362701 1.2772936
-0.070355736 -0.23376259 1.2882764
-0.064781286 -0.23008525 1.2680104
-0.059713684 -0.22779664 1.2553978
-0.055467606 -0.22852653 1.2594203
-0.051194232 -0.22926113 1.2634686
-0.046893295 -0.23000045 1.2675431
-0.042564534 -0.23074459 1.271644
-0.038207669 -0.23149353 1.2757715
-0.033822432 -0.23224737 1.2799259
-0.080448307 -0.23215082 1.3047284
-0.07464274 -0.22845201 1.2839404
-0.069019899 -0.22487129 1.2638161
-0.063858084 -0.22240229 1.2499399
-0.059643745 -0.22311179 1.2539275
-0.055402435 -0.22382584 1.2579405
-0.05113389 -0.22454447 1.2619793
-0.046837848 -0.22526774 1.2660443
-0.042514037 -0.22599567 1.2701354
-0.038162198 -0.22672835 1.2742531
-0.033782046 -0.22746579 1.2783977
-0.029373307 -0.22820801 1.2825691
-0.084755659 -0.22677864 1.300284
-0.078900985 -0.22317708 1.2796336
-0.073230565 -0.21969168 1.2596494
-0.068277054 -0.21804608 1.250214
-0.063901171 -0.21814539 1.2507833
-0.059573967 -0.21843788 1.2524605
-0.055337418 -0.21913616 1.2564642
-0.051073689 -0.21983892 1.2604936
-0.046782527 -0.22054619 1.2645489
-0.042463664 -0.22125803 1.2686304
-0.038116831 -0.22197449 1.2727383
-0.033741754 -0.22269557 1.2768729
-0.029338162 -0.22342139 1.2810345
-0.024905771 -0.22415194 1.2852232
-0.089033768 -0.22144297 1.2958699
-0.083131127 -0.21793835 1.2753612
-0.077413157 -0.21454503 1.2555037
-0.072720431 -0.21375398 1.2508745
-0.068344258 -0.21385139 1.2514446
-0.063964099 -0.21394889 1.2520151
-0.059579946 -0.21404646 1.2525861
-0.055272538 -0.21445745 1.2549912
-0.051013626 -0.21514443 1.2590113
-0.046727337 -0.21583579 1.2630571
-0.042413406 -0.2165316 1.2671289
-0.038071573 -0.21723191 1.2712271
-0.033701561 -0.21793677 1.2753519
-0.029303102 -0.21864623 1.2795036
-0.024875911 -0.21936031 1.2836823
-0.093282938 -0.2161434 1.2914858
-0.08733318 -0.21273467 1.2711182
-0.08156652 -0.20942755 1.2513577
-0.077168502 -0.20945735 1.2515358
-0.072792038 -0.20955284 1.2521063
-0.068411589 -0.20964843 1.2526774
-0.064027146 -0.20974411 1.2532492
-0.059638701 -0.20983987 1.2538214
-0.055246241 -0.20993571 1.2543941
-0.050953694 -0.2104609 1.2575321
-0.046672266 -0.21113645 1.2615685
-0.042363271 -0.21181634 1.2656311
-0.038026422 -0.2125006 1.2697196
-0.033661466 -0.21318929 1.2738346
-0.029268123 -0.21388245 1.2779763
-0.024846122 -0.21458015 1.2821451
-0.020395175 -0.2152824 1.2863412
-0.10369378 -0.21430048 1.3080112
-0.09750323 -0.21087907 1.2871282
-0.091507368 -0.20756549 1.2669033
-0.085994028 -0.20506269 1.2516271
-0.081621274 -0.20515618 1.2521977
-0.077244535 -0.20524977 1.252769
-0.072863802 -0.20534344 1.2533407
-0.068479061 -0.20543718 1.2539129
-0.064090326 -0.20553103 1.2544857
-0.059697568 -0.20562495 1.255059
-0.055300802 -0.20571898 1.2556329
-0.050900009 -0.20581308 1.2562072
-0.046617318 -0.20644812 1.2600833
-0.042313237 -0.20711216 1.2641363
-0.037981376 -0.20778047 1.2682154
-0.033621464 -0.20845307 1.2723207
-0.02923323 -0.20913003 1.2764527
-0.024816399 -0.20981139 1.2806114
-0.020370699 -0.21049723 1.2847975
-0.015895838 -0.21118756 1.289011
-0.10793257 -0.20897582 1.3035446
-0.10169515 -0.20565018 1.2828001
-0.095652156 -0.20242666 1.2626925
-0.090451792 -0.20075886 1.2522891
-0.08607877 -0.20085046 1.2528604
-0.081701741 -0.20094211 1.2534322
-0.077320717 -0.20103386 1.2540045
-0.0729357 -0.20112571 1.2545774
-0.068546668 -0.20121764 1.2551508
-0.064153619 -0.20130964 1.2557247
-0.059756558 -0.20140173 1.2562991
-0.055355467 -0.2014939 1.2568741
-0.050950348 -0.20158617 1.2574496
-0.046562504 -0.20177086 1.2586017
-0.042263318 -0.20241906 1.262645
-0.037936423 -0.20307145 1.2667145
-0.033581547 -0.20372805 1.2708102
-0.029198416 -0.2043889 1.2749325
-0.024786755 -0.20505406 1.2790816
-0.020346284 -0.20572354 1.2832576
-0.015876722 -0.20639738 1.2874609
-0.011377783 -0.20707567 1.2916919
-0.1121425 -0.20368738 1.2991084
-0.1058593 -0.20045698 1.278505
-0.099768639 -0.19732019 1.2584988
-0.094928645 -0.19648021 1.2531414
-0.090540983 -0.19654018 1.2535238
-0.08616367 -0.19662991 1.2540962
-0.081782371 -0.19671975 1.2546692
-0.077397056 -0.19680966 1.2552426
-0.07300774 -0.19689965 1.2558166
-0.068614401 -0.19698973 1.256391
-0.064217046 -0.1970799 1.2569661
-0.059815656 -0.19717014 1.2575417
-0.055410244 -0.19726047 1.2581178
-0.051000789 -0.19735087 1.2586944
-0.046587285 -0.19744135 1.2592715
-0.042213522 -0.19773702 1.2611573
-0.037891582 -0.19837357 1.2652172
-0.03354172 -0.1990142 1.2693031
-0.029163677 -0.19965902 1.2734157
-0.024757171 -0.20030802 1.277555
-0.020321922 -0.20096123 1.2817211
-0.015857654 -0.20161873 1.2859147
-0.011364073 -0.20228051 1.2901354
-0.0068408982 -0.20294665 1.294384
-0.11632387 -0.19843483 1.2947023
-0.10999531 -0.19529781 1.2742345
-0.10459909 -0.19361959 1.2632849
-0.099908315 -0.19315608 1.2602607
-0.095239945 -0.19269478 1.2572509
-0.090630338 -0.19231315 1.254761
-0.086248748 -0.19240105 1.2553345
-0.08186315 -0.19248903 1.2559085
-0.077473544 -0.19257709 1.2564831
-0.073079921 -0.19266525 1.2570583
-0.068682276 -0.19275348 1.2576339
-0.064280592 -0.19284178 1.2582101
-0.059874885 -0.19293018 1.2587868
-0.055465128 -0.19301865 1.259364
-0.05105133 -0.1931072 1.2599418
-0.046633478 -0.19319583 1.2605201
-0.042211566 -0.19328454 1.2610989
-0.037846845 -0.1936868 1.2637234
-0.033501994 -0.19431156 1.2677997
-0.029129021 -0.19494037 1.2719024
-0.024727656 -0.19557327 1.2760319
-0.020297619 -0.19621031 1.2801882
-0.015838627 -0.19685151 1.2843717
-0.011350395 -0.19749688 1.2885826
-0.0068326378 -0.19814651 1.292821
-0.12705654 -0.1963601 1.3113106
-0.12047696 -0.19321777 1.2903259
-0.11442737 -0.19071229 1.273594
-0.10967469 -0.19025202 1.2705203
-0.1049449 -0.18979397 1.2674614
-0.10023782 -0.18933812 1.2644172
-0.095553316 -0.18888445 1.2613876
-0.09089119 -0.18843296 1.2583724
-0.086333998 -0.18816383 1.2565752
-0.081944101 -0.18824996 1.2571504
-0.077550188 -0.18833616 1.2577261
-0.073152244 -0.18842244 1.2583022
-0.068750277 -0.18850882 1.2588791
-0.064344272 -0.18859527 1.2594564
-0.059934217 -0.1886818 1.2600342
-0.055520121 -0.1887684 1.2606126
-0.051101964 -0.1888551 1.2611915
-0.046679754 -0.18894187 1.261771
-0.042253476 -0.18902871 1.2623509
-0.037823133 -0.18911566 1.2629316
-0.033462361 -0.18962003 1.2662998
-0.02909445 -0.19023295 1.2703929
-0.024698213 -0.19084983 1.2745125
-0.020273371 -0.19147071 1.2786589
-0.015819643 -0.19209565 1.2828323
-0.011336748 -0.19272472 1.2870332
-0.0068243961 -0.19335788 1.2912616
-0.0022822968 -0.19399522 1.2955178
-0.11960138 -0.18730028 1.2809483
-0.11480878 -0.18684565 1.2778391
-0.11003937 -0.18639322 1.2747449
-0.10529301 -0.18594298 1.2716657
-0.10056952 -0.18549488 1.2686012
-0.095868744 -0.18504897 1.2655516
-0.091190509 -0.18460518 1.2625165
-0.086534664 -0.18416353 1.259496
-0.082025208 -0.1840025 1.2583947
-0.077626981 -0.18408684 1.2589716
-0.073224716 -0.18417126 1.2595489
-0.06881842 -0.18425576 1.2601268
-0.064408071 -0.18434034 1.2607052
-0.059993677 -0.184425 1.2612842
-0.055575226 -0.18450975 1.2618638
-0.051152714 -0.18459457 1.2624439
-0.046726126 -0.18467946 1.2630244
-0.042295471 -0.18476443 1.2636056
-0.037860736 -0.18484947 1.2641872
-0.033422817 -0.18493959 1.2648035
-0.029059958 -0.18553665 1.2688868
-0.024668837 -0.18613759 1.2729967
-0.02024918 -0.18674244 1.2771332
-0.015800705 -0.18735121 1.2812966
-0.011323132 -0.18796399 1.2854874
-0.006816173 -0.18858078 1.2897056
-0.0022795377 -0.18920162 1.2939516
0.0022870672 -0.18982658 1.2982256
-0.11519272 -0.18295315 1.2821125
-0.11040648 -0.18250868 1.2789977
-0.10564344 -0.18206634 1.2758979
-0.10090342 -0.18162616 1.2728131
-0.096186265 -0.18118808 1.2697431
-0.091491811 -0.18075211 1.2666879
-0.086819895 -0.18031825 1.2636474
-0.082170352 -0.17988645 1.2606214
-0.077703938 -0.17982912 1.2602197
-0.073297344 -0.17991166 1.2607981
-0.068886705 -0.1799943 1.2613772
-0.064472005 -0.18007699 1.2619567
-0.060053259 -0.18015978 1.2625369
-0.055630438 -0.18024261 1.2631174
-0.051203556 -0.18032557 1.2636987
-0.046772592 -0.18040858 1.2642804
-0.042337548 -0.18049166 1.2648627
-0.037898421 -0.18057483 1.2654456
-0.033455197 -0.18065807 1.2660289
-0.029025549 -0.1808515 1.2673844
-0.024639532 -0.18143655 1.2714844
-0.020225048 -0.18202543 1.2756112
-0.015781812 -0.18261813 1.2797647
-0.01130955 -0.18321471 1.2839454
-0.006807969 -0.18381517 1.2881534
-0.0022767854 -0.18441962 1.2923893
-0.11557943 -0.1790348 1.2864165
-0.1107761 -0.1785982 1.2832794
-0.10599619 -0.17816381 1.2801583
-0.10123953 -0.17773162 1.2770529
-0.096505895 -0.17730153 1.2739625
-0.091795109 -0.17687351 1.270887
-0.08710701 -0.17644754 1.2678263
-0.082441442 -0.17602362 1.2647804
-0.07779824 -0.17560174 1.261749
-0.073370107 -0.17564358 1.2620497
-0.068955116 -0.17572433 1.2626299
-0.064536072 -0.17580515 1.2632107
-0.060112949 -0.17588603 1.2637918
-0.055685766 -0.17596702 1.2643737
-0.0512545 -0.17604806 1.264956
-0.04681915 -0.17612919 1.2655389
-0.042379711 -0.17621037 1.2661222
-0.037936177 -0.17629164 1.2667062
-0.033488542 -0.17637299 1.2672907
-0.029036803 -0.17645442 1.2678758
-0.024610298 -0.17674668 1.2699758
-0.020200972 -0.17731965 1.2740927
-0.015762966 -0.17789634 1.2782364
-0.011295998 -0.17847678 1.282407
-0.0067997864 -0.17906104 1.2866051
-0.11114832 -0.17466165 1.2875915
-0.10635143 -0.17423533 1.2844486
-0.10157789 -0.17381106 1.281321
-0.096827656 -0.17338906 1.27821
-0.092100427 -0.17296909 1.2751141
-0.087396033 -0.17255114 1.272033
-0.082714327 -0.17213522 1.2689668
-0.078055136 -0.17172129 1.2659154
-0.073443018 -0.17136703 1.2633039
-0.069023669 -0.17144589 1.2638851
-0.064600259 -0.17152484 1.2644671
-0.06017277 -0.17160383 1.2650495
-0.055741202 -0.17168291 1.2656324
-0.051305551 -0.17176206 1.2662159
-0.046865802 -0.17184128 1.2667999
-0.042421959 -0.17192058 1.2673845
-0.037974015 -0.17199995 1.2679696
-0.033521958 -0.17207937 1.2685552
-0.02906579 -0.1721589 1.2691414
-0.0246055 -0.1722385 1.2697282
-0.020176955 -0.17262505 1.2725779
-0.015744165 -0.17318581 1.2767117
-0.01128248 -0.17375021 1.2808723
-0.10670912 -0.17028052 1.2887686
-0.1019187 -0.16986449 1.28562
-0.097151615 -0.16945049 1.2824866
-0.09240777 -0.16903861 1.2793692
-0.087686978 -0.16862881 1.2762676
-0.082989022 -0.16822098 1.2731811
-0.078313723 -0.16781512 1.2701093
-0.07366094 -0.16741122 1.2670524
-0.069092356 -0.16715893 1.2651429
-0.064664572 -0.16723597 1.265726
-0.060232706 -0.16731307 1.2663095
-0.05579675 -0.16739024 1.2668936
-0.051356703 -0.1674675 1.2674783
-0.046912547 -0.16754481 1.2680634
-0.042464294 -0.16762221 1.2686492
-0.038011923 -0.16769965 1.2692354
-0.033555441 -0.1677772 1.2698222
-0.029094832 -0.1678548 1.2704096
-0.024630098 -0.16793248 1.2709975
-0.020161228 -0.16801025 1.2715861
-0.015725406 -0.16848649 1.2751906
-0.1022618 -0.16589135 1.2899479
-0.097477876 -0.1654857 1.2867935
-0.09271729 -0.16508201 1.2836545
-0.087979876 -0.16468027 1.2805307
-0.083265543 -0.16428067 1.2774234
-0.078574046 -0.163883 1.2743312
-0.0739052 -0.16348726 1.2712539
-0.069258839 -0.1630934 1.2681913
-0.064729013 -0.16293857 1.2669873
-0.060292765 -0.16301377 1.2675722
-0.055852406 -0.16308902 1.2681574
-0.051407956 -0.16316438 1.2687433
-0.046959389 -0.16323978 1.2693295
-0.042506713 -0.16331527 1.2699165
-0.03804991 -0.1633908 1.2705039
-0.033588991 -0.16346642 1.2710919
-0.029123936 -0.16354209 1.2716804
-0.024654746 -0.16361786 1.2722695
-0.020181414 -0.16369368 1.2728591
-0.097806327 -0.16149417 1.2911294
-0.093028933 -0.16109888 1.2879691
-0.088274874 -0.16070554 1.2848244
-0.083543971 -0.16031411 1.2816949
-0.078836091 -0.15992464 1.2785811
-0.074151076 -0.15953717 1.2754834
-0.069488712 -0.15915157 1.2724005
-0.064848833 -0.15876782 1.2693325
-0.060352936 -0.15870588 1.2688372
-0.055908173 -0.15877922 1.2694236
-0.051459305 -0.15885264 1.2700106
-0.04700632 -0.15892613 1.2705982
-0.042549212 -0.15899968 1.2711862
-0.038087975 -0.15907331 1.2717749
-0.033622608 -0.15914701 1.272364
-0.029153097 -0.15922077 1.2729537
-0.024679443 -0.15929459 1.273544
-0.098136991 -0.15747564 1.2954944
-0.093342677 -0.15708891 1.2923129
-0.088571861 -0.15670405 1.2891469
-0.083824359 -0.15632109 1.2859964
-0.079099998 -0.15594 1.2828612
-0.074398614 -0.15556075 1.2797413
-0.069720104 -0.15518346 1.2766376
-0.065064259 -0.15480806 1.2735492
-0.060430869 -0.15443444 1.2704756
-0.05596406 -0.1544608 1.2706925
-0.051510766 -0.1545323 1.2712806
-0.047053352 -0.15460387 1.2718694
-0.042591799 -0.15467548 1.2724586
-0.038126118 -0.15474717 1.2730484
-0.033656292 -0.15481894 1.2736387
-0.029182319 -0.15489078 1.2742296
-0.093658552 -0.15305178 1.2966861
-0.088870846 -0.15267555 1.2934986
-0.084106624 -0.15230118 1.2903268
-0.0793657 -0.15192863 1.2871705
-0.074647926 -0.15155791 1.2840297
-0.069953114 -0.15118898 1.2809041
-0.065281115 -0.15082189 1.277794
-0.0606318 -0.1504567 1.2746999
-0.056020051 -0.15013374 1.2719638
-0.051562328 -0.1502033 1.2725532
-0.047100466 -0.15027291 1.2731429
-0.042634472 -0.15034261 1.2737335
-0.038164333 -0.15041237 1.2743244
-0.033690043 -0.15048219 1.2749159
-0.089171857 -0.14861977 1.2978798
-0.084390797 -0.14825411 1.2946866
-0.079633214 -0.14789025 1.291509
-0.074898906 -0.14752816 1.2883469
-0.07018774 -0.14716785 1.2852004
-0.065499522 -0.14680927 1.282069
-0.060834099 -0.14645246 1.278953
-0.056191333 -0.14609747 1.2758528
-0.051613994 -0.14586563 1.2738283
-0.047147684 -0.14593332 1.2744193
-0.042677231 -0.14600106 1.2750109
-0.084676906 -0.1441796 1.2990758
-0.079902522 -0.14382453 1.2958767
-0.075151585 -0.14347121 1.2926933
-0.070423938 -0.14311962 1.2895254
-0.065719418 -0.14276977 1.2863731
-0.061037831 -0.1424216 1.2832361
-0.05637902 -0.14207514 1.2801144
-0.051742829 -0.14173035 1.2770079
-0.047194995 -0.14158498 1.2756981
-0.080173656 -0.13973123 1.3002741
-0.075405978 -0.1393868 1.2970691
-0.070661753 -0.13904409 1.2938799
-0.065940782 -0.13870303 1.2907062
-0.061242931 -0.13836366 1.2875481
-0.056568004 -0.13802592 1.2844054
-0.051915843 -0.13768984 1.2812779
-0.075662099 -0.13527466 1.3014747
-0.070901163 -0.13494092 1.2982637
-0.066163652 -0.13460881 1.2950685
-0.061449405 -0.13427833 1.291889
-0.075919956 -0.13113448 1.3059101
-0.071142189 -0.13080983 1.3026772
