# .PCD v0.7 - Point Cloud Data file format
VERSION 0.7
FIELDS x y z
SIZE 4 4 4
TYPE F F F
COUNT 1 1 1
WIDTH 1414
HEIGHT 1
VIEWPOINT 0 0 0 1 0 0 0
POINTS 1414
DATA ascii
0.18849482 -0.29698104 0.76976097
0.19114158 -0.29687947 0.76949769
0.12187082 -0.32649341 0.85405523
0.12483715 -0.32638147 0.85376239
0.12780146 -0.3262696 0.85346979
0.13076347 -0.32615715 0.85317564
0.13372383 -0.32604575 0.85288417
0.13668181 -0.32593355 0.85259068
0.13963813 -0.32582229 0.85229969
0.14259243 -0.32571113 0.85200888
0.14554471 -0.32560003 0.85171825
0.16117021 -0.29389861 0.76879239
0.16382314 -0.29379854 0.76853055
0.16647425 -0.29369849 0.76826888
0.16912356 -0.2935985 0.76800734
0.17177109 -0.29349864 0.76774609
0.17441677 -0.29339874 0.76748478
0.17706051 -0.29329872 0.76722312
0.17970243 -0.2931987 0.76696151
0.18234257 -0.29309881 0.76670021
0.18498093 -0.29299897 0.76643908
0.18761748 -0.29289922 0.76617813
0.19025221 -0.2927995 0.7659173
0.19288519 -0.2926999 0.76565671
0.10947042 -0.32241288 0.85122657
0.11243117 -0.32230267 0.85093564
0.11538991 -0.32219261 0.85064501
0.11834663 -0.32208261 0.85035461
0.12130134 -0.32197267 0.8500644
0.124254 -0.32186279 0.84977424
0.12720373 -0.32175061 0.84947807
0.13015226 -0.32164064 0.84918773
0.13309978 -0.32153317 0.84890401
0.13604358 -0.32142162 0.84860951
0.13898632 -0.32131246 0.84832126
0.14192705 -0.32120335 0.84803319
0.14486578 -0.32109427 0.84774524
0.14780255 -0.32098532 0.84745759
0.1507373 -0.32087645 0.84717011
0.15367007 -0.32076761 0.84688282
0.15660083 -0.32065886 0.84659564
0.15952963 -0.3205502 0.84630877
0.16245644 -0.3204416 0.84602207
0.14983995 -0.29023054 0.76625955
0.15248799 -0.29013205 0.7659995
0.15513423 -0.29003355 0.7657395
0.15777868 -0.28993517 0.76547974
0.16042133 -0.28983685 0.76522017
0.16306217 -0.28973857 0.76496071
0.16570124 -0.28964037 0.76470143
0.16833846 -0.28954214 0.76444209
0.17097378 -0.28944379 0.76418245
0.17360732 -0.28934553 0.76392299
0.17623909 -0.28924733 0.76366377
0.17886904 -0.28914919 0.76340467
0.18149723 -0.28905115 0.76314574
0.18412361 -0.28895313 0.76288694
0.18674824 -0.28885517 0.76262838
0.18937108 -0.28875732 0.76236999
0.19199215 -0.28865951 0.76211178
0.19461143 -0.28856179 0.76185375
0.19722895 -0.28846413 0.7615959
0.097151794 -0.31835896 0.84841573
0.10010707 -0.31825083 0.8481276
0.10306025 -0.3181425 0.84783894
0.10601141 -0.31803423 0.84755039
0.10896057 -0.31792605 0.84726208
0.11190771 -0.3178179 0.8469739
0.11485286 -0.31770986 0.84668595
0.11779601 -0.31760189 0.84639823
0.12073716 -0.317494 0.8461107
0.12367506 -0.31738299 0.84581482
0.12661265 -0.31727639 0.84553075
0.12954831 -0.31717002 0.84524727
0.13248147 -0.31706241 0.84496051
0.13541128 -0.31695166 0.84466541
0.13834056 -0.31684452 0.84437984
0.14126787 -0.31673744 0.84409446
0.14419317 -0.31663036 0.84380913
0.14711653 -0.31652343 0.84352416
0.1500379 -0.31641653 0.84323931
0.13858409 -0.28658652 0.76374334
0.14122726 -0.28648958 0.76348495
0.14386861 -0.28639266 0.76322669
0.14650819 -0.28629583 0.7629686
0.14914599 -0.28619906 0.76271075
0.15178201 -0.28610235 0.76245302
0.15441623 -0.28600571 0.76219547
0.15704867 -0.28590915 0.7619381
0.15967935 -0.28581262 0.7616809
0.16230816 -0.285716 0.76142341
0.16493513 -0.28561935 0.76116586
0.16756032 -0.28552279 0.76090848
0.17018373 -0.28542626 0.76065123
0.17280537 -0.28532979 0.76039416
0.17542523 -0.28523338 0.76013726
0.17804332 -0.28513706 0.75988054
0.18065967 -0.28504083 0.75962406
0.18327424 -0.28494462 0.7593677
0.18588704 -0.28484848 0.75911152
0.18849806 -0.2847524 0.7588554
0.19110735 -0.28465641 0.75859958
0.19371487 -0.28456047 0.75834394
0.19632062 -0.28446457 0.75808841
0.19892465 -0.28436878 0.75783312
0.093756884 -0.31401113 0.84476101
0.096700363 -0.31390426 0.84447348
0.099641852 -0.31379747 0.84418619
0.10258139 -0.31369093 0.84389955
0.10551865 -0.31358358 0.84361082
0.10845412 -0.31347698 0.84332401
0.11138865 -0.31337342 0.84304535
0.11432035 -0.31326744 0.84276032
0.1173336 -0.31338468 0.84307569
0.12050615 -0.31391105 0.84449178
0.12357564 -0.31415009 0.84513485
0.12655289 -0.31414896 0.84513175
0.12943763 -0.31392345 0.8445251
0.13222171 -0.31346947 0.8433038
0.13488509 -0.31275553 0.8413831
0.12476189 -0.28306192 0.7615006
0.12740193 -0.28296641 0.76124364
0.1300402 -0.28287095 0.76098686
0.13267671 -0.28277561 0.76073039
0.13531142 -0.2826803 0.76047397
0.13794436 -0.28258505 0.76021773
0.14057554 -0.2824899 0.75996172
0.14320493 -0.28239477 0.75970584
0.14583255 -0.28229973 0.75945014
0.14845842 -0.28220475 0.75919461
0.15108252 -0.28210983 0.75893927
0.15370484 -0.28201497 0.75868404
0.1563253 -0.28191999 0.75842851
0.15894394 -0.28182498 0.75817293
0.16156082 -0.28173003 0.75791752
0.16417596 -0.2816352 0.75766236
0.16678932 -0.28154036 0.75740731
0.16940093 -0.28144562 0.75715244
0.17201079 -0.281351 0.75689781
0.17461888 -0.28125638 0.7566433
0.1772252 -0.28116179 0.75638884
0.17982981 -0.28106731 0.75613469
0.18243264 -0.2809729 0.75588065
0.18503374 -0.28087854 0.75562686
0.18763308 -0.28078425 0.75537318
0.19023068 -0.28069001 0.75511968
0.19282652 -0.28059584 0.7548663
0.1954207 -0.28050181 0.75461334
0.19801325 -0.28040802 0.75436103
0.090391099 -0.30970067 0.84113771
0.093323104 -0.3095957 0.84085262
0.096253119 -0.3094908 0.84056777
0.099181153 -0.30938599 0.8402831
0.1021072 -0.30928126 0.8399986
0.10503127 -0.30917656 0.83971429
0.10795414 -0.30907416 0.83943617
0.11087347 -0.30896741 0.8391462
0.1143542 -0.31039 0.84300989
0.11767703 -0.31132278 0.84554332
0.12085215 -0.31182837 0.84691656
0.12392392 -0.31204939 0.84751678
0.11365756 -0.27946386 0.7590155
0.11629272 -0.27936989 0.75876021
0.11892612 -0.27927595 0.75850511
0.12155777 -0.27918214 0.7582503
0.12418763 -0.27908832 0.75799555
0.12681572 -0.27899459 0.75774097
0.12944207 -0.27890095 0.75748664
0.13206664 -0.27880734 0.75723243
0.13468945 -0.27871382 0.75697839
0.1373105 -0.27862036 0.75672454
0.13992982 -0.27852696 0.75647086
0.14254734 -0.27843359 0.7562173
0.14516313 -0.27834031 0.75596398
0.14777717 -0.27824709 0.75571078
0.15038931 -0.27815369 0.75545704
0.1529997 -0.27806032 0.75520349
0.15560833 -0.27796704 0.75495011
0.15821522 -0.27787378 0.75469691
0.16082036 -0.27778062 0.75444388
0.16342376 -0.27768752 0.75419098
0.1660254 -0.27759448 0.75393826
0.16862531 -0.27750149 0.75368571
0.17122346 -0.27740857 0.75343335
0.1738199 -0.27731571 0.75318116
0.17641459 -0.27722293 0.75292915
0.17900755 -0.27713019 0.75267732
0.18159874 -0.2770375 0.75242555
0.18418832 -0.27694502 0.75217438
0.18677624 -0.27685273 0.75192368
0.18936242 -0.27676046 0.7516731
0.19194689 -0.27666828 0.75142276
0.19452965 -0.27657616 0.7511726
0.19743501 -0.27693903 0.75215811
0.089974672 -0.3053239 0.83726263
0.09289331 -0.30522087 0.83698016
0.095809989 -0.30511796 0.83669794
0.098724701 -0.30501512 0.83641589
0.10163744 -0.30491233 0.83613402
0.10454822 -0.3048096 0.83585232
0.10745703 -0.30470693 0.83557081
0.11103541 -0.30645776 0.84037191
0.10262545 -0.27588922 0.7565465
0.10525577 -0.27579677 0.756293
0.10788431 -0.27570435 0.75603956
0.11051109 -0.275612 0.7557863
0.11313611 -0.27551973 0.75553328
0.11575937 -0.27542746 0.75528032
0.11838088 -0.27533531 0.75502759
0.12100065 -0.27524322 0.75477511
0.12361865 -0.27515119 0.75452268
0.1262349 -0.27505919 0.75427043
0.1288494 -0.27496728 0.75401843
0.13146217 -0.27487543 0.75376654
0.13407318 -0.27478364 0.75351483
0.13668245 -0.27469191 0.75326329
0.13928998 -0.27460024 0.75301188
0.14189576 -0.2745086 0.75276059
0.14449966 -0.27441677 0.75250882
0.14710185 -0.27432507 0.75225729
0.14970228 -0.27423337 0.75200588
0.15230097 -0.27414173 0.75175458
0.15489793 -0.27405018 0.75150347
0.15749316 -0.27395868 0.75125259
0.16008665 -0.27386725 0.75100183
0.16267841 -0.27377585 0.75075126
0.16526845 -0.27368456 0.75050086
0.16785675 -0.27359331 0.75025064
0.17044334 -0.27350208 0.75000054
0.17302831 -0.27341112 0.74975109
0.17561159 -0.27332029 0.749502
0.17819315 -0.27322951 0.74925303
0.18077302 -0.27313879 0.7490043
0.18335117 -0.27304816 0.74875575
0.18592763 -0.27295759 0.74850738
0.18850234 -0.27286702 0.74825907
0.19107537 -0.27277657 0.74801099
0.1936467 -0.27268618 0.7477631
0.19852616 -0.27580482 0.75631505
0.086654715 -0.30108842 0.83370316
0.089562073 -0.30098727 0.83342314
0.092467472 -0.30088621 0.83314329
0.095370919 -0.30078521 0.83286357
0.09827242 -0.30068427 0.83258408
0.10117196 -0.30058336 0.83230472
0.10406931 -0.30048183 0.8320235
0.097104892 -0.27269182 0.75507396
0.099535964 -0.27206498 0.75333828
0.10215616 -0.27197421 0.75308692
0.10477459 -0.27188346 0.75283563
0.10739128 -0.27179277 0.75258452
0.11000624 -0.27170214 0.75233364
0.11261944 -0.2716116 0.75208288
0.1152309 -0.27152109 0.75183225
0.11784063 -0.27143064 0.75158185
0.1204486 -0.27134025 0.75133157
0.12305485 -0.27124995 0.75108147
0.12565938 -0.27115971 0.7508316
0.12826215 -0.2710695 0.7505818
0.13086319 -0.27097934 0.75033218
0.13346252 -0.27088928 0.75008279
0.13606006 -0.27079916 0.74983329
0.13865581 -0.27070898 0.74958354
0.14124981 -0.2706188 0.74933386
0.14384209 -0.27052867 0.74908435
0.14643264 -0.27043867 0.74883509
0.14902148 -0.2703487 0.74858594
0.15160859 -0.27025878 0.74833703
0.15419398 -0.27016896 0.74808824
0.15677765 -0.27007914 0.74783957
0.15935959 -0.2699894 0.74759108
0.16193996 -0.26989993 0.74734336
0.16451862 -0.26981053 0.74709582
0.16709559 -0.26972124 0.74684852
0.16967085 -0.26963198 0.7466014
0.17224441 -0.26954278 0.7463544
0.17481625 -0.26945361 0.74610752
0.1773864 -0.26936454 0.74586087
0.17995487 -0.26927555 0.74561441
0.18252163 -0.26918656 0.74536806
0.18508667 -0.26909766 0.74512184
0.18765004 -0.26900882 0.74487585
0.19021173 -0.26892003 0.74463004
0.19357733 -0.26995477 0.74749523
0.19962944 -0.27465793 0.76051813
0.08336287 -0.2968888 0.83017385
0.086259022 -0.29678953 0.82989621
0.089153238 -0.29669029 0.82961869
0.092045508 -0.29659107 0.82934135
0.094935767 -0.29649171 0.82906348
0.097824655 -0.29639411 0.82879055
0.10071061 -0.29629353 0.82850933
0.10359561 -0.29619589 0.82823628
0.097339533 -0.27068391 0.75689852
0.099212438 -0.26853499 0.75088966
0.10169113 -0.26809481 0.74965876
0.1042978 -0.26800576 0.74940974
0.10690276 -0.26791677 0.74916095
0.10950597 -0.26782784 0.74891227
0.11210746 -0.26773897 0.74866378
0.11470722 -0.26765019 0.74841553
0.11730526 -0.26756144 0.74816734
0.11990158 -0.26747277 0.74791938
0.12249618 -0.26738414 0.74767154
0.12508905 -0.26729557 0.74742389
0.12768021 -0.26720703 0.74717635
0.1302696 -0.26711848 0.74692869
0.1328572 -0.26702982 0.7466808
0.13544309 -0.26694125 0.74643314
0.13802727 -0.26685274 0.7461856
0.14060974 -0.26676425 0.74593824
0.14319047 -0.26667583 0.745691
0.14576951 -0.2665875 0.74544394
0.14834686 -0.26649922 0.74519712
0.15092261 -0.26641122 0.74495107
0.15349667 -0.26632327 0.74470514
0.15606903 -0.26623538 0.74445939
0.15863968 -0.26614758 0.74421382
0.16120866 -0.26605982 0.74396843
0.16377592 -0.26597211 0.74372315
0.1663415 -0.26588446 0.74347806
0.16890539 -0.26579687 0.74323314
0.1714676 -0.26570934 0.74298841
0.1740281 -0.26562184 0.74274373
0.17658693 -0.26553443 0.74249929
0.17914408 -0.26544705 0.74225503
0.18169953 -0.26535976 0.74201089
0.18425332 -0.2652725 0.74176693
0.18680543 -0.26518533 0.74152315
0.18935585 -0.26509818 0.74127948
0.19464049 -0.26878923 0.75160056
0.20074508 -0.27349833 0.7647683
0.080098771 -0.29272461 0.82667428
0.082983799 -0.2926271 0.82639891
0.085866816 -0.29252931 0.82612282
0.088748194 -0.29243258 0.82584959
0.091627598 -0.29233566 0.82557589
0.094505295 -0.29223946 0.82530421
0.097380497 -0.2921415 0.82502753
0.10025395 -0.29204413 0.82475257
0.10312582 -0.29194772 0.82448035
0.097575322 -0.2686663 0.75873196
0.099450849 -0.26652828 0.75269407
0.10129676 -0.26442403 0.74675149
0.10382533 -0.2641632 0.74601489
0.10641864 -0.26407591 0.74576837
0.10901023 -0.26398864 0.74552196
0.11160011 -0.26390144 0.74527568
0.11418829 -0.26381433 0.74502969
0.11677475 -0.26372725 0.74478376
0.11935949 -0.2636402 0.74453795
0.12194256 -0.26355326 0.74429244
0.12452382 -0.26346618 0.74404651
0.12710334 -0.2633791 0.74380058
0.12968117 -0.26329204 0.74355477
0.13225728 -0.26320508 0.74330914
0.13483168 -0.26311815 0.74306363
0.13740444 -0.26303136 0.74281853
0.13997556 -0.26294476 0.74257398
0.14254501 -0.26285824 0.74232966
0.14511278 -0.26277179 0.74208552
0.14767885 -0.26268539 0.7418415
0.15024322 -0.26259902 0.74159759
0.15280592 -0.26251274 0.74135393
0.15536694 -0.2624265 0.74111038
0.15792626 -0.26234034 0.74086702
0.16048391 -0.26225421 0.74062377
0.16303989 -0.26216814 0.74038076
0.16559419 -0.26208213 0.74013788
0.16814682 -0.26199621 0.73989516
0.17069773 -0.26191026 0.73965251
0.17324702 -0.26182446 0.73941016
0.17579462 -0.26173866 0.73916787
0.17834057 -0.26165295 0.73892581
0.18088482 -0.26156726 0.73868382
0.18342742 -0.26148164 0.73844206
0.18596837 -0.26139608 0.73820043
0.18976717 -0.26305655 0.7428897
0.19571541 -0.26761088 0.75575137
0.079736091 -0.28849968 0.82293117
0.082608223 -0.28840414 0.82265866
0.085478455 -0.28830868 0.82238638
0.088346787 -0.28821328 0.82211429
0.091213226 -0.28811797 0.82184237
0.094077773 -0.28802273 0.82157069
0.096940421 -0.28792751 0.82129914
0.099801175 -0.28783238 0.82102776
0.10266005 -0.28773731 0.82075655
0.09781225 -0.26663888 0.76057428
0.0996904 -0.26451185 0.75450712
0.10153883 -0.26241854 0.74853599
0.10335822 -0.26035807 0.74265862
0.1059389 -0.26026964 0.74240637
0.10851897 -0.26018402 0.74216217
0.11109735 -0.26009849 0.74191821
0.11367402 -0.26001298 0.7416743
0.116249 -0.25992754 0.74143058
0.11882221 -0.25984198 0.7411865
0.12139369 -0.25975639 0.74094236
0.12396349 -0.25967088 0.74069846
0.12653165 -0.25958553 0.74045503
0.12909818 -0.25950038 0.74021208
0.13166302 -0.25941527 0.73996931
0.13422619 -0.25933021 0.73972672
0.13678767 -0.25924522 0.73948425
0.13934746 -0.25916025 0.7392419
0.14190561 -0.25907537 0.73899978
0.14446205 -0.25899053 0.73875779
0.14701682 -0.25890574 0.73851591
0.14956994 -0.25882101 0.73827428
0.15212138 -0.25873634 0.73803276
0.15467115 -0.25865173 0.73779142
0.15721923 -0.25856715 0.73755014
0.15976568 -0.25848266 0.73730916
0.16231045 -0.25839823 0.7370683
0.16485356 -0.25831383 0.73682755
0.167395 -0.25822949 0.73658693
0.16993478 -0.25814521 0.73634654
0.17247292 -0.25806099 0.73610634
0.1750094 -0.25797683 0.73586625
0.17754421 -0.25789267 0.73562622
0.18007739 -0.25780863 0.73538649
0.18260892 -0.25772464 0.73514688
0.18513879 -0.25764069 0.73490745
0.19080295 -0.26186058 0.74694449
0.19680223 -0.26641935 0.75994813
0.079653144 -0.28530306 0.82207507
0.082235932 -0.28421891 0.81895119
0.085093357 -0.28412527 0.81868136
0.087948896 -0.28403169 0.81841171
0.090802565 -0.28393817 0.81814224
0.093654349 -0.28384471 0.81787294
0.096504256 -0.28375131 0.81760383
0.099352285 -0.28365797 0.81733489
0.10219844 -0.28356472 0.81706613
0.098050334 -0.26460159 0.7624256
0.099931121 -0.26248574 0.756329
0.10178206 -0.26040345 0.75032908
0.10360386 -0.25835395 0.74442357
0.10546346 -0.25649756 0.73907459
0.10803211 -0.25641358 0.73883259
0.11059908 -0.25632963 0.73859072
0.11316425 -0.25624549 0.73834831
0.11572783 -0.2561616 0.73810655
0.11828975 -0.25607783 0.73786515
0.12085001 -0.25599411 0.73762393
0.12340859 -0.25591043 0.73738283
0.12596548 -0.2558268 0.73714185
0.12852071 -0.25574324 0.7369011
0.13107428 -0.25565973 0.73666048
0.13362618 -0.25557628 0.73642004
0.13617641 -0.2554929 0.73617971
0.13872498 -0.25540954 0.73593956
0.14127189 -0.25532627 0.73569959
0.14381714 -0.25524303 0.7354598
0.14636073 -0.25515985 0.73522007
0.14890265 -0.25507674 0.73498058
0.15144293 -0.25499365 0.73474121
0.15398155 -0.25491065 0.73450202
0.15651852 -0.25482768 0.73426294
0.15905383 -0.25474477 0.73402405
0.16158751 -0.25466192 0.73378533
0.16411951 -0.2545791 0.73354667
0.16664989 -0.25449634 0.73330826
0.16917862 -0.25441366 0.73307002
0.17170571 -0.25433102 0.7328319
0.17423116 -0.25424841 0.73259389
0.17675495 -0.25416589 0.73235607
0.17927712 -0.2540834 0.73211843
0.18179767 -0.25400099 0.73188096
0.18600368 -0.25624284 0.73834062
0.19185011 -0.26065153 0.75104386
0.19790123 -0.26521459 0.76419193
0.079862505 -0.28314888 0.82423586
0.082051702 -0.28070319 0.81711656
0.084711708 -0.27997938 0.81500953
0.087554574 -0.27988759 0.81474233
0.090395577 -0.27979583 0.81447524
0.093234718 -0.27970415 0.81420839
0.096071996 -0.27961254 0.81394166
0.098907419 -0.27952096 0.81367511
0.10174099 -0.27942947 0.81340879
0.098289572 -0.26255435 0.76428592
0.100173 -0.2604498 0.75815964
0.10202646 -0.25837871 0.75213081
0.10385068 -0.25634027 0.74619699
0.10564633 -0.25433376 0.74035615
0.10774036 -0.25312495 0.73683733
0.11015022 -0.25269756 0.7355932
0.11265919 -0.25251198 0.735053
0.11521152 -0.25242975 0.73481357
0.11776218 -0.25234753 0.73457426
0.12031118 -0.25226539 0.73433512
0.12285852 -0.25218329 0.73409617
0.12540421 -0.25210124 0.73385733
0.12794824 -0.25201926 0.73361868
0.13049062 -0.25193733 0.7333802
0.13303134 -0.25185546 0.73314184
0.13557041 -0.2517736 0.7329036
0.13810782 -0.25169182 0.73266554
0.14064361 -0.25161013 0.73242772
0.14317773 -0.25152844 0.73218995
0.14571021 -0.25144684 0.73195237
0.14824104 -0.25136524 0.7317149
0.15077026 -0.25128376 0.73147768
0.15329783 -0.25120232 0.73124057
0.15582374 -0.2511209 0.73100358
0.15834804 -0.25103956 0.73076683
0.16087067 -0.25095826 0.73053014
0.16339169 -0.25087702 0.73029363
0.16591106 -0.25079581 0.73005724
0.16842884 -0.25071469 0.72982109
0.17094496 -0.2506336 0.72958505
0.17345946 -0.25055254 0.72934914
0.17621981 -0.25082383 0.73013878
0.1790612 -0.25120097 0.7312367
0.18191122 -0.25157934 0.73233807
0.18701267 -0.25501728 0.74234581
0.19290881 -0.2594291 0.75518841
0.19901256 -0.26399627 0.76848328
0.080072977 -0.28098333 0.82640803
0.08226607 -0.27855003 0.81925136
0.084421508 -0.27615848 0.81221753
0.087163769 -0.27578047 0.81110567
0.089992218 -0.27569047 0.81084096
0.092818826 -0.27560052 0.81057644
0.095643595 -0.27551067 0.81031215
0.098466516 -0.27542084 0.81004798
0.1012876 -0.27533108 0.809784
0.098529994 -0.26049709 0.76615536
0.10041604 -0.25840396 0.75999916
0.10227204 -0.2563442 0.75394118
0.10409867 -0.25431702 0.74797893
0.10589642 -0.25232109 0.7421087
0.10803656 -0.25121754 0.73886299
0.11045254 -0.25079224 0.73761213
0.11286035 -0.25036836 0.73636544
0.11526003 -0.24994592 0.73512298
0.11765163 -0.24952489 0.73388469
0.12003519 -0.24910529 0.73265058
0.12241074 -0.24868707 0.73142058
0.12484772 -0.24840835 0.73060077
0.12738064 -0.24832791 0.7303642
0.12991191 -0.2482475 0.73012775
0.13244157 -0.24816722 0.7298916
0.13496958 -0.24808693 0.72965544
0.13749595 -0.24800672 0.72941953
0.14002068 -0.24792653 0.72918373
0.14254381 -0.24784642 0.72894812
0.14506528 -0.24776636 0.72871262
0.14758512 -0.24768634 0.7284773
0.15010335 -0.24760638 0.7282421
0.15261994 -0.24752647 0.72800708
0.15513493 -0.24744663 0.72777224
0.15764827 -0.2473668 0.72753745
0.16016002 -0.24728706 0.72730297
0.16267012 -0.24720734 0.72706848
0.16544333 -0.24752374 0.72799903
0.16826026 -0.24789488 0.72909063
0.17108564 -0.24826713 0.73018545
0.17391951 -0.24864049 0.73128355
0.17676194 -0.249015 0.73238504
0.17961293 -0.24939063 0.73348981
0.18247256 -0.24976739 0.73459792
0.18803267 -0.25377837 0.74639469
0.19397928 -0.25819311 0.75937903
0.20013645 -0.26276419 0.77282315
0.080284551 -0.27880636 0.82859164
0.082481563 -0.27638558 0.8213973
0.084640741 -0.27400646 0.81432676
0.086776435 -0.27170983 0.80750132
0.089592449 -0.27162156 0.807239
0.092406631 -0.27153334 0.8069768
0.095218994 -0.27144518 0.80671483
0.098029524 -0.27135709 0.80645299
0.10083823 -0.27126902 0.80619133
0.09877158 -0.25842974 0.76803392
0.10066029 -0.25634819 0.76184767
0.1025188 -0.25429988 0.75576025
0.10434783 -0.25228399 0.74976915
0.10614751 -0.25029844 0.74386829
0.10833438 -0.2492996 0.7408998
0.11075652 -0.24887641 0.73964208
0.11317042 -0.2484546 0.73838854
0.11557617 -0.24803425 0.73713928
0.11797378 -0.24761531 0.7358942
0.12036332 -0.24719778 0.73465335
0.12274478 -0.24678162 0.73341656
0.12511826 -0.24636689 0.73218399
0.12748379 -0.24595356 0.7309556
0.12984137 -0.2455416 0.72973132
0.13219108 -0.24513102 0.7285111
0.13453294 -0.24472181 0.72729498
0.13688947 -0.2443541 0.72620213
0.13940325 -0.24427544 0.72596836
0.14191544 -0.24419683 0.72573477
0.14442602 -0.24411832 0.72550142
0.14693497 -0.24403982 0.72526813
0.14944232 -0.24396138 0.72503501
0.15194803 -0.24388298 0.72480202
0.15472981 -0.24424292 0.72587174
0.15752248 -0.24460809 0.72695696
0.16032353 -0.24497434 0.72804546
0.16313294 -0.24534167 0.72913712
0.1659508 -0.24571012 0.73023212
0.16877717 -0.24607968 0.73133045
0.17161201 -0.24645033 0.73243201
0.17445543 -0.24682213 0.73353696
0.17730744 -0.24719505 0.73464525
0.18016808 -0.24756908 0.73575681
0.18326904 -0.24825805 0.73780441
0.18906386 -0.25252587 0.75048798
0.19506167 -0.25694332 0.76361632
0.2012731 -0.26151809 0.77721226
0.08049725 -0.27661783 0.83078688
0.082698174 -0.27420974 0.82355446
0.084861115 -0.27184322 0.81644696
0.086987033 -0.26951721 0.80946106
0.089196213 -0.26758865 0.80366886
0.091998093 -0.26750213 0.80340904
0.094798148 -0.26741567 0.80314934
0.097596399 -0.26732925 0.80288982
0.10039284 -0.26724291 0.80263048
0.099014364 -0.25635225 0.76992178
0.10090571 -0.25428239 0.76370519
0.10276675 -0.25224566 0.75758815
0.1045978 -0.2502403 0.75156528
0.10639979 -0.24826618 0.74563622
0.10863386 -0.24737108 0.74294794
0.11106218 -0.24695002 0.7416833
0.11348221 -0.24653032 0.74042284
0.11589405 -0.24611208 0.73916668
0.1182977 -0.24569523 0.73791474
0.12069324 -0.2452798 0.73666704
0.12308067 -0.24486576 0.73542351
0.12546006 -0.24445312 0.73418421
0.12783146 -0.24404188 0.73294908
0.13019489 -0.24363202 0.73171812
0.13255039 -0.24322352 0.73049128
0.13489801 -0.2428164 0.72926855
0.13723776 -0.24241062 0.72804981
0.13956973 -0.24200621 0.72683525
0.14189391 -0.24160315 0.72562468
0.14421038 -0.24120143 0.72441816
0.14684738 -0.24134049 0.72483581
0.1496243 -0.24170078 0.72591794
0.15240951 -0.24206217 0.72700328
0.15520306 -0.24242461 0.72809184
0.158005 -0.24278817 0.72918373
0.16081534 -0.2431528 0.73027885
0.16363414 -0.24351852 0.73137724
0.16646142 -0.24388535 0.73247898
0.16929726 -0.24425331 0.73358411
0.17214166 -0.24462235 0.73469245
0.17499465 -0.24499251 0.7358042
0.1778563 -0.2453638 0.73691934
0.18072665 -0.24573623 0.73803788
0.18426247 -0.24699011 0.74180377
0.19010641 -0.25125954 0.75462639
0.19615623 -0.25567949 0.76790124
0.080711082 -0.27441767 0.83299375
0.082915932 -0.27202246 0.82572305
0.085082635 -0.26966867 0.81857818
0.087212153 -0.26735529 0.81155592
0.089305446 -0.26508126 0.80465305
0.091593139 -0.26350641 0.79987264
0.094381005 -0.2634216 0.7996152
0.097167075 -0.26333687 0.79935795
0.099951349 -0.26325214 0.79910082
0.099258356 -0.25426453 0.771819
0.10115234 -0.2522065 0.76557177
0.10301568 -0.25018096 0.75942326
0.10484897 -0.24818681 0.75337005
0.10665327 -0.24622419 0.74741256
0.10893499 -0.24543186 0.7450074
0.11136951 -0.24501292 0.74373573
0.11379572 -0.24459541 0.74246836
0.11621367 -0.24417928 0.74120522
0.1186234 -0.24376456 0.73994637
0.12102497 -0.24335128 0.73869181
0.12341839 -0.24293935 0.73744142
0.12580374 -0.24252884 0.73619533
0.12818104 -0.24211973 0.73495346
0.13055032 -0.24171199 0.73371577
0.13291165 -0.2413056 0.73248219
0.13526504 -0.24090061 0.73125279
0.13761054 -0.24049692 0.73002744
0.1399482 -0.24009463 0.72880626
0.14227806 -0.23969366 0.72758913
0.14460015 -0.23929405 0.72637612
0.14729588 -0.2395159 0.72704953
0.15008195 -0.23987457 0.72813827
0.15287638 -0.24023432 0.72923028
0.1556792 -0.24059512 0.73032552
0.15849045 -0.24095704 0.73142409
0.16131018 -0.24132004 0.732526
0.16413844 -0.24168415 0.73363125
0.1669752 -0.24204932 0.73473972
0.16982058 -0.24241562 0.73585165
0.17267457 -0.24278304 0.73696691
0.17553723 -0.24315156 0.73808557
0.17840858 -0.2435212 0.73920763
0.18128869 -0.24389197 0.74033308
0.18526673 -0.24570836 0.74584675
0.19116054 -0.24997917 0.75881076
0.19726314 -0.25440142 0.7722345
0.080926046 -0.2722058 0.83521235
0.083134845 -0.26982361 0.82790309
0.085305311 -0.26748276 0.82072055
0.087438449 -0.26518217 0.81366169
0.089535199 -0.26292083 0.80672312
0.091596492 -0.26069769 0.7999019
0.093967512 -0.25946254 0.796112
0.096741505 -0.25937939 0.79585695
0.099513739 -0.25929636 0.79560214
0.09950354 -0.25216651 0.77372551
0.10140014 -0.25012034 0.76744723
0.10326564 -0.24810576 0.76126593
0.10510135 -0.24612342 0.75518346
0.10690795 -0.24417248 0.74919736
0.10923781 -0.24348184 0.7470783
0.11167856 -0.24306509 0.74579954
0.11411097 -0.24264976 0.74452519
0.11653507 -0.24223581 0.74325508
0.1189509 -0.24182327 0.74198925
0.12135852 -0.24141212 0.74072772
0.12375797 -0.24100237 0.73947048
0.1261493 -0.24059401 0.73821753
0.12853253 -0.24018705 0.73696882
0.13090771 -0.23978145 0.73572433
0.13327488 -0.23937722 0.73448402
0.13563408 -0.23897433 0.73324782
0.13798536 -0.23857281 0.73201585
0.14032875 -0.23817264 0.73078799
0.1426643 -0.23777382 0.72956431
0.14499202 -0.23737632 0.72834462
0.14774713 -0.23768015 0.7292769
0.15054241 -0.23803714 0.73037225
0.15334612 -0.23839524 0.731471
0.15615828 -0.23875441 0.73257303
0.15897892 -0.23911464 0.73367834
0.16180809 -0.23947598 0.73478705
0.16464582 -0.23983841 0.73589909
0.16749215 -0.24020192 0.73701447
0.17034714 -0.24056657 0.73813331
0.17321078 -0.2409323 0.73925549
0.17608315 -0.24129914 0.74038106
0.1789643 -0.24166712 0.74151015
0.18185425 -0.24203624 0.7426427
0.18628202 -0.24441259 0.74993408
0.1922264 -0.24868451 0.76304168
0.1983826 -0.25310886 0.77661693
0.081142165 -0.2699821 0.83744282
0.083354905 -0.26761311 0.83009458
0.085529163 -0.26528537 0.82287425
0.087665915 -0.26299775 0.81577837
0.08976613 -0.26074922 0.80880386
0.091830738 -0.25853884 0.80194759
0.093860626 -0.2563656 0.79520649
0.096319661 -0.25545651 0.79238659
0.099079937 -0.25537506 0.79213399
0.09974993 -0.25005805 0.77564144
0.10164879 -0.24802303 0.76932913
0.10351682 -0.24602051 0.76311761
0.10535495 -0.24405007 0.75700563
0.10716386 -0.24211094 0.75099075
0.10954228 -0.24152094 0.74916065
0.11198932 -0.24110641 0.74787486
0.11442796 -0.24069329 0.74659342
0.11685824 -0.24028155 0.74531627
0.11928022 -0.23987122 0.74404347
0.12169393 -0.23946224 0.7427749
0.12409943 -0.23905469 0.74151075
0.12649675 -0.2386485 0.74025083
0.12888595 -0.23824373 0.73899525
0.13126706 -0.23784031 0.73774391
0.13364011 -0.23743826 0.73649681
0.13600513 -0.23703752 0.73525381
0.13836221 -0.23663819 0.73401511
0.14071137 -0.23624019 0.73278058
0.14305262 -0.23584351 0.73155016
0.14540499 -0.23547888 0.7304191
0.14820112 -0.23583309 0.73151785
0.15100572 -0.23618841 0.73262
0.15381876 -0.23654482 0.73372549
0.15664032 -0.23690231 0.73483437
0.15947039 -0.23726083 0.73594648
0.16230907 -0.23762049 0.73706204
0.16515638 -0.23798124 0.73818105
0.16801232 -0.23834306 0.73930335
0.17087696 -0.23870599 0.7404291
0.17375036 -0.23907003 0.74155831
0.17663251 -0.23943517 0.74269092
0.1795235 -0.23980147 0.7438271
0.18242334 -0.24016885 0.74496669
0.18730848 -0.24310251 0.75406641
0.19330424 -0.24737535 0.76732016
0.19951485 -0.25180149 0.78104937
0.081359446 -0.26774654 0.83968532
0.083576143 -0.26539093 0.8322978
0.085754193 -0.26307642 0.82503927
0.087894566 -0.26080191 0.81790614
0.089998245 -0.25856638 0.81089526
0.092066184 -0.25636891 0.80400372
0.094099261 -0.25420845 0.79722822
0.096098348 -0.25208408 0.79056591
0.098649912 -0.25148779 0.78869593
0.099997304 -0.24793853 0.777565
0.10189867 -0.24591544 0.77122039
0.10376924 -0.24392509 0.76497841
0.10560977 -0.24196669 0.75883663
0.107421 -0.2400395 0.75279272
0.10984848 -0.2395491 0.75125474
0.11230181 -0.2391368 0.74996173
0.11474671 -0.23872592 0.74867314
0.11718323 -0.23831645 0.74738902
0.11961135 -0.2379083 0.74610901
0.1220312 -0.23750158 0.74483347
0.12444278 -0.23709624 0.74356228
0.12684615 -0.23669229 0.74229544
0.12924133 -0.23628971 0.7410329
0.13162838 -0.2358885 0.73977464
0.13400733 -0.23548861 0.73852056
0.13637824 -0.23509011 0.73727083
0.13874115 -0.23469296 0.73602533
0.14109607 -0.23429716 0.73478401
0.14344308 -0.23390268 0.73354691
0.14585249 -0.23362213 0.73266709
0.14865796 -0.2339747 0.73377275
0.15147188 -0.2343283 0.7348817
0.15429431 -0.23468295 0.73599392
0.15712534 -0.23503873 0.73710966
0.15996492 -0.23539554 0.73822868
0.16281317 -0.23575348 0.73935121
0.1656701 -0.23611249 0.74047714
0.16853572 -0.23647261 0.74160647
0.1714101 -0.23683381 0.74273926
0.17429329 -0.23719613 0.74387556
0.17718531 -0.23755956 0.74501532
0.1800862 -0.2379241 0.74615854
0.18299599 -0.23828974 0.74730527
0.18834631 -0.2417779 0.75824451
0.19439422 -0.24605142 0.7716468
0.20066011 -0.25047916 0.78553277
0.081577882 -0.26549891 0.84193969
0.083798565 -0.26315689 0.83451277
0.085980393 -0.26085576 0.82721555
0.088124424 -0.25859463 0.82004505
0.090231583 -0.25637227 0.81299764
0.092302836 -0.25418779 0.80607033
0.094339103 -0.25204027 0.7992602
0.09634123 -0.2499287 0.79256403
0.098310061 -0.24785212 0.78597885
0.10024577 -0.24580811 0.77949697
0.10214977 -0.24379745 0.77312088
0.10402288 -0.24181943 0.76684821
0.10586584 -0.23987325 0.76067656
0.1076882 -0.23797762 0.75466526
0.11015639 -0.2375662 0.75336057
0.11261606 -0.23715617 0.75206029
0.11506724 -0.23674755 0.75076449
0.11751 -0.23634034 0.74947315
0.11994434 -0.23593448 0.74818611
0.12237034 -0.23553 0.74690348
0.12478803 -0.23512691 0.7456252
0.12719746 -0.23472521 0.74435133
0.12959868 -0.23432487 0.74308181
0.13199171 -0.23392589 0.74181658
0.13437659 -0.23352826 0.74055558
0.1367534 -0.23313197 0.73929894
0.13912216 -0.23273706 0.73804659
0.1414829 -0.23234348 0.73679847
0.14383566 -0.23195121 0.73555452
0.14630277 -0.23175395 0.73492897
0.14911759 -0.23210476 0.73604149
0.15194093 -0.23245662 0.73715729
0.15477283 -0.23280956 0.73827648
0.15761337 -0.23316358 0.73939914
0.16046254 -0.23351866 0.74052519
0.16332041 -0.23387483 0.74165463
0.16618702 -0.2342321 0.7427876
0.16906241 -0.23459046 0.74392402
0.17194659 -0.23494992 0.7450639
0.17483963 -0.23531048 0.7462073
0.17774156 -0.23567215 0.74735421
0.18065242 -0.23603493 0.74850464
0.18357226 -0.23639882 0.74965858
0.18939574 -0.24043857 0.76246929
0.19549657 -0.2447125 0.77602261
0.20181857 -0.24914154 0.79006785
0.081797503 -0.26323923 0.84420633
0.084022157 -0.2609109 0.83673942
0.086207815 -0.25862345 0.82940352
0.088355467 -0.2563757 0.82219505
0.090466082 -0.2541666 0.8151105
0.092540614 -0.25199521 0.80814683
0.094579995 -0.24986058 0.80130112
0.096585125 -0.24776183 0.79457045
0.098556831 -0.245698 0.78795177
0.10049546 -0.24366707 0.78143853
0.10240211 -0.24166898 0.77503073
0.10427776 -0.23970343 0.76872718
0.10612315 -0.23776959 0.76252538
0.10799143 -0.23598129 0.75679028
0.11046603 -0.23557214 0.7554782
0.11293206 -0.23516442 0.7541706
0.11538958 -0.23475811 0.75286758
0.11783861 -0.23435318 0.75156897
0.12027919 -0.23394963 0.75027478
0.12271137 -0.23354745 0.74898499
0.1251352 -0.23314664 0.74769962
0.12755074 -0.23274721 0.74641865
0.12995799 -0.23234914 0.74514204
0.13235705 -0.23195244 0.74386984
0.13474789 -0.23155707 0.74260187
0.13713062 -0.23116305 0.74133825
0.13950527 -0.23077038 0.74007899
0.14187184 -0.23037905 0.73882395
0.14423041 -0.22998904 0.73757321
0.14675584 -0.22987419 0.73720491
0.14958008 -0.23022324 0.73832428
0.15241289 -0.23057334 0.73944706
0.15525432 -0.2309245 0.74057323
0.15810443 -0.23127674 0.74170285
0.16096325 -0.23163006 0.74283594
0.16383083 -0.23198445 0.74397248
0.16670719 -0.23233995 0.74511254
0.16959238 -0.23269653 0.74625611
0.17248642 -0.23305418 0.74740309
0.17538939 -0.23341295 0.74855369
0.17830133 -0.23377286 0.74970788
0.18122223 -0.23413382 0.75086552
0.18451513 -0.23495813 0.75350904
0.19045691 -0.2390842 0.76674134
0.19661148 -0.24335825 0.7804482
0.082018264 -0.2609672 0.84648478
0.084246859 -0.25865263 0.8389771
0.086436272 -0.25637877 0.8316015
0.088587523 -0.25414452 0.82435441
0.090701602 -0.25194889 0.81723255
0.092779465 -0.24979086 0.8102327
0.094822042 -0.2476695 0.80335176
0.096830204 -0.24558385 0.79658663
0.098804839 -0.24353305 0.78993458
0.10074639 -0.24151531 0.78338975
0.10265571 -0.23952998 0.77695006
0.1045339 -0.23757704 0.7706154
0.10638171 -0.23565568 0.7643832
0.10829638 -0.23397365 0.75892729
0.11077742 -0.23356685 0.75760776
0.11324985 -0.23316146 0.75629282
0.11571372 -0.23275746 0.75498241
0.11816905 -0.23235489 0.75367659
0.12061591 -0.23195367 0.75237519
0.12305431 -0.23155381 0.75107819
0.12548432 -0.23115532 0.7497856
0.12790596 -0.23075819 0.74849749
0.13031933 -0.23036243 0.74721378
0.13272439 -0.229968 0.74593437
0.13512126 -0.22957493 0.74465942
0.13750994 -0.22918324 0.74338889
0.13989048 -0.22879285 0.74212259
0.14226294 -0.22840379 0.74086064
0.14462733 -0.22801606 0.73960298
0.14721172 -0.22798274 0.73949492
0.15004542 -0.22833 0.74062127
0.15288778 -0.22867829 0.74175102
0.15573883 -0.22902769 0.74288434
0.15859859 -0.22937812 0.744021
0.16146711 -0.22972962 0.74516118
0.16434443 -0.2300822 0.74630481
0.16723062 -0.23043591 0.74745208
0.17012569 -0.23079066 0.74860281
0.17302968 -0.23114651 0.74975705
0.17594264 -0.23150349 0.75091493
0.17886463 -0.23186155 0.75207639
0.18179566 -0.23222072 0.75324142
0.18553674 -0.23358943 0.75768101
0.19153003 -0.23771459 0.77106154
0.1977392 -0.24198852 0.78492469
0.082240015 -0.25868225 0.84877342
0.084472619 -0.25638181 0.84122539
0.086665854 -0.2541219 0.83381033
0.08882077 -0.25190151 0.82652491
0.090938337 -0.24971958 0.81936562
0.09301956 -0.24757513 0.81232941
0.095065318 -0.24546717 0.80541289
0.09707655 -0.24339484 0.79861325
0.099054098 -0.24135718 0.7919274
0.10099859 -0.23935281 0.7853508
0.10291056 -0.23738037 0.77887893
0.1047913 -0.23544018 0.77251291
0.10664154 -0.23353146 0.76625013
0.10860305 -0.23195468 0.76107645
0.11109057 -0.23155023 0.75974941
0.11356943 -0.2311472 0.75842702
0.11603968 -0.23074557 0.75710922
0.11850137 -0.23034534 0.75579602
0.12095451 -0.22994649 0.75448734
0.12339917 -0.22954899 0.75318307
0.12583537 -0.22915284 0.75188327
0.12826319 -0.22875805 0.75058788
0.13068265 -0.22836463 0.74929702
0.1330938 -0.22797254 0.74801052
0.13549669 -0.22758181 0.74672848
0.13789135 -0.22719242 0.74545079
0.14027783 -0.22680436 0.74417752
0.14265619 -0.22641762 0.7429086
0.14502645 -0.2260322 0.74164397
0.14767043 -0.22607952 0.74179924
0.15051371 -0.22642496 0.74293268
0.15336566 -0.22677144 0.74406952
0.15622634 -0.22711897 0.74520981
0.15909581 -0.22746757 0.74635363
0.16197412 -0.22781727 0.74750102
0.16486128 -0.22816801 0.74865186
0.16775735 -0.22851984 0.74980628
0.17066237 -0.22887279 0.75096434
0.17357637 -0.2292268 0.75212592
0.17649938 -0.22958191 0.75329107
0.1794315 -0.22993813 0.75445992
0.1823727 -0.23029546 0.75563234
0.18656972 -0.2322055 0.76189941
0.19261532 -0.23632944 0.77543068
0.19887991 -0.24060297 0.78945273
0.084699593 -0.25409877 0.84348571
0.086896673 -0.25185308 0.83603102
0.08905524 -0.24964665 0.8287068
0.091176324 -0.2474786 0.8215099
0.093260884 -0.24534787 0.81443691
0.095309861 -0.24325353 0.80748469
0.097324148 -0.24119462 0.80065012
0.099304624 -0.23917028 0.79393029
0.10125204 -0.23717943 0.78732163
0.10316668 -0.23522004 0.78081739
0.10504996 -0.23329277 0.77441978
0.10690262 -0.23139682 0.76812613
0.10891147 -0.22992422 0.76323777
0.11140549 -0.22952217 0.76190317
0.11389083 -0.22912155 0.76057333
0.11636749 -0.2287223 0.75924802
0.11883554 -0.22832446 0.75792736
0.12129502 -0.22792801 0.75661135
0.12374597 -0.22753291 0.75529981
0.12618841 -0.22713915 0.75399268
0.12862241 -0.22674674 0.75269008
0.13104801 -0.22635566 0.75139189
0.13346526 -0.22596595 0.75009823
0.13587421 -0.22557758 0.74880904
0.13827489 -0.22519054 0.74752426
0.14066735 -0.22480483 0.74624389
0.14305162 -0.22442043 0.74496788
0.14542773 -0.22403733 0.74369615
0.14813203 -0.2241644 0.74411798
0.1509849 -0.22450799 0.74525851
0.15384652 -0.22485261 0.7464025
0.15671693 -0.22519828 0.74754995
0.1595962 -0.22554503 0.74870104
0.16248433 -0.22589284 0.74985558
0.16538139 -0.22624174 0.75101376
0.16828741 -0.22659171 0.75217545
0.17120244 -0.22694276 0.75334078
0.17412651 -0.22729491 0.75450975
0.17705968 -0.22764815 0.75568235
0.18000196 -0.22800249 0.75685859
0.18295345 -0.22835794 0.75803852
0.18761428 -0.23080605 0.76616508
0.19371296 -0.23492849 0.77984959
0.20003387 -0.23920135 0.79403341
0.087128706 -0.24957207 0.83826345
0.089290969 -0.2473799 0.83090037
0.091415554 -0.24522585 0.82366538
0.093503483 -0.24310905 0.81655544
0.095555656 -0.24102844 0.80956709
0.097573012 -0.23898317 0.80269742
0.099556409 -0.2369723 0.79594332
0.10150671 -0.23499499 0.78930193
0.10342409 -0.23304896 0.78276557
0.10530991 -0.23113473 0.77633607
0.10716501 -0.22925173 0.77001143
0.10922162 -0.22788216 0.76541132
0.11172221 -0.22748257 0.7640692
0.11421403 -0.22708438 0.76273173
0.11669715 -0.22668758 0.76139897
0.1191716 -0.22629215 0.7600708
0.12163745 -0.22589812 0.75874734
0.12409471 -0.22550544 0.75742841
0.12654343 -0.22511409 0.75611395
0.12898365 -0.2247241 0.75480402
0.13141543 -0.22433543 0.75349855
0.13383882 -0.22394811 0.75219762
0.13625385 -0.22356214 0.75090122
0.13866057 -0.22317748 0.74960923
0.14105903 -0.22279416 0.74832171
0.14344925 -0.22241214 0.7470386
0.14583129 -0.22203141 0.74575984
0.14859653 -0.22223727 0.74645126
0.15145907 -0.22257897 0.74759895
0.15433042 -0.22292171 0.74875015
0.1572106 -0.22326548 0.74990481
0.16009971 -0.22361036 0.75106317
0.16299777 -0.22395627 0.75222504
0.16590479 -0.22430328 0.75339055
0.16882081 -0.22465132 0.75455958
0.17174594 -0.22500049 0.75573236
0.17468016 -0.22535074 0.75690877
0.17762351 -0.22570205 0.75808877
0.18057609 -0.2260545 0.75927258
0.18353787 -0.22640803 0.76046002
0.18867058 -0.22939084 0.77047873
0.19482321 -0.23351149 0.78431916
0.2012013 -0.23778336 0.79866749
0.089527927 -0.24510105 0.83310544
0.091656052 -0.24296129 0.82583231
0.093747333 -0.24085854 0.818685
0.095802724 -0.23879187 0.81166035
0.097823143 -0.23676036 0.80475521
0.099809483 -0.23476315 0.7979666
0.10176258 -0.23279932 0.79129148
0.10368279 -0.23086701 0.78472352
0.10557115 -0.22896601 0.77826196
0.10742867 -0.22709605 0.7719059
0.10953357 -0.22582847 0.76759738
0.11204074 -0.22543135 0.76624757
0.11453909 -0.22503562 0.76490247
0.1170287 -0.22464129 0.76356214
0.11950959 -0.22424832 0.7622264
0.12198181 -0.22385673 0.76089537
0.12444542 -0.2234665 0.75956899
0.12690045 -0.22307763 0.7582472
0.12934692 -0.22269006 0.75692981
0.1317849 -0.22230382 0.75561702
0.13421446 -0.22191896 0.75430882
0.1366356 -0.2215354 0.75300509
0.13904841 -0.22115318 0.75170594
0.14145289 -0.22077227 0.75041121
0.1438491 -0.22039266 0.74912089
0.14623708 -0.22001433 0.74783498
0.14906393 -0.22029802 0.7487992
0.1519362 -0.22063778 0.7499541
0.15481736 -0.22097862 0.75111258
0.15770742 -0.22132051 0.75227469
0.16060643 -0.22166342 0.75344026
0.16351445 -0.22200742 0.75460953
0.1664315 -0.22235249 0.75578243
0.16935763 -0.22269861 0.7569589
0.17229289 -0.22304584 0.75813913
0.17523733 -0.22339416 0.75932306
0.17819098 -0.22374356 0.76051068
0.18115386 -0.22409403 0.761702
0.18412606 -0.22444563 0.76289707
0.18973885 -0.22795963 0.77484125
0.19594626 -0.23207819 0.78884035
0.20238243 -0.23634872 0.80335599
0.091897808 -0.24068475 0.82801056
0.093992464 -0.23859626 0.8208257
0.096051075 -0.23654369 0.81376439
0.09807457 -0.23452616 0.80682361
0.10006385 -0.23254274 0.80000019
0.10201975 -0.23059258 0.79329121
0.10394277 -0.2286741 0.78669119
0.10583369 -0.22678648 0.78019738
0.10769365 -0.22492976 0.77380985
0.1098473 -0.22376302 0.76979595
0.11236107 -0.22336839 0.76843834
0.114866 -0.22297518 0.76708561
0.11736211 -0.22258332 0.76573753
0.11984949 -0.22219287 0.76439428
0.12232812 -0.22180375 0.76305562
0.12479813 -0.22141603 0.76172179
0.12725948 -0.22102962 0.76039249
0.12971224 -0.22064453 0.75906765
0.13215648 -0.22026078 0.75774747
0.13459222 -0.21987838 0.75643188
0.13701952 -0.21949726 0.75512081
0.13943842 -0.21911751 0.75381434
0.14184895 -0.21873905 0.75251234
0.14425118 -0.21836188 0.7512148
0.14666109 -0.21800973 0.75000334
0.14953429 -0.21834652 0.75116199
0.15241636 -0.21868435 0.75232416
0.15530738 -0.21902324 0.75349003
0.15820736 -0.21936315 0.75465941
0.16111636 -0.21970412 0.75583243
0.16403443 -0.22004619 0.75700921
0.16696157 -0.22038928 0.7581895
0.16989788 -0.22073346 0.75937361
0.17284337 -0.22107871 0.76056135
0.17579807 -0.22142506 0.76175284
0.17876206 -0.22177249 0.7629481
0.18173537 -0.222121 0.76414704
0.18477592 -0.22254033 0.76558965
0.19081928 -0.2265121 0.77925342
0.19708231 -0.23062824 0.79341388
0.20357752 -0.23489714 0.80809987
0.092140853 -0.23839618 0.83020043
0.09423887 -0.23632209 0.82297754
0.096300721 -0.23428385 0.81587946
0.098327294 -0.23228042 0.80890262
0.1003195 -0.23031096 0.80204415
0.10227821 -0.22837463 0.79530096
0.10420407 -0.22647017 0.78866881
0.10609753 -0.22459608 0.7821424
0.10795993 -0.22275276 0.77572316
0.11016282 -0.22168568 0.77200711
0.11268325 -0.22129361 0.77064174
0.11519478 -0.22090295 0.76928127
0.11769745 -0.22051361 0.76792544
0.12019132 -0.22012568 0.7665745
0.12267643 -0.21973911 0.76522827
0.12515283 -0.21935388 0.76388675
0.12762056 -0.21897 0.76254994
0.13007964 -0.21858743 0.76121765
0.13253014 -0.2182062 0.75989002
0.1349721 -0.21782626 0.75856692
0.13740559 -0.21744768 0.75724852
0.13983062 -0.21707039 0.7559346
0.14224726 -0.21669441 0.75462532
0.14465551 -0.21631971 0.75332046
0.1471246 -0.21604785 0.7523737
0.15000762 -0.21638267 0.75353968
0.15289958 -0.21671852 0.7547093
0.15580052 -0.21705543 0.7558825
0.15871049 -0.21739337 0.7570594
0.16162953 -0.21773235 0.75823987
0.16455771 -0.21807243 0.75942415
0.16749504 -0.21841353 0.76061207
0.17044157 -0.21875572 0.76180369
0.17339733 -0.21909896 0.762999
0.17636241 -0.21944331 0.76419818
0.17933683 -0.21978875 0.76540112
0.18232059 -0.22013523 0.76660776
0.18581547 -0.22107971 0.76989686
0.19191211 -0.22504802 0.78371626
0.19823162 -0.22916138 0.79804081
0.094486587 -0.23403601 0.82514083
0.096551657 -0.2320122 0.81800544
0.098581322 -0.23002307 0.81099242
0.10057648 -0.22806777 0.80409861
0.10253799 -0.22614543 0.79732102
0.10446668 -0.22425513 0.79065639
0.1063627 -0.22239473 0.78409719
0.10822752 -0.22056495 0.77764589
0.11048017 -0.2195964 0.77423108
0.11300728 -0.21920688 0.77285779
0.11552544 -0.21881877 0.77148938
0.11803471 -0.21843205 0.77012593
0.12053511 -0.21804667 0.76876718
0.12302671 -0.21766265 0.76741326
0.12550955 -0.21727997 0.76606405
0.12798369 -0.21689866 0.76471967
0.13044913 -0.21651866 0.76337987
0.13290593 -0.21613994 0.76204467
0.13535415 -0.21576256 0.76071411
0.13779384 -0.21538648 0.75938815
0.14022502 -0.21501172 0.75806683
0.14264777 -0.21463825 0.75675011
0.14506213 -0.21426608 0.75543797
0.14759108 -0.21407355 0.75475919
0.15048395 -0.21440634 0.75593251
0.15338585 -0.21474019 0.75710952
0.15629679 -0.21507508 0.75829023
0.15921684 -0.21541101 0.75947464
0.16214599 -0.21574797 0.76066267
0.16508435 -0.21608602 0.76185453
0.16803192 -0.21642512 0.76305008
0.17098875 -0.21676527 0.76424938
0.17395489 -0.21710649 0.76545238
0.17693038 -0.21744879 0.76665926
0.17991529 -0.2177922 0.76787001
0.18290964 -0.21813667 0.76908451
0.18686678 -0.21960256 0.77425277
0.1930175 -0.22356704 0.78823036
0.19939442 -0.22767732 0.80272198
0.096803918 -0.2297287 0.82014263
0.09883666 -0.22775404 0.81309301
0.10083476 -0.22581306 0.80616361
0.10279909 -0.22390486 0.79935127
0.1047305 -0.22202867 0.79265314
0.10662919 -0.22018236 0.78606176
0.10849646 -0.21836628 0.77957827
0.11079935 -0.21749502 0.7764678
0.11333319 -0.21710816 0.7750867
0.11585801 -0.21672264 0.77371037
0.1183739 -0.2163385 0.77233899
0.12088087 -0.21595572 0.77097243
0.12337901 -0.21557431 0.76961076
0.12586831 -0.21519421 0.7682538
0.12834887 -0.21481548 0.76690173
0.13082071 -0.21443807 0.76555431
0.13328385 -0.21406193 0.76421154
0.13573836 -0.21368712 0.76287341
0.13818429 -0.21331362 0.76154
0.14062168 -0.21294141 0.76021117
0.14305057 -0.21257047 0.75888693
0.14547102 -0.21220085 0.75756735
0.14806052 -0.21208668 0.75715977
0.15096332 -0.21241742 0.75834054
0.15387523 -0.21274923 0.75952512
0.15679625 -0.21308208 0.7607134
0.15972641 -0.21341597 0.76190537
0.16266577 -0.2137509 0.7631011
0.16561437 -0.21408686 0.76430053
0.16857226 -0.21442392 0.76550382
0.17153949 -0.21476202 0.76671088
0.17451604 -0.21510117 0.76792163
0.17750204 -0.21544141 0.76913631
0.18049751 -0.21578273 0.77035487
0.18350247 -0.21612513 0.77157724
0.18793005 -0.21810858 0.77865827
0.19413573 -0.22206892 0.79279685
0.20057093 -0.22617573 0.80745834
0.099093333 -0.22547324 0.81520456
0.10109438 -0.22354673 0.80823922
0.10306153 -0.22165288 0.80139196
0.10499562 -0.21979083 0.79465967
0.10689703 -0.21795887 0.78803617
0.10876672 -0.21615665 0.78152019
0.11112039 -0.21538149 0.77871758
0.11366098 -0.21499728 0.77732843
0.1161925 -0.21461439 0.77594411
0.11871504 -0.21423289 0.7745648
0.12122864 -0.21385276 0.77319044
0.12373331 -0.21347396 0.77182084
0.12622914 -0.21309651 0.77045619
0.12871616 -0.21272038 0.76909626
0.1311944 -0.21234557 0.76774114
0.13366392 -0.21197209 0.7663908
0.13612476 -0.21159987 0.76504505
0.13857695 -0.21122895 0.763704
0.14102057 -0.21085933 0.76236761
0.14345565 -0.210491 0.76103592
0.14588225 -0.21012397 0.75970888
0.14853293 -0.21008712 0.75957566
0.15144578 -0.21041581 0.76076406
0.15436774 -0.21074553 0.76195616
0.15729889 -0.2110763 0.76315206
0.16023926 -0.21140811 0.76435173
0.16318889 -0.21174096 0.76555514
0.16614781 -0.21207485 0.76676232
0.16911606 -0.21240978 0.7679733
0.17209375 -0.21274582 0.76918823
0.17508082 -0.21308286 0.77040684
0.17807738 -0.21342099 0.77162933
0.18108349 -0.21376021 0.77285582
0.18409917 -0.21410051 0.77408618
0.18900548 -0.21659753 0.78311419
0.19526696 -0.22055332 0.79741651
0.10135534 -0.22126871 0.81032562
0.1033253 -0.21938933 0.80344301
0.10526209 -0.21754165 0.79667646
0.1071662 -0.21572417 0.79002053
0.10903835 -0.21393599 0.78347188
0.11144328 -0.21325566 0.78098041
0.11399066 -0.21287411 0.7795831
0.11652894 -0.21249394 0.77819085
0.11905816 -0.21211511 0.77680349
0.1215784 -0.21173766 0.7754212
0.12408966 -0.21136151 0.77404368
0.12659204 -0.21098673 0.77267116
0.12908554 -0.21061325 0.77130342
0.13157023 -0.21024111 0.76994056
0.13404617 -0.20987026 0.76858246
0.13651337 -0.2095007 0.76722908
0.13897188 -0.20913243 0.76588041
0.14142174 -0.20876542 0.76453632
0.14386304 -0.20839971 0.76319706
0.14629579 -0.20803529 0.76186246
0.14900839 -0.20807478 0.76200706
0.1519313 -0.20840135 0.76320302
0.15486343 -0.20872898 0.76440287
0.15780479 -0.20905763 0.76560646
0.16075543 -0.20938732 0.76681381
0.16371538 -0.20971803 0.76802498
0.16668469 -0.21004981 0.76923996
0.16966341 -0.21038264 0.77045888
0.1726516 -0.21071652 0.77168161
0.17564927 -0.21105145 0.77290815
0.17865647 -0.21138744 0.77413863
0.1816733 -0.21172452 0.7753731
0.18469976 -0.21206269 0.77661151
0.19009329 -0.21506906 0.78762138
0.19641146 -0.21901998 0.80209035
0.10161766 -0.21897891 0.81242281
0.10359044 -0.21711421 0.80550468
0.1055299 -0.21528101 0.79870343
0.10743675 -0.21347822 0.79201502
0.10931132 -0.21170419 0.78543329
0.11176806 -0.21111745 0.78325641
0.11432226 -0.21073861 0.78185093
0.11686733 -0.21036118 0.78045064
0.11940327 -0.20998508 0.77905524
0.12193017 -0.20961028 0.77766478
0.12444808 -0.20923688 0.77627939
0.12695701 -0.20886478 0.77489889
0.12945707 -0.20849401 0.77352333
0.13194823 -0.20812453 0.77215254
0.1344306 -0.20775639 0.7707867
0.13690419 -0.20738952 0.76942563
0.13936903 -0.2070239 0.76806915
0.14182518 -0.20665957 0.76671743
0.14427273 -0.20629653 0.76537055
0.14671169 -0.20593476 0.76402837
0.1494869 -0.2060495 0.76445407
0.15241997 -0.20637394 0.76565778
0.15536229 -0.2066994 0.76686525
0.15831393 -0.20702592 0.7680766
0.16127491 -0.20735346 0.76929182
0.16424526 -0.20768203 0.77051085
0.16722506 -0.20801166 0.77173376
0.1702143 -0.2083423 0.77296048
0.17321308 -0.20867403 0.7741912
0.17622143 -0.20900682 0.77542585
0.17923936 -0.20934063 0.77666432
