# .PCD v0.7 - Point Cloud Data file format
VERSION 0.7
FIELDS x y z
SIZE 4 4 4
TYPE F F F
COUNT 1 1 1
WIDTH 1211
HEIGHT 1
VIEWPOINT 0 0 0 1 0 0 0
POINTS 1211
DATA ascii
0.068587333 -0.44821027 0.90541303
0.058736496 -0.44290492 0.90110952
0.060376976 -0.43192759 0.87877566
0.064027891 -0.43570197 0.88645476
0.068307459 -0.44320419 0.90171838
0.072737001 -0.4509694 0.91751701
0.051312096 -0.43071061 0.88262671
0.054322924 -0.42992714 0.8810212
0.057322819 -0.4291465 0.87942147
0.060311824 -0.4283686 0.87782735
0.063772678 -0.43085441 0.8829214
0.068029836 -0.43823874 0.89805359
0.072437279 -0.44589168 0.91373628
0.045208178 -0.42869824 0.88489199
0.048237849 -0.42791641 0.88327819
0.051256493 -0.42713743 0.8816703
0.054264165 -0.42636129 0.88006824
0.057260927 -0.42558798 0.87847197
0.06024681 -0.42481726 0.87688112
0.063519172 -0.42604324 0.8794117
0.067754485 -0.43331355 0.89441866
0.072137915 -0.44084284 0.90996009
0.076676838 -0.44864106 0.92605674
0.03648999 -0.43312031 0.90056938
0.039072845 -0.42667544 0.88716882
0.042121518 -0.42589536 0.8855468
0.045159064 -0.42511806 0.88393062
0.048185542 -0.42434365 0.8823204
0.051201012 -0.423572 0.88071597
0.054205537 -0.42280319 0.87911737
0.057199158 -0.42203701 0.87752432
0.060181938 -0.42127359 0.87593693
0.063267849 -0.42127129 0.87593216
0.067482471 -0.42843521 0.89082783
0.071842074 -0.43584189 0.90622824
0.076356292 -0.44351631 0.92218536
0.029826744 -0.42542356 0.89109397
0.032905862 -0.42464229 0.88945752
0.035973687 -0.42386386 0.88782704
0.039030291 -0.42308834 0.88620263
0.042075727 -0.42231563 0.88458407
0.045110058 -0.42154571 0.88297141
0.048133347 -0.4207786 0.88136464
0.05114565 -0.42001426 0.87976366
0.054147031 -0.41925272 0.87816852
0.057137523 -0.41849375 0.87657875
0.060117207 -0.41773751 0.87499475
0.063086145 -0.41698402 0.87341648
0.067211971 -0.42359173 0.88725704
0.071548633 -0.4308818 0.9025268
0.076040059 -0.43844375 0.91836613
0.080690704 -0.44626898 0.93475688
0.026706975 -0.4225986 0.89175802
0.029794112 -0.42182189 0.89011908
0.032869928 -0.4210481 0.88848621
0.035934478 -0.42027718 0.88685942
0.038987823 -0.41950899 0.88523841
0.042030029 -0.41874361 0.88362336
0.045061156 -0.41798106 0.88201421
0.04808126 -0.41722128 0.88041091
0.051090408 -0.41646424 0.87881345
0.054088645 -0.41570985 0.87722158
0.057076018 -0.41495809 0.87563521
0.060052615 -0.41420907 0.87405461
0.063018478 -0.4134627 0.87247968
0.066943668 -0.41878715 0.88371521
0.07125935 -0.42597255 0.89887768
0.075724363 -0.43340114 0.91455334
0.080350228 -0.44110635 0.93081266
0.026677735 -0.41899735 0.8907817
0.029761555 -0.41822815 0.88914639
0.032834072 -0.41746178 0.88751709
0.035895351 -0.41669822 0.88589376
0.038945451 -0.41593742 0.88427633
0.041984435 -0.4151794 0.8826648
0.045012362 -0.41442418 0.88105917
0.048029289 -0.41367161 0.87945926
0.051035281 -0.41292182 0.8778652
0.054030381 -0.41217461 0.87627667
0.057014648 -0.41143003 0.87469369
0.05998816 -0.41068816 0.87311649
0.062950961 -0.40994897 0.87154496
0.066677511 -0.41402081 0.88020164
0.070971251 -0.42109609 0.89524359
0.076679915 -0.43560717 0.92609388
0.080013067 -0.43598959 0.92690688
0.084780708 -0.44385192 0.94362211
0.026648559 -0.41540402 0.88980752
0.029729066 -0.41464224 0.88817579
0.032798301 -0.4138833 0.88655013
0.03585631 -0.41312706 0.88493025
0.038903173 -0.41237363 0.88331634
0.041938938 -0.41162291 0.88170832
0.044963673 -0.41087493 0.88010609
0.047977433 -0.41012967 0.8785097
0.05098027 -0.40938702 0.87691897
0.053972244 -0.408647 0.87533379
0.056953412 -0.40790957 0.8737542
0.059923839 -0.40717483 0.87218034
0.062883593 -0.40644273 0.8706122
0.066413447 -0.40929219 0.87671584
0.070685409 -0.41625851 0.89163786
0.075104937 -0.42346403 0.90707231
0.080328993 -0.4344323 0.93056667
0.084420584 -0.43865597 0.93961388
0.026619447 -0.41181853 0.88883549
0.029696653 -0.41106418 0.88720739
0.032762598 -0.41031256 0.88558513
0.035817355 -0.40956369 0.88396883
0.038860984 -0.40881756 0.88235843
0.041893542 -0.40807411 0.88075387
0.044915088 -0.40733337 0.8791551
0.047925685 -0.40659532 0.87756217
0.050925378 -0.40585983 0.87597471
0.05391423 -0.40512693 0.87439293
0.056892302 -0.40439662 0.87281668
0.05985966 -0.403669 0.87124622
0.062816359 -0.402944 0.86968142
0.066151477 -0.40460092 0.87325758
0.070401862 -0.41145974 0.88806117
0.074798815 -0.41855508 0.90337515
0.080576755 -0.4324834 0.93343687
0.084063299 -0.43350291 0.9356373
0.029664306 -0.40749389 0.88624102
0.032726977 -0.40674958 0.88462228
0.035778485 -0.40600803 0.88300949
0.038818888 -0.40526918 0.88140261
0.041848242 -0.404533 0.87980151
0.044866607 -0.40379947 0.87820619
0.047874045 -0.40306857 0.8766166
0.050870601 -0.4023402 0.87503248
0.053856339 -0.40161443 0.87345403
0.056831323 -0.40089121 0.87188119
0.059795622 -0.40017068 0.87031412
0.062749282 -0.39945272 0.86875266
0.065891564 -0.39994648 0.8698265
0.070120573 -0.40669933 0.88451296
0.074494839 -0.4136841 0.89970386
0.080771014 -0.43022928 0.93568724
0.084022976 -0.42999995 0.93518847
0.088568799 -0.43615958 0.94858479
0.029632028 -0.40393135 0.88527673
0.032691434 -0.40319434 0.88366151
0.035739698 -0.40246007 0.88205224
0.038776878 -0.40172848 0.88044882
0.041803036 -0.40099952 0.87885118
0.044818234 -0.40027317 0.87725931
0.047822513 -0.39954937 0.875673
0.050815936 -0.39882812 0.87409222
0.053798575 -0.39810944 0.87251717
0.056770477 -0.39739335 0.87094772
0.059731714 -0.39667985 0.86938399
0.062682338 -0.39596891 0.86782587
0.065633692 -0.39532849 0.8664223
0.069841526 -0.40197679 0.88099307
0.074193314 -0.40885249 0.8960622
0.080920726 -0.42772382 0.93742156
0.084160417 -0.42740291 0.93671823
0.088191405 -0.43097308 0.94454283
0.029599823 -0.40037656 0.88431454
0.032655969 -0.39964688 0.88270289
0.035700995 -0.39891982 0.88109708
0.038734965 -0.39819545 0.87949711
0.04175793 -0.39747363 0.87790287
0.044769961 -0.39675447 0.87631446
0.047771089 -0.39603773 0.87473136
0.05076139 -0.39532357 0.87315398
0.053740934 -0.39461198 0.87158233
0.056709763 -0.39390296 0.87001628
0.059667949 -0.39319649 0.86845589
0.062615536 -0.3924925 0.86690098
0.065552592 -0.39179108 0.86535174
0.069564693 -0.39729169 0.87750101
0.073894218 -0.40405986 0.89244992
0.078374289 -0.41106516 0.90792257
0.084255449 -0.42458141 0.93777597
0.087817214 -0.42583063 0.94053519
0.029567687 -0.39682949 0.88335449
0.032620579 -0.39610705 0.88174629
0.035662379 -0.39538723 0.880144
0.038693137 -0.39467001 0.87854743
0.041712925 -0.39395538 0.87695664
0.044721786 -0.39324331 0.87537152
0.047719773 -0.39253363 0.87379175
0.050706964 -0.39182654 0.87221777
0.053683415 -0.39112204 0.87064952
0.056649178 -0.39042002 0.8690868
0.059604313 -0.3897205 0.86752969
0.062548876 -0.38902351 0.86597812
0.065482929 -0.388329 0.86443216
0.069290042 -0.3926436 0.87403655
0.073597528 -0.39930576 0.88886672
0.078055762 -0.40620854 0.90423256
0.084303357 -0.42151678 0.93830913
0.087494999 -0.42096651 0.9370842
0.092395939 -0.42838117 0.9535895
0.02953562 -0.3932901 0.88239646
0.032585267 -0.39257488 0.88079178
0.035623841 -0.39186224 0.87919289
0.038651403 -0.39115217 0.87759978
0.041668016 -0.39044476 0.87601256
0.044673715 -0.38973963 0.87443054
0.047668569 -0.38903704 0.87285417
0.050652657 -0.38833702 0.87128359
0.05362602 -0.38763952 0.86971867
0.056588721 -0.3869445 0.86815929
0.059540819 -0.38625199 0.86660552
0.062482361 -0.38556188 0.86505723
0.065413415 -0.38487431 0.86351454
0.069017559 -0.38803205 0.87059933
0.073303215 -0.39458963 0.88531214
0.077736393 -0.40137362 0.90053284
0.084292881 -0.4181588 0.93819255
0.087453686 -0.41746759 0.93664175
0.092000164 -0.42320076 0.94950485
0.029503625 -0.38975841 0.88144058
0.032550029 -0.38905036 0.8798393
0.035585389 -0.38834488 0.87824386
0.038609758 -0.387642 0.87665427
0.04162319 -0.38694152 0.87507015
0.044625744 -0.38624349 0.87349159
0.047617476 -0.38554797 0.87191862
0.050598465 -0.38485497 0.87035143
0.053568751 -0.38416448 0.86878985
0.056528393 -0.38347641 0.86723375
0.059477456 -0.3827908 0.86568332
0.062415987 -0.38210765 0.86413831
0.065344058 -0.38142693 0.8625989
0.0687472 -0.38345662 0.86718905
0.073011242 -0.38991109 0.88178587
0.077420548 -0.39658281 0.89687401
0.08198452 -0.40349245 0.91250014
0.087300934 -0.41344404 0.93500572
0.091607764 -0.41806453 0.94545501
0.029471697 -0.38623434 0.88048673
0.03251487 -0.38553345 0.87888891
0.035547018 -0.38483512 0.87729692
0.038568206 -0.38413933 0.87571079
0.041578464 -0.38344583 0.87412983
0.044577878 -0.38275486 0.87255466
0.047566496 -0.38206637 0.87098509
0.050544385 -0.38138038 0.86942124
0.053511597 -0.3806968 0.86786294
0.056468192 -0.38001567 0.86631018
0.059414227 -0.37933698 0.86476302
0.062349759 -0.37866071 0.86322135
0.065274842 -0.37798688 0.86168522
0.068478964 -0.37891692 0.86380541
0.072721586 -0.38526967 0.87828755
0.077108547 -0.3918373 0.89325958
0.081647277 -0.39863083 0.9087466
0.086349584 -0.40568012 0.92481667
0.091215618 -0.41295797 0.94140774
0.096263677 -0.42052028 0.95864731
0.032479785 -0.38202414 0.87794054
0.035508737 -0.38133296 0.87635213
0.038526729 -0.38064408 0.87476903
0.041533835 -0.37995768 0.87319154
0.044530112 -0.37927371 0.87161976
0.04751562 -0.37859219 0.87005353
0.050490424 -0.37791318 0.86849302
0.053454567 -0.37723652 0.86693799
0.056408122 -0.37656233 0.86538863
0.059351139 -0.37589052 0.86384475
0.062283665 -0.3752211 0.8623063
0.065205775 -0.3745541 0.86077344
0.0682128 -0.37441248 0.860448
0.072434217 -0.38066491 0.87481689
0.076798916 -0.38712925 0.88967276
0.081313759 -0.3938137 0.90503448
0.085990481 -0.4007481 0.92097062
0.090830334 -0.40791079 0.9374314
0.095849156 -0.41534635 0.95451927
0.032444779 -0.37852243 0.87699437
0.03547053 -0.37783828 0.87540925
0.038485344 -0.37715638 0.87382936
0.041489299 -0.37647697 0.87225527
0.044482451 -0.37580001 0.87068683
0.047464855 -0.37512547 0.869124
0.050436575 -0.37445337 0.86756676
0.053397663 -0.37378362 0.86601508
0.056348175 -0.37311628 0.86446893
0.059288178 -0.37245136 0.86292839
0.062217712 -0.37178877 0.86139321
0.06513685 -0.37112856 0.85986358
0.068045639 -0.3704707 0.85833937
0.072149105 -0.3760964 0.87137353
0.07649111 -0.38245556 0.88610697
0.080982737 -0.38903472 0.90135014
0.08563488 -0.39585936 0.91716206
0.090447247 -0.40290138 0.93347764
0.095435731 -0.4102062 0.95040214
0.032409847 -0.37502822 0.87605011
0.035432402 -0.37435102 0.87446821
0.03844405 -0.37367615 0.87289172
0.04144486 -0.37300372 0.87132096
0.044434894 -0.37233377 0.86975592
0.047414199 -0.37166613 0.86819637
0.050382841 -0.37100092 0.86664248
0.053340875 -0.37033808 0.86509413
0.056288358 -0.3696776 0.86355126
0.059225354 -0.36901951 0.862014
0.062151898 -0.36836371 0.86048204
0.065068066 -0.36771026 0.85895562
0.067973912 -0.36705914 0.85743463
0.071866237 -0.37156376 0.86795723
0.076186202 -0.37782139 0.8825748
0.080654405 -0.38429451 0.89769578
0.085280776 -0.39100432 0.9133696
0.09006609 -0.39792836 0.92954385
0.095028698 -0.40512234 0.94634867
0.10017266 -0.41257551 0.96375901
0.032374989 -0.37154153 0.87510788
0.035394352 -0.37087125 0.87352914
0.03840284 -0.37020338 0.87195605
0.041400515 -0.36953792 0.87038869
0.044387434 -0.36887488 0.86882699
0.047363646 -0.36821416 0.86727077
0.050329223 -0.36755586 0.86572021
0.053284209 -0.36689985 0.86417508
0.056228671 -0.36624619 0.86263555
0.059162661 -0.36559489 0.86110151
0.062086228 -0.36494589 0.85957283
0.064999439 -0.36429918 0.85804963
0.067902334 -0.36365473 0.85653174
0.071585581 -0.36706647 0.86456758
0.075883731 -0.37322408 0.87907082
0.080328725 -0.3795926 0.89407086
0.084930249 -0.38619226 0.90961534
0.089692153 -0.3930147 0.92568457
0.094624095 -0.40007731 0.94231945
0.09973827 -0.40740547 0.95957977
0.032340199 -0.36806223 0.87416744
0.035356387 -0.36739898 0.87259215
0.038361721 -0.36673805 0.8710224
0.041356266 -0.36607954 0.86945844
0.044340078 -0.36542341 0.86790007
0.047313206 -0.36476955 0.86634713
0.050275717 -0.36411807 0.86479986
0.053227663 -0.36346889 0.863258
0.056169108 -0.36282206 0.86172175
0.059100099 -0.36217752 0.86019093
0.062020689 -0.36153525 0.85866547
0.064930953 -0.36089528 0.85714555
0.067830913 -0.36025754 0.85563082
0.0713071 -0.36260417 0.86120427
0.075583644 -0.36866307 0.87559444
0.080005661 -0.3749285 0.89047515
0.084582575 -0.38141954 0.90589172
0.089318983 -0.38813159 0.92183322
0.094222918 -0.39507502 0.93832427
0.099307701 -0.40228033 0.95543724
0.02624673 -0.36591029 0.87639028
0.029281581 -0.36524919 0.87480688
0.03230549 -0.36459053 0.87322927
0.035318505 -0.36393416 0.87165725
0.038320694 -0.36328018 0.8700909
0.041312113 -0.36262855 0.86853015
0.044292822 -0.36197928 0.86697507
0.04726287 -0.36133227 0.86542547
0.050222326 -0.36068761 0.86388147
0.05317124 -0.36004525 0.86234289
0.056109671 -0.35940519 0.86080992
0.059037674 -0.35876742 0.85928237
0.061955296 -0.35813183 0.85776007
0.064862601 -0.35749856 0.85624331
0.067759641 -0.35686746 0.8547318
0.071030781 -0.3581765 0.85786706
0.075285926 -0.36413804 0.87214553
0.079685181 -0.37030172 0.88690817
0.084237739 -0.37668574 0.90219849
0.088948198 -0.38328585 0.91800642
0.093825132 -0.39011502 0.93436289
0.098880827 -0.39719924 0.9513303
0.017057424 -0.36440864 0.88022166
0.020122197 -0.36374739 0.87862444
0.023175865 -0.36308855 0.87703305
0.026218494 -0.36243212 0.87544745
0.029250136 -0.36177799 0.87386739
0.032270852 -0.36112621 0.87229306
0.035280708 -0.36047682 0.87072444
0.038279757 -0.35982972 0.86916143
0.041268062 -0.35918498 0.86760402
0.044245671 -0.3585425 0.86605215
0.047212649 -0.35790232 0.86450583
0.050169051 -0.35726446 0.86296505
0.053114936 -0.35662884 0.86142975
0.05605036 -0.35599554 0.8599
0.058975376 -0.35536444 0.85837561
0.061890036 -0.35473558 0.85685658
0.064794406 -0.35410896 0.85534298
0.067688525 -0.35348451 0.85383469
0.070756592 -0.35378298 0.85455561
0.074990533 -0.3596485 0.86872363
0.079367265 -0.36571193 0.88336974
0.08389549 -0.37198943 0.89853293
0.088581912 -0.37848637 0.91422611
0.093429707 -0.38519266 0.93042505
0.09845762 -0.3921617 0.94725865
0.010882517 -0.36223236 0.88247538
0.013966355 -0.36157343 0.88087004
0.017038994 -0.36091685 0.87927049
0.020100491 -0.36026266 0.87767673
0.023150913 -0.35961086 0.8760888
0.026190313 -0.35896134 0.87450647
0.029218754 -0.35831419 0.87292987
0.032236293 -0.35766935 0.87135887
0.035242993 -0.35702685 0.86979359
0.038238909 -0.35638663 0.86823392
0.041224103 -0.35574874 0.86667985
0.044198625 -0.35511309 0.86513132
0.047162537 -0.35447973 0.86358827
0.050115895 -0.35384861 0.86205071
0.053058758 -0.35321975 0.86051869
0.055991177 -0.35259309 0.85899204
0.05891322 -0.35196871 0.85747093
0.061824922 -0.35134649 0.85595506
0.064726345 -0.35072649 0.85444456
0.06761755 -0.35010865 0.85293943
0.070498593 -0.34949303 0.8514396
0.074697465 -0.35519406 0.86532855
0.079051875 -0.36115855 0.87985933
0.083555378 -0.36732838 0.89489031
0.088216975 -0.37371919 0.9104597
0.093041003 -0.3803255 0.92655408
0.09803801 -0.38716704 0.94322157
0.10321976 -0.39426565 0.96051526
0.0015614893 -0.360704 0.88636023
0.0046759085 -0.36004496 0.88474071
0.0077789673 -0.35938829 0.88312709
0.010870729 -0.35873404 0.88151938
0.013951252 -0.35808215 0.8799175
0.017020602 -0.35743263 0.87832141
0.020078834 -0.35678545 0.8767311
0.023126014 -0.35614058 0.87514651
0.026162194 -0.35549805 0.87356758
0.029187439 -0.3548578 0.87199432
0.032201808 -0.35421988 0.87042671
0.035205357 -0.35358426 0.86886477
0.038198151 -0.3529509 0.86730844
0.041180238 -0.35231981 0.86575764
0.044151682 -0.35169098 0.86421245
0.047112539 -0.35106441 0.86267275
0.050062861 -0.35044003 0.86113846
0.053002708 -0.34981787 0.8596096
0.055932134 -0.34919792 0.85808623
0.058851197 -0.34858018 0.85656822
0.061759949 -0.34796458 0.85505557
0.064658448 -0.34735119 0.85354823
0.067579389 -0.34690753 0.852458
0.070532382 -0.34665912 0.85184765
0.074406661 -0.35077426 0.86195976
0.07873898 -0.35664126 0.87637681
0.083218545 -0.36270723 0.89128274
0.087855525 -0.36899322 0.90672934
0.092653535 -0.37549067 0.92269552
0.09762197 -0.38221481 0.93921888
0.10277373 -0.38919234 0.95636475
-0.0046965461 -0.35850301 0.88864559
-0.0015626475 -0.35784629 0.88701773
0.0015597902 -0.35719195 0.88539577
0.00467083 -0.35654002 0.88377976
0.0077705346 -0.35589048 0.88216972
0.010858965 -0.35524327 0.88056546
0.013936182 -0.3545984 0.87896699
0.017002249 -0.35395589 0.87737435
0.020057224 -0.35331571 0.87578744
0.023101164 -0.35267779 0.87420619
0.026134135 -0.35204217 0.87263066
0.029156191 -0.35140884 0.87106079
0.032167397 -0.35077783 0.86949664
0.03516781 -0.35014904 0.86793804
0.038157478 -0.3495225 0.86638498
0.04113647 -0.3488982 0.86483747
0.044104837 -0.34827611 0.8632955
0.047062639 -0.34765625 0.86175901
0.050009932 -0.3470386 0.860228
0.052946769 -0.34642315 0.85870242
0.055873208 -0.34580985 0.8571822
0.058792498 -0.34521747 0.85571384
0.061763067 -0.34496933 0.85509872
0.064729378 -0.34472156 0.85448456
0.067691423 -0.34447414 0.85387129
0.070649214 -0.34422702 0.85325873
0.074118122 -0.34638879 0.85861725
0.078428552 -0.35215956 0.87292165
0.082885042 -0.35812595 0.88771093
0.087497018 -0.36430576 0.90302926
0.092269287 -0.37069589 0.9188689
0.097209431 -0.3773044 0.93524987
0.10233154 -0.38416266 0.95224988
-0.001560946 -0.35433474 0.88605183
0.0015580949 -0.35368752 0.88443345
0.0046657627 -0.35304269 0.88282096
0.0077621192 -0.35240021 0.88121438
0.010847227 -0.35176006 0.87961358
0.013921144 -0.3511222 0.87801856
0.016983936 -0.35048667 0.87642932
0.02003566 -0.34985343 0.87484586
0.023076372 -0.34922245 0.87326801
0.026106138 -0.34859371 0.87169582
0.029125014 -0.3479673 0.87012935
0.032133061 -0.34734309 0.86856848
0.035130333 -0.34672111 0.86701316
0.038116891 -0.34610137 0.86546344
0.041092791 -0.34548384 0.8639192
0.044058092 -0.34486851 0.8623805
0.047012843 -0.34425533 0.86084723
0.049957115 -0.34364441 0.85931951
0.052926566 -0.34326661 0.85837477
0.055910595 -0.34301907 0.85775578
0.058890332 -0.34277192 0.8571378
0.061865777 -0.34252515 0.85652071
0.064836934 -0.34227872 0.85590446
0.067803822 -0.34203261 0.8552891
0.070766449 -0.34178686 0.85467458
0.073831812 -0.34203714 0.85530043
0.078120567 -0.34771311 0.86949378
0.082554057 -0.35358059 0.884166
0.087141424 -0.35965642 0.89935929
0.09188693 -0.36593568 0.91506124
0.096800804 -0.372437 0.93131846
0.10189313 -0.37917608 0.9481703
-0.0015592481 -0.35083079 0.88508803
0.0015564031 -0.3501907 0.88347316
0.004660706 -0.34955296 0.88186425
0.0077537224 -0.34891748 0.88026106
0.010835513 -0.34828433 0.87866372
0.01390614 -0.34765351 0.87707222
0.016965663 -0.34702492 0.87548637
0.020014139 -0.34639856 0.8739062
0.023051633 -0.34577447 0.87233174
0.0260782 -0.34515265 0.87076294
0.029093901 -0.34453306 0.86919981
0.032098792 -0.34391564 0.86764222
0.035092939 -0.34330046 0.86609024
0.03807639 -0.34268749 0.8645438
0.041049205 -0.34207672 0.8630029
0.044022094 -0.34155074 0.86167592
0.047024041 -0.34130353 0.86105227
0.050021648 -0.34105667 0.86042953
0.053014915 -0.34081018 0.85980761
0.056003865 -0.34056404 0.85918671
0.058988493 -0.34031823 0.85856652
0.061968826 -0.34007281 0.85794741
0.064944856 -0.33982775 0.85732913
0.067916602 -0.33958301 0.85671169
0.070884071 -0.33933863 0.85609519
0.073847272 -0.33909461 0.85547954
0.077814981 -0.34330139 0.86609256
0.08222571 -0.34907138 0.88064933
0.086788714 -0.35504472 0.89571905
0.091509826 -0.36122298 0.91130579
0.096396141 -0.36761239 0.92742521
0.10145847 -0.37423205 0.94412547
-0.0015575539 -0.3473345 0.88412637
0.0015547152 -0.34670147 0.88251501
0.0046556606 -0.34607077 0.88090956
0.0077453433 -0.34544232 0.87930983
0.010823825 -0.34481615 0.87771595
0.013891166 -0.34419224 0.87612778
0.016947426 -0.34357056 0.87454534
0.019992664 -0.34295109 0.87296855
0.023026943 -0.34233388 0.87139744
0.02605032 -0.34171891 0.86983204
0.029062854 -0.34110612 0.86827224
0.032064602 -0.34049553 0.86671799
0.035055622 -0.33988711 0.86516929
0.038068917 -0.33957475 0.86437416
0.041084576 -0.33932817 0.86374652
0.044095866 -0.339082 0.8631199
0.047102783 -0.33883616 0.86249411
0.050105348 -0.33859068 0.86186928
0.053103562 -0.33834556 0.86124533
0.056097437 -0.33810076 0.86062223
0.05908699 -0.33785638 0.86000013
0.062072221 -0.33761233 0.85937893
0.065053135 -0.33736861 0.85875851
0.068029761 -0.33712527 0.8581391
0.071002081 -0.33688223 0.85752046
0.073970132 -0.33663958 0.85690284
0.077511787 -0.33892411 0.86271799
0.081899956 -0.34459794 0.87716049
0.086438842 -0.35047022 0.89210814
0.091134526 -0.35654384 0.90756834
0.095994323 -0.36282599 0.92355931
0.10102749 -0.36933002 0.94011503
-0.0015558634 -0.34384581 0.88316679
0.0015530309 -0.34321982 0.88155895
0.0046506259 -0.34259611 0.8799569
0.0077369828 -0.34197465 0.87836069
0.010812161 -0.34135538 0.87677014
0.013876224 -0.34073839 0.87518537
0.01692923 -0.34012362 0.87360632
0.019971238 -0.33951104 0.87203294
0.023002308 -0.33890069 0.87046522
0.026022501 -0.33829251 0.86890316
0.029044427 -0.33783254 0.86772174
0.032078341 -0.33758634 0.86708933
0.035107829 -0.33734044 0.86645776
0.03813291 -0.33709493 0.86582714
0.041153595 -0.33684981 0.86519754
0.04416988 -0.33660495 0.86456865
0.047181793 -0.33636051 0.86394083
0.050189324 -0.3361164 0.86331379
0.053192507 -0.33587268 0.86268783
0.056191329 -0.33562928 0.86206269
0.059185807 -0.33538625 0.86143839
0.062175956 -0.33514357 0.86081511
0.065161772 -0.33490121 0.8601926
0.068143286 -0.33465925 0.85957116
0.071120493 -0.33441764 0.85895056
0.074093394 -0.33417633 0.85833073
0.07721094 -0.33458075 0.85936952
0.081576779 -0.34015977 0.87369919
0.086091779 -0.34593239 0.8885262
0.090762295 -0.35190293 0.90386146
0.095595852 -0.35807937 0.91972566
0.10060017 -0.36446947 0.93613857
0.10578892 -0.37110081 0.95317119
-0.0015541766 -0.34036466 0.8822093
0.0015513502 -0.3397457 0.88060492
0.0046456018 -0.33912894 0.87900633
0.0077286391 -0.33851439 0.87741345
0.010800523 -0.33790207 0.87582636
0.013861313 -0.33729199 0.87424499
0.016911071 -0.33668405 0.87266928
0.019949855 -0.33607835 0.87109929
0.023002118 -0.33583093 0.87045801
0.026050007 -0.33558539 0.86982161
0.029093442 -0.3353402 0.8691861
0.032132432 -0.33509535 0.86855143
0.03516699 -0.33485091 0.86791784
0.038197119 -0.33460674 0.86728501
0.041222837 -0.33436301 0.86665326
0.044244152 -0.33411962 0.86602241
0.047261063 -0.33387652 0.86539233
0.050273594 -0.33363384 0.86476332
0.053281743 -0.33339149 0.86413509
0.056285534 -0.33314952 0.86350793
0.059284963 -0.33290786 0.8628816
0.06228004 -0.33266655 0.86225611
0.065270782 -0.33242562 0.86163163
0.068257198 -0.332185 0.86100799
0.071239293 -0.33194476 0.8603853
0.074217066 -0.33170485 0.85976344
0.077190556 -0.33146533 0.8591426
0.081256144 -0.33575654 0.87026519
0.085747495 -0.34143093 0.88497299
0.090393096 -0.34729981 0.90018481
0.095200665 -0.35337198 0.9159236
0.10017731 -0.35965297 0.93220365
0.10533526 -0.36616543 0.94908363
-0.0015524935 -0.33689108 0.8812539
0.0015496732 -0.33627906 0.87965298
0.0046405885 -0.33566922 0.87805772
0.007720314 -0.33506161 0.8764683
0.010788911 -0.33445624 0.87488472
0.0138551 -0.33406183 0.87385303
0.016921582 -0.33381665 0.87321162
0.019983564 -0.33357179 0.87257111
0.023041056 -0.33332729 0.87193155
0.02609407 -0.33308312 0.87129289
0.02914262 -0.3328394 0.8706553
0.032186709 -0.332596 0.8700186
0.035226345 -0.33235291 0.86938274
0.038261544 -0.33211023 0.86874789
0.041292313 -0.33186784 0.86811388
0.044318665 -0.33162588 0.86748093
0.047340605 -0.33138424 0.86684883
0.050358143 -0.33114293 0.86621761
0.053371288 -0.33090198 0.86558735
0.056380056 -0.33066142 0.86495805
0.059384447 -0.33042115 0.86432958
0.062384479 -0.33018127 0.86370206
0.065380156 -0.32994172 0.86307544
0.06837149 -0.32970253 0.86244977
0.071358487 -0.32946363 0.86182487
0.074341163 -0.32922515 0.86120105
0.077319518 -0.32898697 0.860578
0.080938011 -0.33138773 0.86685795
0.085405961 -0.33696532 0.88144809
0.090026885 -0.34273392 0.89653784
0.094807461 -0.34869862 0.91214055
0.099757589 -0.35487536 0.92829794
0.10488549 -0.36127225 0.94503117
-0.0015508141 -0.33342505 0.88030064
0.0015479997 -0.33281994 0.87870306
0.0046364493 -0.33227885 0.87727451
0.0077217217 -0.33203402 0.8766281
0.010802452 -0.33178958 0.8759827
0.013878645 -0.33154541 0.87533808
0.016950317 -0.33130166 0.87469453
0.020017475 -0.33105823 0.87405187
0.023080127 -0.33081517 0.87341011
0.026138289 -0.33057249 0.87276936
0.029191963 -0.33033013 0.8721295
0.032241166 -0.33008814 0.8714906
0.035285905 -0.32984653 0.87085271
0.038326185 -0.32960519 0.87021559
0.041362029 -0.3293643 0.86957955
0.044393431 -0.32912371 0.86894435
0.047420412 -0.3288835 0.86831015
0.050442975 -0.32864362 0.86767685
0.053461131 -0.3284041 0.86704445
0.056474894 -0.32816494 0.866413
0.059484262 -0.32792607 0.86578238
0.062489267 -0.32768762 0.86515284
0.065489896 -0.3274495 0.86452413
0.068486162 -0.32721168 0.86389625
0.071478091 -0.32697424 0.86326939
0.07446567 -0.32673714 0.86264336
0.077448927 -0.32650036 0.86201829
0.080622375 -0.32705304 0.86347741
0.085066766 -0.33253372 0.87794739
0.08966364 -0.33820495 0.89292043
0.094419613 -0.34407148 0.90840906
0.099341378 -0.35013765 0.92442483
0.10443953 -0.35642061 0.94101298
-0.0015504106 -0.33023745 0.88007158
0.0015492644 -0.32999331 0.87942094
0.0046443599 -0.32974958 0.87877136
0.0077348864 -0.32950616 0.87812269
0.010820854 -0.32926312 0.87747496
0.013902272 -0.32902044 0.87682825
0.01697915 -0.32877812 0.87618244
0.020051502 -0.32853615 0.87553763
0.023119332 -0.32829452 0.87489372
0.026182655 -0.32805327 0.87425077
0.029241478 -0.32781237 0.87360877
0.032295812 -0.32757178 0.87296766
0.035345666 -0.3273316 0.87232757
0.03839105 -0.32709175 0.87168837
0.041431975 -0.32685223 0.87105006
0.044468451 -0.32661313 0.87041283
0.047500491 -0.32637435 0.86977649
0.050528094 -0.32613587 0.86914098
0.053551279 -0.32589778 0.86850649
0.056570049 -0.32566002 0.86787283
0.059584424 -0.32542261 0.86724019
0.062594399 -0.32518554 0.86660838
0.0656 -0.32494885 0.86597759
0.068601221 -0.32471246 0.86534762
0.071598083 -0.32447642 0.86471862
0.074590594 -0.32424074 0.8640905
0.077578761 -0.3240054 0.86346334
0.080562584 -0.3237704 0.86283708
0.084730625 -0.32813862 0.87447822
0.0893033 -0.33371234 0.889332
0.094033599 -0.33947724 0.90469527
0.098928615 -0.34543926 0.92058384
0.10399736 -0.35161012 0.937029
0.0015519141 -0.32745388 0.88092506
0.0046522971 -0.32721156 0.88027316
0.0077480958 -0.32696965 0.87962234
0.010839321 -0.32672808 0.87897247
0.013925979 -0.32648683 0.87832344
0.017008083 -0.32624596 0.87767547
0.020085642 -0.32600543 0.87702835
0.023158669 -0.32576528 0.87638235
0.026227172 -0.32552549 0.87573725
0.029291159 -0.32528603 0.87509298
0.032350641 -0.32504693 0.87444979
0.035405632 -0.32480818 0.87380749
0.038456131 -0.32456976 0.87316608
0.041502163 -0.3243317 0.87252569
0.044543725 -0.324094 0.87188619
0.047580834 -0.32385665 0.87124765
0.050613504 -0.32361966 0.87061012
0.053641729 -0.323383 0.86997342
0.056665532 -0.32314667 0.86933768
0.059684914 -0.3229107 0.86870283
0.062699899 -0.32267508 0.86806899
0.065710478 -0.32243979 0.86743599
0.068716675 -0.32220486 0.86680394
0.071718492 -0.32197025 0.86617279
0.074715942 -0.32173601 0.86554265
0.077709027 -0.32150206 0.86491328
0.080697775 -0.3212685 0.86428493
0.084397294 -0.32377869 0.87103796
0.088945851 -0.3292557 0.88577229
0.093650743 -0.33492044 0.90101177
0.098519281 -0.34077981 0.91677481
0.10355968 -0.34684274 0.93308544
0.001554573 -0.32490572 0.88243425
0.0046602623 -0.32466495 0.88178027
0.0077613504 -0.32442445 0.88112706
0.010857849 -0.32418436 0.88047498
0.013949767 -0.3239446 0.8798238
0.017037114 -0.3237052 0.87917358
0.020119902 -0.32346612 0.8785243
0.023198141 -0.32322741 0.87787598
0.026271839 -0.32298908 0.87722868
0.029341009 -0.3227511 0.87658232
0.032405656 -0.32251346 0.87593687
0.035465799 -0.32227618 0.87529242
0.038521439 -0.32203925 0.87464893
0.041572586 -0.32180262 0.87400627
0.044619258 -0.32156637 0.87336463
0.047661453 -0.32133046 0.87272388
0.050699197 -0.3210949 0.87208414
0.053732481 -0.32085967 0.87144524
0.056761332 -0.32062483 0.87080741
0.05978575 -0.32039031 0.87017047
0.062805749 -0.32015613 0.86953443
0.065821335 -0.3199223 0.86889935
0.068832509 -0.31968877 0.86826515
0.071839303 -0.31945562 0.86763191
0.074841708 -0.31922278 0.86699951
0.077839747 -0.31899032 0.86636817
0.080833413 -0.31875816 0.86573762
0.084066585 -0.319453 0.86762482
0.088591255 -0.32483461 0.88224107
0.093270995 -0.33040065 0.89735824
0.098113313 -0.33615875 0.91299707
0.10312538 -0.34211436 0.92917234
0.10831908 -0.34828752 0.94593847
0.0046682535 -0.32210949 0.88329232
0.0077746506 -0.32187054 0.88263702
0.010876441 -0.32163191 0.88198262
0.013973636 -0.32139364 0.88132924
0.017066246 -0.32115573 0.88067687
0.020154279 -0.32091814 0.88002533
0.023237748 -0.32068092 0.87937486
0.026316661 -0.32044405 0.87872529
0.029391028 -0.32020751 0.87807667
0.032460861 -0.31997135 0.87742907
0.035526168 -0.31973553 0.87678236
0.038586963 -0.31950006 0.87613666
0.041643254 -0.31926495 0.87549192
0.044695042 -0.31903014 0.87484801
0.047742352 -0.31879571 0.87420517
0.05078518 -0.31856158 0.87356317
0.053823549 -0.31832784 0.87292224
0.056857456 -0.3180944 0.87228209
0.059886921 -0.31786135 0.87164301
0.06291195 -0.31762862 0.87100476
0.065932557 -0.31739625 0.87036759
0.068948738 -0.31716421 0.86973125
0.071960516 -0.3169325 0.86909586
0.074967898 -0.31670111 0.86846137
0.077970892 -0.31647009 0.86782783
0.080969505 -0.31623939 0.86719519
0.083963752 -0.31600904 0.86656356
0.088239469 -0.32044858 0.87873775
0.092894301 -0.3259173 0.8937341
0.097710416 -0.33157471 0.90924788
0.10269471 -0.33742547 0.92529196
0.1078581 -0.34348655 0.94191271
0.0046762731 -0.31954533 0.88480973
0.0077879964 -0.31930783 0.88415211
0.010895098 -0.31907073 0.88349551
0.013997586 -0.31883392 0.8828398
0.017095476 -0.3185975 0.88218522
0.020188773 -0.31836143 0.88153154
0.023277489 -0.31812569 0.88087875
0.026361635 -0.31789029 0.88022697
0.029441221 -0.31765527 0.87957621
0.032516256 -0.31742057 0.87892634
0.035586748 -0.31718624 0.87827742
0.038652714 -0.31695226 0.87762958
0.041714154 -0.31671858 0.87698251
0.04477109 -0.31648529 0.87633657
0.047823519 -0.31625229 0.87569141
0.050871462 -0.31601968 0.87504733
0.053914923 -0.3157874 0.87440413
0.056953911 -0.31555545 0.87376189
0.059988439 -0.31532383 0.87312055
0.063018516 -0.31509259 0.87248021
0.066044152 -0.31486166 0.87184078
0.069065362 -0.3146311 0.87120235
0.07208214 -0.31440082 0.87056476
0.075094514 -0.31417093 0.86992818
0.078102484 -0.31394136 0.8692925
0.081106059 -0.31371212 0.86865777
0.084105246 -0.31348321 0.86802387
0.087890469 -0.31609729 0.8752622
0.092520639 -0.32147002 0.8901391
0.097310945 -0.32702857 0.90553057
0.10226762 -0.33277559 0.92144382
0.10740101 -0.33872625 0.93792099
0.0046843202 -0.31697235 0.88633233
0.0078013884 -0.31673637 0.88567251
0.010913817 -0.31650069 0.88501352
0.01402162 -0.31626543 0.88435566
0.017124806 -0.31603053 0.88369876
0.020223383 -0.31579593 0.88304275
0.023317369 -0.31556171 0.88238788
0.026406761 -0.31532779 0.88173378
0.029491583 -0.31509429 0.88108081
0.032571837 -0.31486109 0.88042879
0.035647534 -0.31462821 0.87977761
0.038718686 -0.31439573 0.8791275
0.0417853 -0.31416354 0.87847823
0.044847388 -0.31393173 0.87783003
0.047904961 -0.31370023 0.87718272
0.050958034 -0.31346911 0.87653643
0.05400661 -0.31323835 0.87589115
0.057050694 -0.31300786 0.87524664
0.060090307 -0.31277776 0.87460321
0.063125446 -0.31254795 0.87396061
0.066156141 -0.3123185 0.87331909
0.069182374 -0.31208938 0.8726784
0.072204188 -0.31186062 0.87203872
0.075221553 -0.31163216 0.87139988
0.078234524 -0.31140408 0.87076211
0.081258498 -0.3112354 0.8702904
0.084372498 -0.31141123 0.87078208
0.08754421 -0.31178027 0.87181401
0.092149988 -0.31705844 0.88657308
0.096914388 -0.32251838 0.90184039
0.10184407 -0.32816422 0.91762757
0.10694846 -0.33400825 0.9339689
0.0078148264 -0.314156 0.88719803
0.010932604 -0.3139219 0.8865369
0.014045736 -0.3136881 0.88587666
0.017154237 -0.31345469 0.88521749
0.020258116 -0.31322163 0.88455933
0.02335738 -0.31298888 0.88390201
0.026452046 -0.31275654 0.88324583
0.029542116 -0.3125245 0.88259053
0.032627609 -0.31229281 0.88193625
0.035708528 -0.31206149 0.88128299
0.038784884 -0.31183046 0.88063055
0.041856691 -0.31159979 0.87997913
0.044923954 -0.31136948 0.87932867
0.04798669 -0.31113949 0.87867922
0.051044896 -0.31090984 0.8780306
0.054098602 -0.31068054 0.87738311
0.057147797 -0.31045154 0.8767364
0.060192514 -0.31022295 0.87609082
0.063232742 -0.30999464 0.87544608
0.066268496 -0.30976671 0.87480235
0.069299787 -0.30953905 0.87415946
0.072326638 -0.30931178 0.87351763
0.075435899 -0.30944115 0.87388295
0.078559473 -0.30961674 0.87437886
0.081686586 -0.30979252 0.87487525
0.084817253 -0.3099685 0.87537223
0.087951481 -0.31014469 0.87586981
0.091782272 -0.31268197 0.8830353
0.096521035 -0.31804472 0.89818001
0.10142402 -0.32359093 0.91384292
0.10649952 -0.32932928 0.93004841
0.0078283111 -0.31156677 0.88872892
0.010951453 -0.31133416 0.8880654
0.014069937 -0.31110194 0.88740301
0.017183769 -0.31087002 0.88674146
0.020292966 -0.31063849 0.88608104
0.023397535 -0.31040728 0.88542157
0.026497483 -0.3101764 0.884763
0.029592825 -0.30994591 0.8841055
0.03268357 -0.30971575 0.88344896
0.035769727 -0.30948591 0.88279337
0.03885131 -0.30925643 0.88213879
0.041928321 -0.30902725 0.8814851
0.045000784 -0.30879846 0.88083249
0.048068691 -0.30856997 0.88018072
0.051132064 -0.30834186 0.87953001
0.054190908 -0.30811402 0.87888014
0.057245247 -0.3078866 0.87823141
0.060295064 -0.30765945 0.87758344
0.063340403 -0.30743268 0.87693661
0.066435434 -0.307457 0.87700599
0.069565035 -0.30763206 0.87750536
0.072698213 -0.30780733 0.87800533
0.07583496 -0.3079828 0.87850583
0.07897529 -0.30815849 0.87900698
0.082119212 -0.30833438 0.87950873
0.085266717 -0.30851048 0.88001102
0.088417821 -0.30868679 0.88051391
0.091572531 -0.30886328 0.88101733
0.096130863 -0.31360725 0.89454925
0.10100741 -0.31905517 0.91008919
0.10605434 -0.32468945 0.92616075
0.0078418404 -0.30896851 0.89026493
0.010970368 -0.30873749 0.88959926
0.014094219 -0.30850679 0.88893449
0.017213406 -0.30827644 0.8882708
0.020327937 -0.30804643 0.88760799
0.023437824 -0.30781677 0.88694626
0.026543079 -0.30758744 0.88628548
0.029643709 -0.30735844 0.88562566
0.032739725 -0.3071298 0.88496685
0.035831138 -0.30690148 0.88430893
0.038917962 -0.30667353 0.88365215
0.042000197 -0.3064459 0.8829962
0.045077872 -0.30621862 0.88234138
0.048150975 -0.30599168 0.88168746
0.051219527 -0.30576506 0.88103443
0.054283541 -0.3055388 0.88038248
0.057370398 -0.30545861 0.88015145
0.060506057 -0.30563316 0.88065439
0.063645303 -0.30580795 0.88115799
0.066788137 -0.30598289 0.88166207
0.069934577 -0.30615804 0.88216674
0.073084615 -0.30633339 0.88267207
0.076238267 -0.30650896 0.88317794
0.079395548 -0.30668476 0.88368446
0.082556441 -0.30686072 0.88419151
0.085720964 -0.30703691 0.88469917
0.088889129 -0.30721331 0.88520741
0.092060931 -0.30738989 0.88571626
0.095743842 -0.3092055 0.89094782
0.10059422 -0.31455651 0.90636623
0.10561287 -0.32008821 0.92230535
0.11081115 -0.32581788 0.93881482
0.010989348 -0.30613184 0.89113837
0.014118586 -0.30590269 0.89047134
0.017243141 -0.30567387 0.88980526
0.020363027 -0.30544543 0.88914025
0.023478253 -0.30521727 0.88847613
0.026588831 -0.30498952 0.88781315
0.02969477 -0.3047621 0.88715112
0.032796074 -0.30453497 0.88648999
0.035892762 -0.30430821 0.88582987
0.038984843 -0.30408177 0.8851707
0.042072326 -0.30385569 0.8845126
0.04515522 -0.30362993 0.8838554
0.048240099 -0.30344579 0.88331938
0.051381819 -0.30361983 0.88382602
0.054527137 -0.30379406 0.88433319
0.057676077 -0.30396852 0.88484102
0.060828626 -0.30414313 0.88534933
0.063984811 -0.30431801 0.88585836
0.06714461 -0.30449301 0.8863678
0.070308052 -0.30466825 0.88687789
0.073475145 -0.30484369 0.88738865
0.076645888 -0.30501935 0.88789999
0.079820298 -0.30519524 0.888412
0.08299835 -0.30537128 0.88892448
0.086180083 -0.30554757 0.88943762
0.08936549 -0.30572402 0.88995129
0.092554569 -0.30590069 0.89046556
0.095747352 -0.3060776 0.89098048
0.10018402 -0.3100934 0.90267038
0.10517506 -0.31552517 0.91848201
0.011008393 -0.30351713 0.89268279
0.014143037 -0.30328956 0.89201349
0.017272983 -0.30306232 0.89134514
0.020398241 -0.3028354 0.89067775
0.023518823 -0.30260885 0.89001143
0.026634742 -0.30238265 0.88934612
0.029746 -0.30215675 0.88868171
0.03285262 -0.30193123 0.88801843
0.035954598 -0.30170599 0.88735598
0.039051957 -0.30148113 0.88669461
0.042191625 -0.30159196 0.88702065
0.045343027 -0.30176568 0.88753152
0.048498064 -0.30193955 0.88804293
0.051656738 -0.30211365 0.88855499
0.054819059 -0.30228794 0.88906759
0.05798503 -0.30246246 0.88958085
0.061154656 -0.30263716 0.89009464
0.064327948 -0.30281207 0.89060909
0.067504913 -0.30298716 0.89112407
0.070685551 -0.30316249 0.89163971
0.073869877 -0.30333799 0.89215595
0.077057898 -0.30351374 0.89267284
0.0802496 -0.30368969 0.89319026
0.083445027 -0.30386585 0.89370841
0.086644143 -0.30404219 0.89422703
0.089846984 -0.30421874 0.8947463
0.09305355 -0.3043955 0.89526618
0.096263826 -0.30457243 0.89578658
0.099777043 -0.30566618 0.89900345
0.10474087 -0.31099978 0.91469026
0.011027507 -0.3008934 0.89423269
0.014167574 -0.30066741 0.89356107
0.017302927 -0.30044171 0.89289033
0.020433575 -0.30021638 0.89222068
0.023559533 -0.29999137 0.89155197
0.026680809 -0.29976672 0.89088434
0.029797411 -0.2995424 0.8902176
0.032934748 -0.29954937 0.8902384
0.036092244 -0.29972255 0.89075303
0.039253388 -0.29989588 0.89126813
0.042418197 -0.30006945 0.89178401
0.045586661 -0.30024317 0.89230031
0.048758797 -0.3004171 0.8928172
0.051934622 -0.30059129 0.89333487
0.055114117 -0.3007656 0.89385295
0.058297317 -0.30094022 0.89437181
0.061484199 -0.30111492 0.89489108
0.064674802 -0.30128992 0.89541113
0.067869104 -0.30146509 0.89593172
0.071067125 -0.30164048 0.89645296
0.074268878 -0.30181608 0.8969748
0.077474348 -0.30199185 0.89749724
0.080683567 -0.30216786 0.89802033
0.083896518 -0.30234405 0.89854395
0.087113231 -0.30252051 0.89906836
0.090333693 -0.30269712 0.89959323
0.093557924 -0.30287394 0.90011877
0.096785918 -0.30305099 0.9006449
0.10001768 -0.3032282 0.90117157
0.014192194 -0.29803607 0.89511389
0.017332973 -0.29781199 0.89444089
0.020469032 -0.29758823 0.89376885
0.023610471 -0.29749194 0.89347965
0.026774058 -0.29766452 0.89399797
0.029941319 -0.29783732 0.89451694
0.033112254 -0.29801029 0.8950364
0.036286879 -0.2981835 0.89555663
0.039465193 -0.29835683 0.89607728
0.042647209 -0.29853046 0.8965987
0.045832925 -0.29870424 0.89712059
0.049022358 -0.29887822 0.89764321
0.052215502 -0.29905242 0.89816636
0.055412371 -0.29922682 0.8986901
0.05861298 -0.29940143 0.89921457
0.061817322 -0.29957625 0.89973962
0.065025412 -0.29975128 0.90026528
0.068237253 -0.29992652 0.90079159
0.071452849 -0.30010197 0.90131849
0.074672207 -0.30027759 0.90184599
0.077895336 -0.30045345 0.90237415
0.081122242 -0.3006295 0.9029029
0.084352933 -0.30080575 0.90343225
0.087587416 -0.30098221 0.90396225
0.090825707 -0.30115893 0.90449297
0.094067797 -0.30133581 0.90502423
0.014218049 -0.29541948 0.89674461
0.017387733 -0.29559147 0.89726669
0.020561112 -0.2957637 0.89778948
0.023738189 -0.29593608 0.89831275
0.02691897 -0.29610866 0.89883667
0.030103469 -0.29628152 0.89936131
0.033291683 -0.29645449 0.89988643
0.036483623 -0.29662773 0.90041226
0.039679296 -0.29680112 0.90093863
0.04287871 -0.29697478 0.90146571
0.046081863 -0.29714856 0.90199327
0.049288776 -0.29732263 0.90252161
0.05249944 -0.29749683 0.90305042
0.055713873 -0.29767126 0.90357989
0.058932081 -0.29784593 0.90411007
0.062154073 -0.29802081 0.90464097
0.065379851 -0.2981959 0.90517241
0.068609409 -0.29837117 0.90570444
0.071842775 -0.29854664 0.90623713
0.07507994 -0.29872233 0.90677041
0.07832092 -0.29889822 0.90730429
0.081565723 -0.29907432 0.90783888
0.084814347 -0.2992506 0.90837401
0.088066809 -0.29942715 0.90890986
0.017482189 -0.29401863 0.90214092
0.020672873 -0.29419088 0.90266943
0.023867292 -0.29436329 0.90319842
0.027065463 -0.29453591 0.90372813
0.030267384 -0.29470873 0.90425837
0.033473063 -0.29488176 0.90478927
0.036682516 -0.29505503 0.90532088
0.039895736 -0.29522842 0.90585297
0.04311274 -0.29540211 0.90638584
0.046333522 -0.29557592 0.90691918
0.049558107 -0.29574999 0.9074533
0.052786488 -0.29592425 0.90798795
0.056018677 -0.29609871 0.90852326
0.059254684 -0.29627341 0.90905929
0.062494505 -0.29644829 0.90959591
0.065738164 -0.29662344 0.91013324
0.068985648 -0.29679874 0.91067111
0.072236978 -0.29697424 0.91120964
0.075492151 -0.29714996 0.91174883
0.078751184 -0.29732591 0.91228867
0.020785855 -0.29260087 0.90760273
0.023997812 -0.29277331 0.90813756
0.027213557 -0.29294592 0.90867305
0.030433096 -0.29311877 0.90920913
0.033656437 -0.29329181 0.90974593
0.036883585 -0.29346505 0.91028327
0.040114548 -0.2936385 0.91082126
0.043349337 -0.29381216 0.91135997
0.046587948 -0.29398602 0.91189921
0.049830396 -0.2941601 0.91243917
0.053076692 -0.29433438 0.91297978
0.056326833 -0.29450887 0.91352105
0.059580833 -0.29468358 0.91406298
0.062838696 -0.29485849 0.9146055
0.066100426 -0.2950336 0.91514868
0.069366038 -0.29520896 0.91569263
0.020900078 -0.29099339 0.91259027
0.024129763 -0.2911658 0.91313094
0.02736328 -0.29133844 0.91367239
0.030600632 -0.29151127 0.91421437
0.03384183 -0.29168433 0.91475713
0.037086874 -0.29185757 0.91530037
0.040335771 -0.29203099 0.91584426
0.043588541 -0.29220468 0.91638893
0.046845183 -0.29237854 0.91693425
0.050105702 -0.29255265 0.91748023
0.053370107 -0.29272693 0.91802686
0.056638401 -0.29290143 0.91857409
0.059910595 -0.29307616 0.91912204
0.024263175 -0.28954056 0.91817957
0.027514661 -0.2897132 0.91872704
0.030770022 -0.289886 0.91927505
0.034029271 -0.29005903 0.91982377
0.037292413 -0.29023227 0.92037308
0.040559452 -0.29040569 0.92092305
0.04383041 -0.29057938 0.92147386
0.047105275 -0.29075325 0.92202526
0.050384063 -0.29092732 0.92257726
0.027667724 -0.28806984 0.9238379
0.030941298 -0.28824264 0.92439204
0.034218803 -0.28841564 0.9249469
0.037500244 -0.28858885 0.92550236
0.040785633 -0.28876227 0.92605859
0.031114491 -0.28658083 0.92956626
0.034410458 -0.28675383 0.93012738
