# .PCD v0.7 - Point Cloud Data file format
VERSION 0.7
FIELDS x y z
SIZE 4 4 4
TYPE F F F
COUNT 1 1 1
WIDTH 1460
HEIGHT 1
VIEWPOINT 0 0 0 1 0 0 0
POINTS 1460
DATA ascii
0.30430296 0.094057277 0.62812304
0.30636084 0.094009638 0.62780493
0.3084166 0.093962051 0.62748712
0.31047028 0.093914494 0.62716955
0.31252187 0.093866996 0.62685233
0.31457141 0.093819544 0.62653548
0.31661886 0.093772136 0.62621886
0.31866428 0.093724787 0.62590265
0.32070759 0.093677469 0.62558669
0.32274884 0.09363021 0.62527108
0.32478803 0.093582995 0.62495577
0.32682517 0.093535826 0.62464076
0.32886031 0.093488716 0.62432617
0.33089337 0.093441643 0.62401181
0.26167586 0.10688169 0.69735724
0.25991657 0.10517555 0.68622541
0.2582126 0.10352302 0.67544341
0.25656247 0.10192207 0.66499788
0.25496113 0.10036932 0.65486681
0.25340787 0.098863162 0.6450398
0.25190055 0.097401544 0.63550335
0.2523829 0.096728243 0.63111037
0.25447699 0.096679032 0.63078928
0.25656894 0.096629858 0.63046843
0.25865871 0.096580714 0.63014781
0.26074639 0.096531644 0.62982762
0.26283196 0.096482612 0.62950772
0.26491538 0.096433625 0.62918812
0.26699668 0.096384697 0.62886888
0.2690759 0.096335813 0.62854993
0.271153 0.09628699 0.62823135
0.27322802 0.096238211 0.62791312
0.27530092 0.096189477 0.62759513
0.2773717 0.096140794 0.62727749
0.2794404 0.096092157 0.62696016
0.28150702 0.096043572 0.62664318
0.28357154 0.095995039 0.6263265
0.28563398 0.095946543 0.62601012
0.28769433 0.095898107 0.6256941
0.2897526 0.095849723 0.62537837
0.29180878 0.095801376 0.62506294
0.29386291 0.095753089 0.62474787
0.29591498 0.095704839 0.6244331
0.29796496 0.095656656 0.62411869
0.30001292 0.09560851 0.62380457
0.30205873 0.095560402 0.62349069
0.30410257 0.09551236 0.62317723
0.30614433 0.095464364 0.62286407
0.308184 0.095416397 0.62255114
0.31022167 0.095368505 0.62223864
0.31225729 0.095320642 0.62192637
0.31429085 0.095272839 0.62161446
0.31632239 0.095225073 0.62130284
0.31835186 0.09517736 0.62099153
0.32037935 0.095129706 0.62068057
0.32240477 0.095082089 0.62036991
0.32442817 0.09503451 0.62005949
0.32644954 0.09498699 0.61974943
0.32846889 0.094939515 0.61943966
0.26177371 0.10937963 0.69761801
0.26001224 0.10763297 0.68647796
0.25830612 0.10594122 0.67568803
0.25665411 0.10430236 0.66523546
0.25505084 0.10271278 0.65509719
0.25349572 0.10117093 0.64526337
0.25198653 0.099674679 0.63572031
0.25158471 0.098638944 0.62911445
0.25367168 0.098588564 0.62879312
0.2557565 0.09853822 0.62847203
0.2578392 0.098487936 0.62815136
0.25991976 0.098437697 0.62783092
0.26199821 0.09838751 0.62751085
0.26407453 0.098337375 0.62719107
0.26614878 0.098287299 0.62687171
0.26822084 0.098237269 0.62655258
0.27029085 0.09818729 0.62623382
0.27235872 0.098137356 0.62591535
0.27442452 0.098087475 0.62559724
0.27648818 0.098037645 0.62527943
0.27854976 0.097987868 0.62496191
0.28060931 0.09793815 0.62464482
0.28266668 0.09788847 0.62432796
0.28472203 0.097838841 0.62401146
0.28677529 0.097789273 0.62369531
0.28882644 0.097739741 0.62337941
0.29087549 0.097690262 0.6230638
0.29292253 0.097640842 0.62274861
0.29496744 0.09759146 0.62243366
0.29701036 0.097542144 0.62211913
0.29905117 0.097492866 0.62180483
0.30108991 0.097443648 0.6214909
0.3031266 0.097394466 0.62117726
0.30516124 0.097345337 0.62086391
0.30719382 0.09729626 0.62055087
0.30922434 0.097247228 0.62023818
0.31125286 0.097198263 0.61992586
0.3132793 0.097149327 0.61961377
0.31530371 0.097100452 0.61930203
0.3173261 0.09705162 0.6189906
0.31934643 0.097002842 0.61867946
0.32136473 0.0969541 0.61836863
0.32338101 0.096905425 0.61805815
0.32539529 0.096856788 0.61774796
0.32740754 0.09680821 0.61743814
0.32941782 0.096759692 0.61712867
0.26187164 0.11187943 0.69787896
0.26010793 0.1100922 0.68673062
0.2583997 0.10836116 0.67593282
0.25674585 0.10668435 0.66547322
0.2551406 0.1050579 0.65532774
0.25358358 0.10348029 0.64548701
0.2520726 0.10194936 0.63593745
0.25116417 0.10068696 0.62806284
0.25324783 0.1006356 0.62774247
0.2553294 0.10058431 0.62742251
0.25740883 0.10053306 0.62710285
0.25948617 0.10048188 0.62678355
0.26156136 0.10043073 0.62646455
0.26363444 0.10037964 0.62614584
0.26570544 0.1003286 0.62582749
0.26777428 0.10027762 0.62550944
0.26984105 0.10022668 0.62519169
0.27190572 0.10017579 0.62487429
0.27396831 0.10012497 0.62455726
0.27602881 0.10007419 0.62424052
0.27808723 0.10002347 0.62392414
0.28014356 0.099972799 0.62360805
0.28219777 0.099922173 0.62329227
0.2842499 0.099871583 0.62297672
0.28629997 0.099821068 0.62266159
0.28834799 0.099770598 0.62234676
0.29039392 0.09972018 0.62203228
0.29243779 0.099669814 0.62171811
0.29447961 0.099619493 0.62140423
0.29651937 0.099569231 0.62109071
0.29855704 0.099519007 0.62077743
0.30059266 0.099468842 0.6204645
0.30262625 0.099418737 0.62015194
0.30465779 0.099368662 0.61983961
0.30668727 0.099318653 0.61952764
0.30871472 0.09926869 0.61921597
0.31074014 0.099218778 0.61890465
0.31276348 0.099168912 0.61859357
0.31478482 0.099119097 0.61828285
0.31680414 0.099069335 0.61797243
0.3188214 0.099019617 0.61766231
0.32083666 0.098969959 0.61735255
0.3228499 0.098920345 0.61704308
0.3248612 0.098870799 0.61673403
0.32687047 0.098821305 0.61642528
0.32887772 0.098771855 0.61611682
0.26196963 0.1143811 0.69814008
0.26020372 0.11255323 0.68698347
0.25849336 0.11078287 0.6761778
0.25683764 0.10906804 0.6657111
0.25523046 0.10740467 0.65555853
0.25367153 0.10579126 0.64571089
0.25215873 0.10422561 0.63615471
0.250745 0.10272813 0.62701464
0.25282541 0.10267583 0.62669539
0.25490373 0.10262357 0.62637651
0.25697991 0.10257138 0.62605792
0.25905398 0.10251924 0.62573963
0.26112592 0.10246713 0.62542164
0.26319578 0.10241509 0.62510401
0.26526356 0.10236312 0.62478673
0.26732922 0.10231118 0.62446976
0.26939279 0.10225931 0.62415314
0.27145427 0.10220748 0.62383682
0.27351367 0.10215571 0.62352079
0.27557096 0.10210398 0.62320507
0.27762619 0.10205231 0.6228897
0.2796793 0.10200069 0.62257463
0.28173038 0.10194913 0.62225991
0.28377938 0.10189761 0.6219455
0.2858263 0.10184615 0.62163138
0.28787115 0.10179474 0.62131763
0.28991392 0.10174338 0.6210041
0.2919547 0.10169208 0.620691
0.29399335 0.10164082 0.62037814
0.29602998 0.10158962 0.62006563
0.29806453 0.10153847 0.61975342
0.30009708 0.10148738 0.61944157
0.30212754 0.10143632 0.61912996
0.30415598 0.10138533 0.6188187
0.30618235 0.10133437 0.61850768
0.30820674 0.10128348 0.61819708
0.31022909 0.10123265 0.61788678
0.31224939 0.10118186 0.61757678
0.31426767 0.10113112 0.61726707
0.31628391 0.10108043 0.61695766
0.31829816 0.10102979 0.61664861
0.32031041 0.10097922 0.61633992
0.32232064 0.10092869 0.61603153
0.3243289 0.10087822 0.61572349
0.32633513 0.1008278 0.61541575
0.32833934 0.10077742 0.61510825
0.26206768 0.11688465 0.69840145
0.26029953 0.11501608 0.68723649
0.25858706 0.11320632 0.67642295
0.25692949 0.11145344 0.66594923
0.25532031 0.10975308 0.65578938
0.2537595 0.10810383 0.64593488
0.25224492 0.10650341 0.63637215
0.25077277 0.10494895 0.62708408
0.25240439 0.10470925 0.62565178
0.25447944 0.10465605 0.62533391
0.2565524 0.1046029 0.62501639
0.25862324 0.10454982 0.62469918
0.26069197 0.10449678 0.62438232
0.26275864 0.10444381 0.62406576
0.26482317 0.10439087 0.62374949
0.26688564 0.10433801 0.62343359
0.26894599 0.10428518 0.62311792
0.27100429 0.10423242 0.62280267
0.27306047 0.1041797 0.62248766
0.27511463 0.10412705 0.62217307
0.27716666 0.10407443 0.62185872
0.27921665 0.10402188 0.62154472
0.28126454 0.10396939 0.62123102
0.28331038 0.10391694 0.62091762
0.28535417 0.10386454 0.62060457
0.28739589 0.1038122 0.62029183
0.28943554 0.10375991 0.61997938
0.29147315 0.10370768 0.61966729
0.29350874 0.10365549 0.6193555
0.29554224 0.10360336 0.61904401
0.29757366 0.10355128 0.61873275
0.2996031 0.10349926 0.61842191
0.3016305 0.10344728 0.61811137
0.30365583 0.10339536 0.61780113
0.30567914 0.10334349 0.61749119
0.30770046 0.10329168 0.6171816
0.30971974 0.10323991 0.61687231
0.31173694 0.10318819 0.61656326
0.31375217 0.10313652 0.61625457
0.31576544 0.10308494 0.61594635
0.31777668 0.1030334 0.61563838
0.31978592 0.1029819 0.6153307
0.32179314 0.10293046 0.61502331
0.32379833 0.10287907 0.61471623
0.32580155 0.10282774 0.61440951
0.32780278 0.10277645 0.61410308
0.26216581 0.11939006 0.69866294
0.2603955 0.11748075 0.68748981
0.25868085 0.11563154 0.67666829
0.25702143 0.11384054 0.66618747
0.25541028 0.11210315 0.6560204
0.25384757 0.110418 0.64615899
0.25233114 0.10878276 0.63658971
0.25085697 0.10719439 0.62729466
0.25198478 0.1067359 0.62461162
0.2540566 0.10668178 0.62429488
0.25612631 0.1066277 0.62397838
0.25819394 0.10657367 0.62366223
0.26025945 0.10651968 0.62334633
0.2623229 0.10646577 0.62303084
0.26438424 0.10641191 0.62271565
0.26644349 0.1063581 0.62240076
0.26850069 0.10630435 0.62208623
0.27055579 0.10625066 0.62177199
0.27260882 0.10619701 0.62145805
0.27465975 0.10614341 0.62114441
0.27670866 0.10608988 0.62083113
0.27875549 0.10603639 0.62051815
0.28080025 0.10598297 0.62020552
0.28284296 0.10592961 0.61989319
0.28488359 0.10587628 0.61958116
0.28692219 0.10582301 0.61926943
0.2889587 0.10576979 0.618958
0.29099318 0.10571662 0.61864686
0.29302564 0.10566352 0.61833608
0.29505605 0.10561047 0.61802566
0.29708445 0.10555748 0.61771554
0.29911077 0.10550452 0.61740565
0.30113506 0.10545163 0.61709613
0.30315736 0.1053988 0.61678696
0.30517757 0.10534599 0.61647797
0.30719581 0.10529327 0.61616939
0.30921203 0.10524058 0.61586112
0.31122625 0.10518797 0.6155532
0.31323847 0.1051354 0.61524558
0.3152487 0.10508289 0.61493832
0.3172569 0.10503044 0.61463135
0.3192631 0.10497803 0.61432469
0.32126731 0.10492568 0.61401832
0.32326952 0.10487339 0.61371231
0.32526973 0.10482114 0.61340654
0.32726794 0.10476895 0.61310112
0.32926416 0.1047168 0.61279595
0.26226404 0.12189737 0.69892472
0.26049146 0.11994723 0.68774319
0.25877473 0.11805851 0.6769138
0.2571134 0.11622935 0.66642588
0.25550029 0.11445488 0.65625161
0.25393566 0.11273377 0.64638329
0.25241774 0.11106381 0.63680816
0.25094128 0.10944134 0.62750542
0.25156656 0.10875584 0.62357497
0.25363514 0.10870077 0.62325919
0.25570163 0.10864576 0.62294376
0.25776604 0.1085908 0.62262863
0.25982836 0.1085359 0.62231386
0.26188859 0.10848105 0.62199938
0.26394677 0.10842627 0.62168527
0.26600286 0.10837153 0.62137145
0.26805684 0.10831685 0.62105787
0.27010879 0.10826223 0.62074471
0.27215862 0.10820765 0.62043178
0.27420643 0.10815313 0.62011921
0.27625218 0.10809868 0.61980695
0.27829587 0.10804427 0.61949503
0.28033748 0.10798993 0.61918342
0.28237703 0.10793562 0.61887205
0.28441453 0.10788138 0.61856103
0.28645003 0.10782719 0.61825037
0.28848344 0.10777306 0.61793995
0.29051483 0.10771898 0.61762989
0.29254419 0.10766497 0.61732018
0.29457152 0.10761099 0.61701071
0.29659677 0.10755707 0.61670154
0.29862005 0.10750321 0.61639273
0.30064127 0.1074494 0.61608422
0.30266047 0.10739565 0.615776
0.30467767 0.10734196 0.61546814
0.30669287 0.10728832 0.61516058
0.30870607 0.10723474 0.61485338
0.31071728 0.10718122 0.61454654
0.31272647 0.10712775 0.61423993
0.31473365 0.10707434 0.61393368
0.31673884 0.10702097 0.61362773
0.31874201 0.10696766 0.61332202
0.3207432 0.1069144 0.61301666
0.32274243 0.10686121 0.61271167
0.32473963 0.10680806 0.61240691
0.32673487 0.10675496 0.61210245
0.32872811 0.10670191 0.61179829
0.2641975 0.1264642 0.71075106
0.2623623 0.12440655 0.69918662
0.26058751 0.12241554 0.6879968
0.25886863 0.12048725 0.67715949
0.25720549 0.11861987 0.66666454
0.25559038 0.11680827 0.65648299
0.25402388 0.11505117 0.64660782
0.2525031 0.11334584 0.63702351
0.25102556 0.11168979 0.62771624
0.25114968 0.11076908 0.62254167
0.25321507 0.11071309 0.62222701
0.25527838 0.11065715 0.6219126
0.25733957 0.11060127 0.62159854
0.25939873 0.11054545 0.62128484
0.26145574 0.11048967 0.62097132
0.26351073 0.11043395 0.62065822
0.26556364 0.11037831 0.62034547
0.26761448 0.11032271 0.62003297
0.26966324 0.11026716 0.61972082
0.27170995 0.11021166 0.61940891
0.27375463 0.11015624 0.61909741
0.27579716 0.11010085 0.6187861
0.27783772 0.11004553 0.6184752
0.2798762 0.10999026 0.6181646
0.28191265 0.10993505 0.6178543
0.28394708 0.1098799 0.61754435
0.28597945 0.10982481 0.61723471
0.28800976 0.10976975 0.6169253
0.29003805 0.10971476 0.61661625
0.29206431 0.10965983 0.6163075
0.29408854 0.10960495 0.6159991
0.29611075 0.10955013 0.61569095
0.29813093 0.10949536 0.61538315
0.30014908 0.10944065 0.61507565
0.30216524 0.10938598 0.61476845
0.30417943 0.1093314 0.61446166
0.30619162 0.10927687 0.61415517
0.30820179 0.10922238 0.61384898
0.31020993 0.10916796 0.61354309
0.31221613 0.1091136 0.61323756
0.31422028 0.10905927 0.61293226
0.31622243 0.109005 0.61262727
0.31822264 0.1089508 0.61232263
0.32022083 0.10889665 0.61201829
0.32221702 0.10884254 0.61171418
0.32421124 0.10878849 0.61141044
0.3262035 0.1087345 0.61110699
0.32819378 0.10868056 0.61080384
0.26429838 0.1290177 0.71102244
0.26246068 0.1269176 0.69944876
0.26068366 0.12488566 0.6882506
0.2589626 0.12291773 0.6774053
0.25729761 0.12101211 0.66690332
0.2556805 0.11916331 0.6567145
0.25411212 0.11737017 0.64683241
0.25258926 0.11562974 0.63724083
0.25110999 0.11393977 0.6279273
0.25073424 0.11277566 0.62151188
0.25279641 0.11271875 0.62119818
0.2548565 0.11266188 0.62088484
0.25691453 0.11260509 0.62057185
0.25897047 0.11254834 0.62025911
0.26102433 0.11249166 0.61994672
0.26307613 0.11243503 0.61963463
0.2651259 0.11237846 0.6193229
0.26717353 0.11232194 0.61901134
0.26921916 0.11226548 0.61870021
0.27126271 0.11220907 0.61838937
0.27330425 0.11215273 0.61807889
0.27534372 0.11209645 0.6177687
0.27738112 0.11204022 0.61745882
0.2794165 0.11198404 0.61714923
0.28144979 0.11192791 0.61683989
0.28348112 0.11187186 0.61653095
0.28551039 0.11181585 0.61622232
0.2875376 0.11175989 0.61591393
0.28956282 0.11170401 0.61560595
0.29158598 0.11164816 0.61529815
0.29360715 0.11159238 0.61499077
0.29562628 0.11153665 0.61468363
0.29764345 0.111481 0.6143769
0.2996586 0.11142539 0.61407048
0.30167171 0.11136985 0.61376435
0.30368286 0.11131436 0.61345857
0.30569202 0.11125893 0.6131531
0.30769917 0.11120356 0.61284792
0.30970427 0.11114822 0.61254299
0.31170744 0.11109296 0.61223841
0.3137086 0.11103775 0.61193419
0.31570777 0.1109826 0.6116302
0.31770495 0.11092749 0.61132652
0.31970015 0.11087244 0.61102313
0.32169336 0.11081745 0.61072004
0.3236846 0.1107625 0.61041725
0.32567388 0.11070763 0.61011481
0.32766119 0.11065279 0.60981262
0.26439932 0.13157313 0.711294
0.26256257 0.12943226 0.69972032
0.26077986 0.1273576 0.68850458
0.25905669 0.12535001 0.67765141
0.25738978 0.12340606 0.66714227
0.25577074 0.12152003 0.65694624
0.25420043 0.11969078 0.64705718
0.25267544 0.1179152 0.63745826
0.25119439 0.11619125 0.62813842
0.25032014 0.11477561 0.62048542
0.25237912 0.11471778 0.6201728
0.25443605 0.11466002 0.61986053
0.25649086 0.1146023 0.6195485
0.25854364 0.11454465 0.61923683
0.26059431 0.11448704 0.61892539
0.26264298 0.11442951 0.61861438
0.26468953 0.11437202 0.6183036
0.26673406 0.1143146 0.61799318
0.26877657 0.11425724 0.61768305
0.27081701 0.11419994 0.61737329
0.27285537 0.11414269 0.61706376
0.27489167 0.11408548 0.61675453
0.27692598 0.11402835 0.61644566
0.27895826 0.11397127 0.61613709
0.28098851 0.11391426 0.61582887
0.28301668 0.11385729 0.61552089
0.28504288 0.11380038 0.61521327
0.287067 0.11374353 0.61490589
0.28908911 0.11368673 0.61459887
0.29110923 0.11363 0.61429214
0.29312736 0.11357333 0.61398578
0.29514349 0.11351673 0.61367977
0.29715759 0.11346018 0.61337405
0.29916969 0.11340368 0.61306864
0.30117983 0.11334725 0.61276358
0.30318794 0.11329086 0.61245877
0.30519402 0.11323453 0.61215425
0.30719817 0.11317828 0.61185008
0.30920029 0.11312205 0.61154616
0.31120044 0.1130659 0.61124259
0.31319857 0.1130098 0.61093926
0.31519476 0.11295375 0.61063629
0.31718895 0.11289776 0.61033362
0.31918114 0.11284182 0.61003119
0.3211714 0.11278594 0.60972911
0.32315966 0.11273012 0.60942733
0.32514599 0.11267436 0.60912585
0.32713032 0.11261863 0.60882461
0.26450035 0.13413051 0.71156579
0.2626583 0.13194571 0.69997543
0.26087615 0.12983137 0.68875879
0.25915083 0.12778404 0.67789763
0.25748202 0.12580173 0.66738135
0.25586101 0.1238784 0.6571781
0.25428879 0.12201301 0.64728212
0.25276169 0.12020223 0.63767588
0.25127891 0.11844424 0.62834972
0.24990745 0.11676898 0.61946243
0.2519632 0.11671023 0.61915076
0.25401694 0.11665156 0.6188395
0.25606859 0.11659293 0.61852849
0.25811818 0.11653437 0.61821783
0.26016575 0.11647588 0.61790752
0.26221126 0.11641745 0.61759752
0.26425466 0.11635906 0.61728776
0.26629606 0.11630073 0.61697835
0.2683354 0.11624246 0.61666924
0.27037269 0.11618425 0.61636043
0.27240798 0.11612611 0.61605197
0.27444121 0.11606802 0.61574382
0.27647239 0.11600999 0.61543596
0.27850154 0.115952 0.61512834
0.28052866 0.11589408 0.61482108
0.28255376 0.11583622 0.61451411
0.28457686 0.11577842 0.61420751
0.28659794 0.11572067 0.61390114
0.28861701 0.115663 0.61359519
0.2906341 0.11560538 0.61328954
0.29264921 0.11554784 0.61298424
0.29466227 0.11549033 0.61267918
0.29667333 0.1154329 0.61237448
0.29868242 0.11537552 0.61207008
0.30068949 0.11531819 0.61176598
0.30269456 0.11526091 0.61146212
0.30469766 0.11520371 0.61115861
0.30669877 0.11514655 0.6108554
0.30869788 0.11508945 0.61055249
0.31069502 0.11503241 0.61024988
0.31269017 0.11497542 0.60994756
0.31468338 0.11491851 0.60964561
0.31667459 0.11486163 0.60934389
0.31866384 0.11480481 0.60904247
0.32065108 0.11474805 0.60874134
0.3226364 0.11469135 0.60844052
0.32461974 0.11463469 0.60813999
0.32660118 0.11457811 0.60783982
0.32858059 0.11452158 0.60753989
0.26460147 0.13668986 0.71183783
0.26275903 0.13446353 0.70024383
0.26097247 0.13230698 0.68901312
0.25924501 0.13021983 0.67814398
0.25757435 0.12819912 0.66762066
0.25595134 0.12623845 0.65741014
0.25437722 0.12433684 0.64750719
0.25284803 0.12249082 0.63789368
0.25136346 0.12069876 0.6285612
0.24992175 0.11895839 0.6194979
0.25154868 0.11869612 0.61813211
0.25359923 0.11863655 0.61782187
0.25564775 0.11857703 0.61751193
0.25769418 0.11851758 0.61720228
0.25973856 0.11845817 0.61689293
0.26178092 0.11839884 0.61658394
0.26382121 0.11833955 0.61627519
0.26585945 0.11828034 0.6159668
0.2678957 0.11822119 0.61565876
0.26992989 0.11816208 0.61535096
0.27196202 0.11810303 0.61504346
0.27399212 0.11804404 0.61473626
0.27602023 0.11798512 0.61442941
0.27804631 0.11792625 0.61412287
0.28007036 0.11786745 0.61381662
0.28209239 0.1178087 0.61351067
0.28411242 0.11775002 0.61320508
0.28613049 0.11769141 0.61289984
0.28814653 0.11763285 0.6125949
0.29016057 0.11757435 0.61229026
0.29217258 0.11751591 0.61198592
0.29418263 0.11745754 0.61168194
0.29619068 0.11739921 0.61137819
0.2981967 0.11734094 0.61107475
0.30020079 0.11728274 0.61077166
0.30220282 0.11722459 0.6104688
0.30420291 0.11716649 0.61016625
0.30620101 0.11710846 0.60986406
0.30819714 0.11705048 0.6095621
0.3101913 0.11699256 0.6092605
0.31218347 0.11693471 0.6089592
0.31417367 0.11687689 0.60865813
0.31616193 0.11681915 0.60835743
0.3181482 0.11676145 0.60805696
0.32013252 0.11670383 0.60775685
0.32211486 0.11664625 0.60745698
0.32409528 0.11658873 0.60715747
0.32607371 0.11653126 0.60685819
0.3280502 0.11647385 0.60655922
0.26470265 0.13925116 0.71210998
0.26285684 0.13698173 0.70050448
0.26106888 0.13478439 0.68926764
0.25933927 0.13265741 0.67839056
0.25766674 0.1305982 0.66786009
0.25604177 0.12860015 0.65764236
0.2544657 0.1266623 0.64773244
0.2529344 0.12478097 0.63811159
0.25144809 0.12295479 0.6287728
0.25000465 0.1211813 0.61970341
0.25113553 0.1206755 0.61711687
0.25318289 0.12061503 0.61680758
0.25522825 0.12055462 0.61649865
0.25727153 0.12049426 0.61619002
0.25931281 0.12043398 0.61588174
0.261352 0.12037375 0.6155737
0.2633892 0.12031358 0.61526603
0.26542431 0.12025346 0.61495858
0.26745743 0.12019341 0.6146515
0.26948848 0.12013342 0.61434472
0.27151752 0.12007349 0.61403823
0.27354458 0.12001362 0.6137321
0.27556956 0.11995381 0.61342621
0.27759257 0.11989406 0.61312068
0.27961355 0.11983438 0.61281544
0.28163254 0.11977476 0.61251056
0.28364956 0.11971521 0.61220604
0.28566456 0.11965572 0.61190182
0.28767753 0.11959627 0.61159784
0.28968853 0.11953691 0.61129421
0.29169753 0.11947758 0.61099088
0.29370451 0.11941832 0.61068779
0.29570952 0.11935912 0.61038506
0.29771256 0.11929998 0.61008263
0.29971361 0.1192409 0.60978049
0.30171266 0.11918188 0.60947865
0.30370978 0.11912291 0.60917711
0.30570486 0.119064 0.60887587
0.30769801 0.11900515 0.60857493
0.30968919 0.11894637 0.60827428
0.31167835 0.11888762 0.60797387
0.3136656 0.11882894 0.60767382
0.31565088 0.11877033 0.60737407
0.3176342 0.11871178 0.60707462
0.31961557 0.11865328 0.60677546
0.32159501 0.11859483 0.6064766
0.32357246 0.11853644 0.60617799
0.32554796 0.11847811 0.60587972
0.32752153 0.11841984 0.6055817
0.26480392 0.14181441 0.71238244
0.26295575 0.13950235 0.70076811
0.26116535 0.13726366 0.68952239
0.2594336 0.13509676 0.67863733
0.25775918 0.13299903 0.66809976
0.25613222 0.13096353 0.6578747
0.25455427 0.12898938 0.64795786
0.25302085 0.12707269 0.63832968
0.25153279 0.12521236 0.62898457
0.25008765 0.12340569 0.61990911
0.25072366 0.12264837 0.61610484
0.25276792 0.12258702 0.61579663
0.25481012 0.12252572 0.61548871
0.2568503 0.12246449 0.61518109
0.25888839 0.12240329 0.61487371
0.26092449 0.12234218 0.61456674
0.26295856 0.12228114 0.61426008
0.26499057 0.12222014 0.61395365
0.26702058 0.12215921 0.61364758
0.26904854 0.12209833 0.61334181
0.2710745 0.12203753 0.61303633
0.27309844 0.12197678 0.61273116
0.27512038 0.12191609 0.61242634
0.27714035 0.12185548 0.61212188
0.27915829 0.12179494 0.61181772
0.28117424 0.12173445 0.61151385
0.28318819 0.12167402 0.61121029
0.28520015 0.12161364 0.61090702
0.28721008 0.12155333 0.61060405
0.28921804 0.12149308 0.61030138
0.29122403 0.12143289 0.60999906
0.293228 0.12137276 0.60969698
0.29522997 0.12131269 0.60939521
0.29723004 0.12125268 0.60909379
0.29922804 0.12119272 0.6087926
0.30122411 0.12113283 0.60849172
0.30321822 0.121073 0.60819119
0.30521035 0.12101322 0.6078909
0.30720049 0.1209535 0.60759091
0.30918869 0.12089384 0.60729122
0.31117493 0.12083425 0.60699189
0.31315923 0.12077472 0.60669279
0.31514153 0.12071523 0.60639399
0.31712189 0.12065581 0.60609549
0.31910032 0.12059645 0.60579729
0.32107681 0.12053714 0.60549939
0.32305133 0.12047789 0.60520172
0.32502392 0.1204187 0.60490441
0.3269946 0.12035958 0.6046074
0.26490524 0.14437963 0.71265501
0.26305473 0.14202486 0.70103192
0.26126191 0.13974474 0.68977731
0.25952801 0.1375379 0.67888433
0.25785172 0.13540158 0.66833955
0.25622272 0.13332857 0.65810722
0.25464287 0.13131806 0.64818341
0.25310734 0.12936597 0.6385479
0.25161749 0.12747142 0.62919641
0.25017068 0.12563156 0.62011492
0.25031322 0.1246148 0.61509621
0.25235429 0.12455256 0.61478895
0.25439337 0.12449037 0.61448205
0.25643042 0.12442826 0.61417544
0.25846541 0.1243662 0.61386913
0.26049837 0.12430421 0.61356312
0.26252931 0.12424227 0.61325741
0.26455826 0.12418041 0.61295205
0.26658514 0.1241186 0.61264694
0.26861006 0.12405685 0.61234218
0.27063292 0.12399517 0.61203772
0.27265385 0.12393357 0.61173368
0.27467275 0.12387202 0.61142987
0.27668965 0.12381054 0.61112642
0.27870452 0.12374911 0.61082321
0.28071743 0.12368776 0.61052036
0.28272831 0.12362646 0.61021775
0.28473726 0.12356522 0.60991549
0.28674415 0.12350404 0.60961348
0.2887491 0.12344292 0.60931182
0.29075205 0.12338187 0.60901046
0.29275301 0.12332087 0.60870939
0.294752 0.12325992 0.60840857
0.29674903 0.12319905 0.6081081
0.29874408 0.12313824 0.60780793
0.30073714 0.12307747 0.607508
0.30272827 0.12301678 0.60720843
0.30471739 0.12295614 0.6069091
0.30670461 0.12289557 0.60661012
0.30868983 0.12283506 0.60631144
0.31067312 0.1227746 0.606013
0.31265444 0.1227142 0.60571486
0.31463379 0.12265386 0.60541701
0.31661126 0.12259358 0.60511953
0.31858674 0.12253337 0.60482228
0.32056028 0.1224732 0.60452527
0.32253188 0.12241309 0.60422862
0.32450157 0.12235305 0.60393226
0.3264693 0.12229306 0.60363615
0.32843515 0.12223314 0.60334039
0.26500666 0.14694682 0.71292788
0.26315379 0.14454927 0.70129591
0.26135856 0.14222768 0.69003248
0.25962245 0.13998078 0.67913139
0.25794432 0.13780586 0.66857958
0.25631332 0.13569528 0.65833986
0.25473139 0.13364831 0.64840877
0.25319391 0.13166083 0.63876629
0.25170228 0.12973201 0.62940842
0.25025377 0.12785891 0.62032086
0.24990405 0.12657478 0.6140908
0.25194204 0.12651168 0.61378461
0.25397798 0.12644862 0.61347866
0.2560119 0.12638563 0.61317307
0.25804377 0.12632269 0.61286771
0.26007363 0.12625982 0.61256272
0.26210153 0.12619703 0.61225808
0.26412734 0.12613429 0.61195368
0.26615116 0.1260716 0.61164957
0.26817301 0.126009 0.61134589
0.27019286 0.12594648 0.6110425
0.27221072 0.125884 0.61073941
0.27422655 0.12582159 0.61043662
0.27624038 0.12575924 0.61013412
0.27825224 0.12569696 0.60983193
0.28026208 0.12563473 0.60953003
0.28226995 0.12557256 0.60922843
0.28427583 0.12551045 0.60892713
0.28627974 0.12544842 0.60862613
0.28828165 0.12538643 0.60832542
0.29028156 0.12532452 0.60802501
0.29227954 0.12526266 0.60772491
0.29427555 0.12520087 0.60742509
0.29626957 0.12513913 0.60712558
0.29826164 0.12507746 0.60682636
0.30025172 0.12501584 0.60652745
0.30223987 0.12495429 0.60622883
0.30422607 0.12489281 0.60593051
0.30621028 0.12483136 0.60563242
0.30819255 0.12477 0.6053347
0.31017289 0.12470868 0.60503721
0.31215128 0.12464744 0.60474008
0.31412771 0.12458625 0.60444319
0.31610221 0.12452511 0.6041466
0.31807476 0.12446404 0.60385031
0.32004541 0.12440303 0.60355431
0.32201409 0.12434208 0.60325861
0.32398087 0.12428118 0.60296315
0.32594571 0.12422036 0.60266805
0.32790864 0.12415958 0.60237318
0.26510817 0.14951597 0.71320093
0.26325294 0.14707559 0.70156014
0.26145527 0.14471245 0.69028777
0.25971702 0.14242546 0.67937869
0.25803694 0.14021185 0.66881967
0.25640398 0.13806368 0.65857273
0.25482199 0.13598125 0.64863938
0.25328052 0.13395725 0.6389848
0.25178713 0.13199414 0.62962061
0.25033689 0.13008772 0.62052691
0.24949627 0.12852839 0.61308873
0.25153112 0.12846439 0.61278349
0.25356394 0.12840046 0.61247855
0.25559476 0.12833661 0.61217397
0.25762352 0.1282728 0.61186963
0.25965032 0.12820908 0.61156565
0.26167509 0.12814541 0.61126196
0.26369786 0.12808183 0.61095864
0.26571864 0.1280183 0.61065561
0.26773745 0.12795484 0.61035293
0.26975423 0.12789144 0.6100505
0.27176899 0.12782811 0.60974836
0.27378181 0.12776484 0.60944659
0.2757926 0.12770164 0.6091451
0.27780139 0.12763849 0.60884386
0.27980822 0.1275754 0.60854292
0.28181306 0.12751238 0.60824233
0.28381592 0.12744941 0.60794199
0.28581682 0.12738653 0.60764199
0.28781572 0.12732369 0.60734224
0.28981265 0.12726091 0.60704279
0.29180765 0.1271982 0.60674369
0.29380065 0.12713555 0.60644484
0.29579169 0.12707296 0.60614628
0.29778075 0.12701043 0.60584801
0.29976788 0.12694797 0.60555005
0.30175307 0.12688556 0.60525239
0.3037363 0.12682322 0.60495502
0.30571756 0.12676094 0.60465795
0.30769688 0.12669872 0.60436112
0.30967429 0.12663656 0.60406464
0.31164971 0.12657446 0.60376841
0.31362322 0.12651242 0.60347247
0.31559482 0.12645045 0.60317689
0.31756449 0.12638853 0.60288155
0.31953219 0.12632668 0.60258645
0.32149798 0.12626489 0.6022917
0.32346186 0.12620315 0.60199726
0.32542381 0.12614147 0.60170305
0.32738385 0.12607986 0.60140914
0.26520973 0.15208709 0.71347415
0.26335216 0.14960381 0.70182455
0.26155201 0.14719903 0.69054323
0.25981161 0.14487192 0.67962617
0.25812966 0.14261958 0.66905999
0.2564947 0.14043374 0.65880573
0.25490826 0.13831346 0.64885896
0.25336722 0.13625525 0.63920349
0.25187203 0.13425778 0.62983292
0.25042009 0.13231803 0.62073314
0.24908978 0.1304756 0.61208987
0.25112152 0.13041075 0.61178565
0.25315127 0.13034597 0.61148179
0.25517899 0.13028125 0.61117816
0.25720468 0.1302166 0.61087483
0.25922838 0.13015202 0.61057186
0.26125011 0.13008749 0.61026919
0.26326981 0.13002305 0.60996687
0.26528755 0.12995867 0.60966486
0.26730326 0.12989436 0.60936314
0.269317 0.12983011 0.60906172
0.27132875 0.12976591 0.6087606
0.27333847 0.12970178 0.60845971
0.27534622 0.12963772 0.60815918
0.27735201 0.12957372 0.60785896
0.27935582 0.12950979 0.60755903
0.28135765 0.12944591 0.60725939
0.28335747 0.12938209 0.60696
0.28535536 0.12931836 0.60666096
0.28735128 0.12925467 0.60636222
0.28934523 0.12919104 0.60606372
0.29133722 0.12912749 0.60576558
0.29332724 0.12906398 0.60546768
0.2953153 0.12900054 0.60517007
0.29730144 0.12893718 0.60487282
0.29928559 0.12887387 0.60457581
0.3012678 0.12881061 0.60427904
0.30324808 0.12874743 0.60398263
0.30522642 0.12868431 0.60368651
0.30720282 0.12862125 0.60339069
0.30917725 0.12855823 0.60309511
0.31114981 0.12849531 0.60279989
0.31312039 0.12843242 0.60250491
0.31508905 0.12836961 0.60221022
0.31705579 0.12830687 0.60191584
0.3190206 0.12824416 0.60162169
0.3209835 0.12818153 0.6013279
0.32294449 0.12811896 0.60103434
0.32490355 0.12805645 0.60074109
0.3268607 0.127994 0.60044813
0.26531136 0.15466018 0.71374762
0.26345146 0.15213394 0.70208913
0.26164886 0.1496875 0.69079894
0.25990632 0.14732017 0.67987388
0.25822246 0.14502905 0.6693005
0.25658548 0.14280549 0.6590389
0.25499785 0.14064904 0.64908701
0.25345394 0.13855481 0.6394223
0.251957 0.13652295 0.63004535
0.25050333 0.13454983 0.62093949
0.24909109 0.13263293 0.61209309
0.25071329 0.13235079 0.61079109
0.25273991 0.13228515 0.61048812
0.25476456 0.13221958 0.61018556
0.25678721 0.13215409 0.60988331
0.25880787 0.13208868 0.60958141
0.26082653 0.1320233 0.60927975
0.26284316 0.13195801 0.60897839
0.26485783 0.13189277 0.60867733
0.26687053 0.13182761 0.60837662
0.2688812 0.1317625 0.60807616
0.27088988 0.13169746 0.60777599
0.27289659 0.13163248 0.60747612
0.27490133 0.13156757 0.60717654
0.27690411 0.13150272 0.60687727
0.27890491 0.13143794 0.60657835
0.28090373 0.13137323 0.60627967
0.28290057 0.13130857 0.60598129
0.28489542 0.13124396 0.60568315
0.28688836 0.13117944 0.60538536
0.28887933 0.13111497 0.60508788
0.29086834 0.13105057 0.60479063
0.29285538 0.13098621 0.60449368
0.29484048 0.13092196 0.60419708
0.29682365 0.13085774 0.60390073
0.29880485 0.13079359 0.60360467
0.30078414 0.1307295 0.60330892
0.30276147 0.13066548 0.60301346
0.30473688 0.13060151 0.60271829
0.30671033 0.13053761 0.60242337
0.30868185 0.13047376 0.60212874
0.31065148 0.13041 0.60183448
0.31261912 0.13034628 0.60154039
0.31458488 0.13028263 0.60124665
0.31654873 0.13021904 0.60095322
0.31851065 0.13015552 0.60066003
0.32047066 0.13009205 0.60036713
0.32242879 0.13002867 0.60007459
0.32438496 0.12996531 0.59978223
0.32633927 0.12990203 0.59949023
0.26541311 0.15723525 0.71402133
0.26355079 0.15466596 0.70235389
0.26174578 0.15217778 0.69105482
0.26000106 0.1497702 0.68012172
0.25831532 0.14744024 0.66954118
0.25667635 0.14517893 0.65927231
0.25508475 0.14298472 0.6493082
0.25354072 0.14085597 0.63964128
0.25204203 0.13878965 0.63025796
0.25058663 0.13678309 0.62114596
0.24917273 0.13483374 0.61229372
0.2503064 0.13428454 0.6097998
0.25232998 0.13421808 0.60949796
0.25435156 0.13415167 0.60919636
0.25637114 0.13408533 0.60889512
0.25838873 0.13401905 0.60859418
0.26040432 0.13395284 0.60829347
0.26241791 0.13388669 0.60799313
0.26442951 0.13382061 0.60769302
0.26643917 0.1337546 0.60739326
0.2684468 0.13368864 0.60709375
0.27045247 0.13362277 0.6067946
0.27245617 0.13355695 0.60649568
0.2744579 0.13349119 0.60619712
0.27645764 0.1334255 0.6058988
0.27845541 0.13335988 0.60560077
0.28045124 0.13329431 0.60530305
0.28244507 0.13322881 0.60500562
0.284437 0.13316338 0.60470849
0.28642693 0.13309802 0.60441166
0.2884149 0.13303271 0.60411507
0.29040095 0.13296747 0.60381883
0.29238504 0.13290229 0.60352284
0.29436719 0.13283719 0.6032272
0.29634741 0.13277213 0.6029318
0.29832569 0.13270715 0.60263669
0.300302 0.13264222 0.60234189
0.3022764 0.13257736 0.60204732
0.30424887 0.13251257 0.60175312
0.3062194 0.13244784 0.60145915
0.30818802 0.13238317 0.60116547
0.31015474 0.13231857 0.6008721
0.31211951 0.13225403 0.60057902
0.31408238 0.13218956 0.60028625
0.31604332 0.13212514 0.59999371
0.31800237 0.13206078 0.59970146
0.31995949 0.1319965 0.59940952
0.32191473 0.13193227 0.59911788
0.32386804 0.13186809 0.59882647
0.32581949 0.131804 0.59853542
0.32776904 0.13173996 0.59824461
0.26551491 0.15981229 0.71429515
0.26365024 0.1571999 0.7026189
0.26184279 0.15466991 0.69131088
0.26009583 0.15222199 0.68036968
0.25840822 0.14985317 0.66978198
0.25676724 0.14755403 0.65950578
0.25517344 0.14532299 0.64953399
0.2536276 0.14315867 0.63986039
0.25212708 0.14105788 0.63047069
0.25066999 0.13901785 0.62135261
0.24925458 0.13703607 0.61249483
0.2505295 0.1365547 0.61034334
0.25254777 0.13648327 0.61002403
0.25456399 0.13641192 0.60970515
0.25657803 0.13634063 0.6093865
0.25859001 0.13626944 0.60906827
0.26059985 0.13619828 0.60875028
0.26260763 0.13612722 0.60843265
0.2646133 0.13605623 0.60811538
0.26661688 0.13598531 0.6077984
0.26861838 0.13591447 0.60748178
0.27061778 0.13584371 0.60716546
0.27261513 0.13577302 0.60684955
0.27461037 0.1357024 0.60653389
0.27660355 0.13563186 0.60621858
0.27859467 0.13556139 0.60590363
0.28058368 0.13549098 0.60558891
0.28257066 0.13542067 0.60527462
0.28455558 0.13535041 0.60496062
0.28653842 0.13528022 0.60464692
0.28851923 0.13521011 0.60433358
0.29049796 0.13514008 0.60402054
0.29247466 0.13507012 0.60370785
0.2944493 0.13500023 0.60339546
0.29642195 0.13493042 0.60308343
0.29839247 0.13486065 0.60277164
0.30036104 0.13479099 0.60246027
0.30232754 0.1347214 0.60214919
0.30429196 0.13465185 0.60183835
0.30625442 0.1345824 0.60152793
0.30821484 0.13451301 0.60121781
0.31017324 0.13444369 0.60090798
0.31212965 0.13437445 0.60059851
0.31408396 0.13430527 0.60028929
0.31603634 0.13423617 0.59998047
0.3179867 0.13416713 0.5996719
0.31993502 0.13409819 0.59936368
0.32188138 0.1340293 0.59905583
0.32382572 0.13396047 0.59874821
0.32576811 0.13389175 0.598441
0.32770842 0.13382305 0.59813398
0.2656168 0.1623913 0.71456927
0.26374978 0.15973577 0.70288414
0.26193982 0.1571639 0.69156712
0.26019073 0.15467559 0.68061787
0.25850117 0.15226783 0.67002296
0.2568582 0.1499308 0.65973943
0.25526223 0.14766289 0.64975995
0.2537145 0.14546297 0.64007968
0.2522122 0.14332764 0.63068354
0.2507534 0.1412541 0.62155938
0.24933676 0.13924001 0.61269677
0.25079775 0.13885368 0.61099684
0.25281805 0.13878097 0.61067688
0.25483623 0.13870832 0.61035722
0.2568523 0.13863577 0.61003792
0.25886628 0.13856328 0.60971898
0.26087815 0.13849087 0.60940033
0.26288792 0.13841854 0.60908204
0.26489556 0.13834627 0.60876405
0.26690114 0.13827409 0.60844642
0.26890463 0.13820198 0.60812914
0.270906 0.13812995 0.60781217
0.27290532 0.13805799 0.60749555
0.27490252 0.13798609 0.60717916
0.27689767 0.13791429 0.6068632
0.27889076 0.13784257 0.60654759
0.28088173 0.13777089 0.60623223
0.28287068 0.13769932 0.60591727
0.28485754 0.1376278 0.60560256
0.28684232 0.13755636 0.60528821
0.28882506 0.137485 0.60497421
0.29080576 0.13741371 0.60466051
0.29278439 0.1373425 0.60434717
0.29476094 0.13727134 0.60403407
0.2967355 0.13720028 0.60372138
0.29870799 0.13712929 0.60340899
0.30067843 0.13705836 0.6030969
0.30264685 0.13698752 0.60278517
0.30461323 0.13691674 0.60247374
0.30657759 0.13684605 0.60216266
0.30853987 0.1367754 0.60185182
0.31050017 0.13670485 0.60154134
0.31245846 0.13663438 0.60123122
0.31441471 0.13656396 0.60092139
0.31636897 0.13649364 0.60061193
0.31832117 0.13642336 0.6003027
0.32027143 0.13635318 0.59999388
0.32221964 0.13628305 0.59968531
0.32416582 0.13621299 0.59937704
0.32611001 0.13614301 0.59906906
0.32805219 0.1360731 0.59876144
0.26571876 0.16497231 0.71484357
0.26384935 0.16227354 0.7031495
0.26203695 0.15965973 0.69182354
0.26028568 0.15713099 0.68086624
0.25859424 0.15468423 0.67026418
0.25694925 0.15230928 0.65997326
0.25535104 0.15000442 0.64998603
0.25380147 0.14776886 0.64029908
0.2522974 0.14559893 0.63089657
0.25083688 0.14349183 0.62176627
0.24941906 0.14144544 0.61289901
0.25106654 0.14115758 0.61165166
0.25308886 0.14108358 0.61133105
0.25510907 0.14100966 0.61101073
0.25712717 0.14093581 0.61069071
0.25914314 0.14086203 0.61037105
0.26115701 0.14078835 0.61005175
0.26316878 0.14071473 0.60973281
0.26517844 0.1406412 0.60941416
0.26718599 0.14056773 0.60909581
0.26919147 0.14049435 0.60877782
0.27119485 0.14042105 0.60846019
0.27319616 0.14034782 0.60814291
0.27519533 0.14027466 0.60782588
0.27719241 0.14020157 0.6075092
0.2791875 0.14012858 0.60719293
0.28118044 0.14005566 0.60687691
0.28317133 0.1399828 0.60656124
0.28516015 0.13991004 0.60624593
0.2871469 0.13983734 0.60593092
0.28913158 0.13976471 0.60561621
0.29111421 0.13969216 0.60530186
0.29309478 0.13961969 0.60498786
0.29507327 0.13954729 0.6046741
0.29704976 0.13947497 0.60436076
0.29902413 0.13940272 0.60404766
0.30099651 0.13933054 0.60373491
0.30296686 0.13925844 0.60342252
0.30493513 0.13918643 0.60311043
0.30690143 0.13911448 0.6027987
0.30886564 0.13904262 0.60248727
0.31082779 0.13897079 0.60217607
0.31278801 0.13889909 0.60186535
0.31474611 0.13882741 0.60155481
0.31670228 0.13875584 0.60124469
0.31865636 0.13868433 0.6009348
0.3206085 0.13861291 0.60062534
0.32255852 0.13854153 0.60031605
0.32450658 0.13847023 0.60000712
0.32645264 0.138399 0.59969848
0.26582077 0.16755529 0.71511805
0.26394901 0.16481322 0.7034151
0.26213542 0.16215818 0.69208348
0.26038072 0.15958819 0.68111485
0.25868738 0.15710239 0.67050558
0.25704035 0.15468945 0.66020727
0.25543994 0.15234758 0.65021229
0.25388849 0.1500763 0.64051861
0.25238267 0.14787178 0.63110977
0.25092041 0.14573106 0.62197334
0.24950138 0.14365231 0.6131013
0.25133589 0.14346641 0.61230791
0.25336027 0.14339115 0.61198664
0.25538251 0.14331593 0.61166561
0.25740263 0.14324078 0.61134493
0.2594206 0.14316574 0.61102462
0.26143649 0.14309075 0.6107046
0.26345026 0.14301586 0.61038494
0.26546192 0.14294103 0.61006558
0.26747146 0.14286628 0.60974658
0.26947892 0.14279163 0.60942793
0.27148429 0.14271703 0.60910958
0.27348757 0.14264254 0.60879165
0.27548873 0.14256811 0.60847396
0.27748784 0.14249375 0.60815662
0.27948484 0.14241949 0.60783964
0.28147975 0.14234526 0.6075229
0.28347263 0.14227116 0.60720664
0.28546339 0.14219712 0.60689062
0.2874521 0.14212316 0.60657495
0.28943872 0.14204927 0.60625958
0.29142329 0.14197545 0.60594451
0.2934058 0.14190172 0.60562986
0.29538625 0.14182805 0.60531545
0.29736465 0.14175448 0.60500145
0.29934099 0.14168097 0.60468769
0.30131528 0.14160754 0.60437429
0.30328754 0.14153418 0.60406125
0.30525771 0.1414609 0.60374844
0.30722591 0.1413877 0.60343605
0.30919203 0.14131458 0.60312396
0.31115615 0.14124154 0.60281223
0.31311822 0.14116855 0.60250074
0.31507826 0.14109565 0.6021896
0.3170363 0.14102283 0.60187882
0.31899223 0.14095005 0.60156822
0.32094619 0.14087737 0.60125798
0.32289815 0.14080477 0.6009481
0.32484806 0.14073223 0.60063851
0.32679597 0.14065975 0.60032922
0.26592293 0.17014025 0.71539283
0.26404876 0.16735485 0.70368093
0.26224023 0.16466247 0.69236022
0.26047581 0.16204716 0.68136358
0.25878057 0.15952227 0.6707471
0.25713155 0.15707129 0.66044146
0.25552887 0.15469237 0.65043873
0.2539756 0.15238535 0.64073837
0.25246793 0.15014613 0.63132304
0.25100499 0.14797238 0.62218302
0.24958381 0.14586067 0.61330384
0.2516059 0.14578024 0.61296564
0.25363228 0.14570364 0.6126436
0.25565651 0.14562713 0.61232185
0.25767866 0.1455507 0.61200052
0.25969866 0.14547434 0.61167949
0.26171654 0.14539808 0.61135882
0.26373234 0.14532191 0.61103851
0.265746 0.14524579 0.61071843
0.26775756 0.14516976 0.61039877
0.26976702 0.14509381 0.61007941
0.27177435 0.14501794 0.6097604
0.27377963 0.14494215 0.60944176
0.27578279 0.14486644 0.60912341
0.27778387 0.14479081 0.60880542
0.27978283 0.14471526 0.60848773
0.28177971 0.14463978 0.60817033
0.28377455 0.14456439 0.60785335
0.28576729 0.14448908 0.60753667
0.28775796 0.14441384 0.60722035
0.28974652 0.14433867 0.60690427
0.29173306 0.1442636 0.6065886
0.2937175 0.1441886 0.60627323
0.29569989 0.14411366 0.60595816
0.29768023 0.14403883 0.60564351
0.29965851 0.14396405 0.6053291
0.30163473 0.14388935 0.60501504
0.30360889 0.14381474 0.60470128
0.30558103 0.14374021 0.60438788
0.30755112 0.14366575 0.60407484
0.30951914 0.14359136 0.60376203
0.31148517 0.14351706 0.60344964
0.31344914 0.14344282 0.60313749
0.31541109 0.14336868 0.6028257
0.31737095 0.14329457 0.60251415
0.31932881 0.14322057 0.60220295
0.32128465 0.14314662 0.60189205
0.32323849 0.14307277 0.60158151
0.32519025 0.14299898 0.60127121
0.32714006 0.14292528 0.60096133
0.26602513 0.17272721 0.71566778
0.26414856 0.16989836 0.70394689
0.26233613 0.16716303 0.69261348
0.26057097 0.16450794 0.68161249
0.25887382 0.1619439 0.6709888
0.25722268 0.15945479 0.66067559
0.25561789 0.15703879 0.65066528
0.25406274 0.15469597 0.64095819
0.25255331 0.15242204 0.63153654
0.25108865 0.1502146 0.62239033
0.24984585 0.14817697 0.61394775
0.25187641 0.14809901 0.61362469
0.25390482 0.1480211 0.61330193
0.25593111 0.14794329 0.61297953
0.25795528 0.14786558 0.61265755
0.25997731 0.14778793 0.6123358
0.26199719 0.14771035 0.61201441
0.26401502 0.1476329 0.61169344
0.2660307 0.14755549 0.61137271
0.26804426 0.14747818 0.61105239
0.27005571 0.14740093 0.61073232
0.27206504 0.14732376 0.6104126
0.27407232 0.14724669 0.6100933
0.27607745 0.14716969 0.60977423
0.27808052 0.14709279 0.60945559
0.28008145 0.14701593 0.60913718
0.28208035 0.14693919 0.60881919
0.28407714 0.14686251 0.60850149
0.28607181 0.14678591 0.6081841
0.28806445 0.14670941 0.60786712
0.29005498 0.14663295 0.60755038
0.29204348 0.14655662 0.60723406
0.29402986 0.14648032 0.60691798
0.29601419 0.14640413 0.60660225
0.29799649 0.14632803 0.60628694
0.29997671 0.14625199 0.60597187
0.30195487 0.14617603 0.60565716
0.30393097 0.14610015 0.60534275
0.30590498 0.14602433 0.60502863
0.307877 0.14594862 0.60471493
0.30984697 0.14587297 0.60440147
0.31181487 0.1457974 0.60408837
0.31378075 0.1457219 0.60377556
0.31574452 0.14564647 0.60346299
0.31770629 0.14557111 0.60315078
0.31966606 0.14549585 0.60283893
0.32162377 0.14542066 0.60252738
0.32357949 0.14534554 0.60221618
0.32553318 0.14527051 0.60190529
0.32748485 0.14519554 0.60159469
0.26612738 0.17531614 0.71594286
0.26424846 0.17244384 0.70421314
0.26242712 0.16966218 0.69285363
0.26066619 0.16697052 0.68186164
0.25896713 0.16436727 0.67123067
0.25731686 0.16184182 0.66091746
0.25570697 0.15938684 0.65089202
0.25414994 0.1570082 0.64117825
0.25263876 0.1546995 0.63175017
0.25117281 0.15245861 0.62259901
0.25011492 0.15050206 0.61460894
0.25214753 0.15042277 0.61428517
0.25417799 0.15034357 0.61396176
0.2562063 0.15026446 0.6136387
0.2582325 0.15018542 0.61331594
0.26025656 0.15010647 0.61299354
0.2622785 0.15002762 0.61267149
0.26429829 0.14994884 0.61234975
0.266316 0.14987013 0.61202836
0.26833156 0.14979152 0.61170733
0.27034503 0.14971298 0.6113866
0.27235636 0.14963453 0.61106622
0.27436563 0.14955616 0.6107462
0.27637276 0.14947787 0.61042649
0.2783778 0.14939967 0.61010712
0.28038073 0.14932154 0.60978806
0.28238156 0.14924349 0.60946935
0.28438035 0.14916554 0.60915101
0.28637701 0.14908765 0.60883296
0.28837159 0.14900987 0.60851526
0.29036412 0.14893214 0.60819787
0.29235452 0.14885451 0.60788083
0.29434288 0.14877695 0.60756409
0.29632917 0.14869948 0.60724771
0.29831338 0.14862208 0.60693169
0.30029553 0.14854477 0.60661596
0.30227566 0.14846754 0.60630059
0.3042537 0.1483904 0.60598552
0.30622965 0.14831331 0.60567075
0.30820358 0.14823632 0.60535634
0.31017545 0.1481594 0.60504222
0.31214523 0.14808255 0.6047284
0.31411299 0.14800578 0.60441488
0.31607872 0.1479291 0.60410172
0.3180424 0.14785248 0.60378885
0.32000405 0.14777596 0.60347635
0.32196367 0.14769951 0.60316414
0.32392126 0.14762314 0.60285223
0.32587683 0.14754684 0.60254067
0.32783037 0.14747062 0.60222942
0.26622975 0.17790708 0.71621823
0.26434845 0.17499122 0.70447958
0.26252767 0.1721693 0.69311911
0.2607615 0.16943489 0.68211091
0.25906053 0.16679239 0.67147273
0.2574062 0.16422749 0.66114694
0.2557961 0.16173655 0.65111893
0.25423723 0.15932199 0.64139843
0.25272533 0.15697916 0.63196665
0.25125706 0.15470412 0.6228078
0.25038457 0.15283214 0.61527157
0.25241923 0.15275155 0.61494714
0.25445172 0.15267104 0.61462301
0.25648209 0.15259062 0.61429924
0.25851032 0.15251027 0.61397576
0.2605364 0.15243 0.61365265
0.26256037 0.15234984 0.61332995
0.26458219 0.15226975 0.61300749
0.26660192 0.15218975 0.61268544
0.26861948 0.15210983 0.6123637
0.27063498 0.15203001 0.61204231
0.27264833 0.15195026 0.61172128
0.27465954 0.15187058 0.61140049
0.2766687 0.15179099 0.61108011
0.27867573 0.15171149 0.61076009
0.28068063 0.15163207 0.61044031
0.28268349 0.15155274 0.61012095
0.28468421 0.15147348 0.60980189
0.28668284 0.15139432 0.60948318
0.28867942 0.15131524 0.60916483
0.29067388 0.15123622 0.60884672
0.29266629 0.1511573 0.60852903
0.29465657 0.15107846 0.60821164
0.29664481 0.15099971 0.60789454
0.29863098 0.15092105 0.60757786
0.30061507 0.15084244 0.60726142
0.30259714 0.15076394 0.6069454
0.30457711 0.15068552 0.60662967
0.306555 0.15060715 0.60631424
0.30853081 0.15052886 0.60599905
0.31050459 0.15045068 0.60568428
0.31247628 0.15037255 0.60536975
0.314446 0.15029453 0.60505563
0.31641358 0.15021655 0.60474169
0.31837916 0.15013866 0.60442817
0.32034272 0.15006088 0.60411501
0.32230425 0.14998317 0.60380214
0.32426372 0.14990552 0.60348958
0.32622117 0.14982797 0.60317737
0.32817665 0.1497505 0.60286552
0.26633218 0.18050002 0.71649384
0.26444846 0.17754051 0.70474613
0.26262757 0.17467786 0.69338286
0.26085687 0.17190108 0.68236041
0.25915396 0.16921926 0.67171496
0.25749737 0.16661595 0.66138113
0.2558853 0.16408788 0.65134597
0.25432459 0.1616374 0.64161879
0.25281048 0.15925947 0.63217962
0.25134137 0.15695116 0.62301677
0.25065485 0.15516728 0.61593568
0.25269151 0.15508536 0.61561048
0.25472605 0.15500352 0.61528563
0.25675848 0.15492178 0.61496121
0.25878873 0.15484011 0.61463702
0.26081687 0.15475856 0.61431324
0.26284286 0.15467708 0.61398983
0.26486668 0.15459566 0.61366665
0.26688844 0.15451437 0.61334395
0.26890805 0.15443313 0.61302149
0.27092552 0.15435198 0.61269939
0.27294087 0.15427093 0.61237764
0.27495411 0.15418996 0.6120562
0.27696523 0.15410906 0.61173511
0.27897429 0.15402828 0.61141443
0.28098121 0.15394755 0.611094
0.28298602 0.15386692 0.61077392
0.28498873 0.15378638 0.6104542
0.28698936 0.15370591 0.61013478
0.28898787 0.15362553 0.60981572
0.29098433 0.15354525 0.60949701
0.29297867 0.15346503 0.6091786
0.29497093 0.15338489 0.60886049
0.29696113 0.15330485 0.60854274
0.29894927 0.1532249 0.60822541
0.3009353 0.15314502 0.60790831
0.30291924 0.1530652 0.60759151
0.30490115 0.15298548 0.60727507
0.30688095 0.15290584 0.60695893
0.30885869 0.15282628 0.60664308
0.31083441 0.15274681 0.60632765
0.31280804 0.1526674 0.60601246
0.31477964 0.1525881 0.60569763
0.31674919 0.15250887 0.60538316
0.3187167 0.15242973 0.60506898
0.32068214 0.15235065 0.6047551
0.32264557 0.15227167 0.60444158
0.32460696 0.15219276 0.60412836
0.32656631 0.15211394 0.6038155
0.32852361 0.15203521 0.60350293
0.26643467 0.18309492 0.71676958
0.2645486 0.18009177 0.70501298
0.26272604 0.17718732 0.69364285
0.26095229 0.17436905 0.68261003
0.25924751 0.17164789 0.67195737
0.2575891 0.16900644 0.66161674
0.25597456 0.16644086 0.65157318
0.25441197 0.16395438 0.64183927
0.25289685 0.16154204 0.63239557
0.25142571 0.15919968 0.62322587
0.25092566 0.15750745 0.61660117
0.25296438 0.1574242 0.61627525
0.25500101 0.15734105 0.61594975
0.25703546 0.15725799 0.61562461
0.25906774 0.15717499 0.6152997
0.26109794 0.15709212 0.61497527
0.26312593 0.1570093 0.61465108
0.26515183 0.15692659 0.61432725
0.26717559 0.15684398 0.61400384
0.2691972 0.15676142 0.61368066
0.27121669 0.15667897 0.6133579
0.27323407 0.1565966 0.61303544
0.27524933 0.15651432 0.61271334
0.27726248 0.15643214 0.61239159
0.27927348 0.15635002 0.61207014
0.2812824 0.156268 0.61174905
0.28328922 0.15618607 0.61142832
0.28529391 0.15610422 0.61110789
0.28729647 0.15602244 0.61078775
0.28929701 0.15594077 0.61046803
