# .PCD v0.7 - Point Cloud Data file format
VERSION 0.7
FIELDS x y z
SIZE 4 4 4
TYPE F F F
COUNT 1 1 1
WIDTH 646
HEIGHT 1
VIEWPOINT 0 0 0 1 0 0 0
POINTS 646
DATA ascii
-0.22547761 -0.49130383 1.3472589
-0.22020392 -0.49013132 1.3440436
-0.21495531 -0.48896429 1.3408434
-0.20973167 -0.48780286 1.3376585
-0.20453277 -0.48664695 1.3344887
-0.19935843 -0.4854964 1.3313338
-0.19420861 -0.48435158 1.3281944
-0.18980326 -0.48505279 1.3301172
-0.22906588 -0.48410833 1.3404788
-0.22381015 -0.48295873 1.3372957
-0.21857931 -0.48181459 1.3341275
-0.21337317 -0.48067582 1.3309743
-0.20819165 -0.47954258 1.3278364
-0.20303473 -0.47841516 1.3247147
-0.19790201 -0.47729307 1.3216076
-0.19382416 -0.4787223 1.3255651
-0.18997496 -0.48080084 1.3313205
-0.18609229 -0.4828977 1.3371266
-0.18217537 -0.48501235 1.3429821
-0.23261824 -0.47698489 1.3337666
-0.22738035 -0.47585785 1.3306152
-0.22216715 -0.47473612 1.3274785
-0.21697879 -0.47362036 1.3243586
-0.21181475 -0.4725098 1.3212532
-0.20667487 -0.47140449 1.3181624
-0.201603 -0.47040698 1.3153732
-0.19781739 -0.47243446 1.3210425
-0.19399901 -0.4744795 1.3267609
-0.19014642 -0.47653979 1.332522
-0.18626158 -0.47862151 1.338343
-0.18234181 -0.48071936 1.3442091
-0.17838757 -0.48283568 1.3501269
-0.17439832 -0.48497069 1.3560969
-0.2361352 -0.46993241 1.3271213
-0.23091534 -0.46882811 1.3240026
-0.22572 -0.46772909 1.3208989
-0.220549 -0.46663526 1.3178098
-0.21540208 -0.46554643 1.3147349
-0.21027914 -0.46446273 1.3116745
-0.20553929 -0.46419549 1.3109198
-0.20178348 -0.46618941 1.3165507
-0.19799523 -0.4682005 1.3222302
-0.19417413 -0.47022891 1.3279586
-0.19031818 -0.47227103 1.3337257
-0.18643117 -0.47433752 1.3395616
-0.18250859 -0.47641852 1.3454385
-0.17855142 -0.4785178 1.351367
-0.17455924 -0.4806357 1.3573481
-0.17053156 -0.48277244 1.3633823
-0.24041879 -0.46449846 1.324959
-0.23519941 -0.4634127 1.321862
-0.23000436 -0.46233201 1.3187793
-0.2248335 -0.46125636 1.3157111
-0.21968666 -0.46018574 1.3126572
-0.21456364 -0.45912004 1.3096174
-0.20946428 -0.45805925 1.3065915
-0.20572297 -0.45998731 1.3120912
-0.20196427 -0.46196428 1.3177304
-0.19817342 -0.46395895 1.3234202
-0.19434814 -0.46596724 1.3291487
-0.19049023 -0.46799451 1.3349314
-0.18660106 -0.47004569 1.3407823
-0.18267563 -0.47210976 1.3466699
-0.17871557 -0.47419199 1.3526094
-0.17472012 -0.47629184 1.3585991
-0.17068969 -0.47841191 1.3646466
-0.24037059 -0.4597379 1.3246933
-0.23515233 -0.45866346 1.3215975
-0.22995846 -0.4575941 1.3185161
-0.22478874 -0.45652974 1.3154492
-0.21964303 -0.45547026 1.3123965
-0.2145211 -0.45441565 1.3093578
-0.20963517 -0.45382556 1.3076575
-0.2059055 -0.45576835 1.3132554
-0.20214394 -0.45772824 1.3189026
-0.1983525 -0.4597111 1.3246161
-0.19703835 -0.46766934 1.3475471
-0.19184841 -0.46659431 1.3444494
-0.18677008 -0.46574312 1.3419968
-0.182843 -0.46779314 1.3479037
-0.17887907 -0.4698557 1.3538468
-0.17488182 -0.47194132 1.3598564
-0.17084813 -0.47404343 1.3659134
-0.16677837 -0.47616434 1.3720247
-0.24032238 -0.45497927 1.3244277
-0.23510529 -0.45391616 1.3213331
-0.22991259 -0.45285812 1.3182532
-0.22474399 -0.45180494 1.3151873
-0.21959937 -0.45075661 1.3121357
-0.21447851 -0.44971299 1.3090978
-0.20982167 -0.44961786 1.3088208
-0.20609018 -0.45154592 1.3144333
-0.20232616 -0.45348969 1.3200916
-0.20314971 -0.46604934 1.3566523
-0.19791234 -0.46497476 1.3535242
-0.1926991 -0.46390527 1.3504109
-0.18750969 -0.46284035 1.347311
-0.18300885 -0.46346396 1.3491263
-0.17904364 -0.46551344 1.3550923
-0.17504361 -0.46758226 1.3611145
-0.1710069 -0.46966687 1.3671827
-0.16693406 -0.4717702 1.3733054
-0.2455146 -0.45127922 1.32727
-0.24027419 -0.45022252 1.3241621
-0.23505829 -0.4491708 1.3210689
-0.2298667 -0.44812399 1.3179901
-0.22469924 -0.44708198 1.3149254
-0.21955568 -0.44604468 1.3118746
-0.21443595 -0.44501224 1.308838
-0.21000852 -0.44540268 1.3099864
-0.20627449 -0.44731435 1.3156089
-0.202508 -0.44924188 1.321278
-0.20367531 -0.46246275 1.3601623
-0.19842464 -0.46139705 1.3570279
-0.19319773 -0.46033531 1.3539052
-0.18799479 -0.4592784 1.3507967
-0.1831781 -0.4591347 1.350374
-0.17920969 -0.46116626 1.3563491
-0.17520571 -0.46321508 1.3623749
-0.17116597 -0.46528214 1.3684545
-0.16709003 -0.46736777 1.3745885
-0.24546525 -0.44651297 1.3270032
-0.24022605 -0.44546771 1.3238968
-0.23501129 -0.44442728 1.3208047
-0.22982083 -0.44339171 1.3177271
-0.22465447 -0.44236085 1.3146634
-0.219512 -0.44133466 1.3116137
-0.21439336 -0.44031325 1.3085781
-0.21019566 -0.4411799 1.3111538
-0.20645915 -0.44307524 1.3167865
-0.20269035 -0.44498685 1.3224677
-0.20393921 -0.45826343 1.3619246
-0.19868328 -0.45721093 1.3587967
-0.19345117 -0.45616263 1.3556813
-0.18824279 -0.45511866 1.3525786
-0.18334672 -0.45479509 1.3516171
-0.17937505 -0.45680848 1.3576007
-0.1753681 -0.45883983 1.3636377
-0.17132533 -0.46088925 1.3697284
-0.16724628 -0.46295708 1.3758739
-0.16313048 -0.4650436 1.3820748
-0.24541597 -0.44174874 1.3267368
-0.24017791 -0.44071481 1.3236315
-0.23496431 -0.43968567 1.3205407
-0.22977494 -0.43866125 1.3174639
-0.22460967 -0.4376415 1.3144013
-0.21946836 -0.43662652 1.3113528
-0.21435083 -0.4356162 1.3083185
-0.21038316 -0.43694964 1.3123233
-0.20664409 -0.43882847 1.3179661
-0.20287272 -0.44072351 1.3236576
-0.20394607 -0.45348009 1.3619704
-0.19869308 -0.45244569 1.3588637
-0.19346444 -0.45141703 1.3557743
-0.18825921 -0.45039231 1.3526967
-0.18351407 -0.45044363 1.3528508
-0.17954074 -0.45244268 1.3588547
-0.17553078 -0.45445639 1.3649026
-0.17148499 -0.45648819 1.3710049
-0.16740283 -0.4585382 1.3771619
-0.16328387 -0.46060675 1.3833745
-0.24536668 -0.43698639 1.3264704
-0.24012978 -0.43596378 1.3233663
-0.2349173 -0.43494591 1.3202765
-0.22972904 -0.43393263 1.3172008
-0.22456491 -0.43292412 1.3141394
-0.21942472 -0.43192023 1.3110921
-0.21430831 -0.43092102 1.308059
-0.21057101 -0.43271184 1.313495
-0.20682938 -0.4345741 1.3191479
-0.20305587 -0.43645343 1.3248526
-0.19924773 -0.43834502 1.3305945
-0.19837736 -0.44694656 1.3567045
-0.19316348 -0.44594532 1.3536652
-0.18797068 -0.44494328 1.3506235
-0.18368326 -0.44608793 1.3540981
-0.17970613 -0.44806725 1.3601063
-0.17569377 -0.45006487 1.36617
-0.17164494 -0.45207891 1.3722837
-0.16755967 -0.45411098 1.3784521
-0.16343755 -0.4561615 1.3846763
-0.24531741 -0.43222594 1.3262041
-0.24008165 -0.43121463 1.323101
-0.23487025 -0.43020791 1.3200121
-0.22968316 -0.42920589 1.3169377
-0.22452016 -0.42820856 1.3138775
-0.21938109 -0.42721581 1.3108314
-0.2144714 -0.42663664 1.3090544
-0.21075916 -0.42846644 1.3146688
-0.20701382 -0.43030962 1.3203242
-0.20323852 -0.43217388 1.3260443
-0.19942662 -0.43404618 1.3317891
-0.19558373 -0.43593967 1.3375989
-0.19201459 -0.43855184 1.345614
-0.18779826 -0.43978074 1.3493845
-0.18385194 -0.44172218 1.3553416
-0.17987223 -0.44368482 1.3613635
-0.17585687 -0.44566467 1.3674383
-0.17180517 -0.44766137 1.3735648
-0.16771682 -0.44967553 1.3797449
-0.1635915 -0.45170787 1.3859807
-0.15942873 -0.45375869 1.3922733
-0.24526814 -0.42746732 1.3259376
-0.24003348 -0.42646727 1.3228356
-0.23482326 -0.42547184 1.3197479
-0.2296373 -0.42448106 1.3166747
-0.22447543 -0.42349488 1.3136157
-0.21933749 -0.42251328 1.310571
-0.21466239 -0.42240018 1.3102201
-0.21094775 -0.42421362 1.3158451
-0.20719962 -0.42603967 1.3215092
-0.20341988 -0.42788321 1.3272276
-0.19960727 -0.42974272 1.3329955
-0.1957617 -0.43161914 1.3388159
-0.19188192 -0.43351102 1.3446842
-0.18796863 -0.43542099 1.3506087
-0.1840204 -0.4373472 1.3565835
-0.18003811 -0.439293 1.362619
-0.17602006 -0.44125575 1.3687072
-0.17196572 -0.44323561 1.3748484
-0.16787425 -0.44523171 1.38104
-0.16374578 -0.4472459 1.3872877
-0.15957974 -0.44927832 1.393592
-0.24554323 -0.42326975 1.3274248
-0.24028467 -0.4222478 1.3242198
-0.23505142 -0.42123076 1.3210303
-0.22984333 -0.42021862 1.3178561
-0.22466023 -0.41921136 1.3146971
-0.21950191 -0.4182089 1.3115534
-0.21485348 -0.4181557 1.3113865
-0.21113567 -0.41995117 1.3170173
-0.20738579 -0.42176214 1.3226967
-0.20360346 -0.42358881 1.3284254
-0.19978821 -0.42543137 1.3342038
-0.19593978 -0.42729035 1.3400339
-0.19205737 -0.42916524 1.3459138
-0.18814187 -0.43105921 1.3518535
-0.18419215 -0.43297118 1.3578496
-0.18020491 -0.43489453 1.3638815
-0.17618331 -0.43683806 1.3699766
-0.17212574 -0.43879944 1.3761277
-0.16803199 -0.44077957 1.3823377
-0.1639003 -0.44277546 1.388597
-0.15973105 -0.4447895 1.3949133
-0.24637175 -0.42000517 1.3319038
-0.24109347 -0.41898766 1.3286772
-0.23584072 -0.41797513 1.3254663
-0.23061329 -0.41696745 1.3222708
-0.22541101 -0.41596466 1.3190907
-0.22023366 -0.41496661 1.3159257
-0.21508101 -0.41397312 1.3127753
-0.21132475 -0.41568276 1.3181968
-0.20757236 -0.41747698 1.3238865
-0.20378739 -0.41928667 1.3296254
-0.19996947 -0.42111218 1.3354143
-0.19611821 -0.4229537 1.3412541
-0.19223315 -0.42481154 1.3471456
-0.18831597 -0.42669064 1.3531045
-0.18436055 -0.42857841 1.3590909
-0.18037207 -0.43048802 1.3651466
-0.17634742 -0.43241355 1.3712528
-0.17228663 -0.43435642 1.377414
-0.16818891 -0.43631616 1.3836286
-0.16405515 -0.43829662 1.3899089
-0.15988263 -0.44029215 1.3962371
-0.15567195 -0.44230601 1.4026234
-0.24720588 -0.41671851 1.3364133
-0.24190776 -0.41570556 1.3331648
-0.23663533 -0.41469756 1.3299321
-0.23138842 -0.41369444 1.3267151
-0.22616681 -0.41269615 1.3235136
-0.22097033 -0.41170263 1.3203274
-0.21579868 -0.41071361 1.3171556
-0.21151419 -0.4114067 1.3193784
-0.2077592 -0.41318405 1.3250782
-0.20397164 -0.41497678 1.3308276
-0.20015109 -0.41678518 1.3366271
-0.19629703 -0.41860935 1.3424772
-0.19240925 -0.42044982 1.3483796
-0.18848827 -0.42230916 1.3543425
-0.18453088 -0.42418137 1.3603467
-0.18054052 -0.42607561 1.3664215
-0.17651184 -0.42798078 1.3725313
-0.17244799 -0.42990556 1.3787041
-0.16834743 -0.43184778 1.3849328
-0.16420965 -0.43380758 1.3912178
-0.16003449 -0.43578622 1.3975633
-0.15582049 -0.43778139 1.4039618
-0.24272758 -0.41240123 1.3376828
-0.23743531 -0.41139781 1.3344282
-0.23216876 -0.41039932 1.3311894
-0.2269277 -0.40940562 1.3279662
-0.22171198 -0.40841678 1.3247588
-0.21652114 -0.40743226 1.3215653
-0.21170396 -0.407123 1.3205621
-0.2079464 -0.40888339 1.3262722
-0.20415621 -0.41065904 1.3320318
-0.200333 -0.41245028 1.337842
-0.19647625 -0.41425714 1.3437028
-0.19258566 -0.41608015 1.3496159
-0.18866102 -0.41791999 1.3555838
-0.18470156 -0.41977629 1.3616049
-0.18070683 -0.42164925 1.3676802
-0.17667753 -0.42354202 1.3738196
-0.17260966 -0.42544633 1.3799965
-0.16850597 -0.42737022 1.3862369
-0.16436499 -0.42931154 1.3925339
-0.1601866 -0.43127161 1.3988917
-0.15596932 -0.43324813 1.4053028
-0.24355295 -0.40907437 1.3422315
-0.23824073 -0.40807572 1.3389548
-0.23295438 -0.4070819 1.335694
-0.22769372 -0.40609291 1.332449
-0.22245851 -0.40510866 1.3292195
-0.21724848 -0.40412891 1.3260047
-0.21206357 -0.40315381 1.3228053
-0.20813394 -0.40457496 1.3274683
-0.20434114 -0.40633354 1.3332385
-0.20051524 -0.40810749 1.339059
-0.19665577 -0.40989697 1.3449305
-0.19276239 -0.41170239 1.3508544
-0.18883494 -0.4135246 1.3568333
-0.1848726 -0.41536313 1.3628658
-0.18087487 -0.41721803 1.368952
-0.17684247 -0.41909242 1.3751022
-0.17277163 -0.42097875 1.3812915
-0.1686648 -0.4228842 1.3875436
-0.16452061 -0.42480695 1.3938524
-0.1603386 -0.42674735 1.4002191
-0.15611845 -0.42870626 1.4066465
-0.1518589 -0.43068177 1.4131285
-0.23905161 -0.40473095 1.3435121
-0.23374535 -0.40374199 1.3402292
-0.22846496 -0.40275782 1.3369622
-0.22321014 -0.40177825 1.3337106
-0.2179807 -0.40080324 1.3304739
-0.21277657 -0.3998329 1.3272529
-0.20832181 -0.40025878 1.3286666
-0.20452641 -0.40200019 1.3344473
-0.20069781 -0.40375677 1.3402783
-0.19683564 -0.40552884 1.3461607
-0.19293946 -0.40731663 1.3520952
-0.18900917 -0.4091211 1.3580853
-0.18504548 -0.41094518 1.3641403
-0.18104324 -0.41277856 1.3702263
-0.17700666 -0.41463202 1.3763789
-0.17293464 -0.41650453 1.3825947
-0.16882393 -0.41838971 1.3888526
-0.16467655 -0.42029387 1.3951734
-0.16049126 -0.42221546 1.4015522
-0.15626749 -0.42415464 1.4079894
-0.1520049 -0.42611209 1.4144871
-0.23986806 -0.4013634 1.3481007
-0.23454171 -0.4003793 1.3447952
-0.22924142 -0.3994 1.341506
-0.22396687 -0.39842525 1.338232
-0.21871789 -0.3974551 1.3349735
-0.21349441 -0.39648962 1.3317306
-0.20851003 -0.39593479 1.329867
-0.20471199 -0.39765891 1.3356581
-0.20088074 -0.39939815 1.3414998
-0.19701582 -0.40115267 1.3473929
-0.19311686 -0.40292284 1.3533385
-0.18918371 -0.40470949 1.3593395
-0.1852164 -0.4065139 1.3654002
-0.1812119 -0.40833083 1.3715029
-0.17717229 -0.410166 1.3776668
-0.17309715 -0.41201997 1.383894
-0.16898336 -0.41388679 1.3901643
-0.16483277 -0.4157722 1.396497
-0.1606442 -0.4176749 1.4028878
-0.15641712 -0.41959512 1.4093374
-0.15215099 -0.42153305 1.4158466
-0.2406901 -0.39797273 1.3527206
-0.23534352 -0.39699361 1.3493925
-0.23002319 -0.39601931 1.3460809
-0.22472873 -0.39504945 1.3427843
-0.21946007 -0.39408422 1.3395034
-0.21421713 -0.39312375 1.3362387
-0.20899966 -0.3921679 1.3329898
-0.20489794 -0.39330983 1.3368713
-0.20106399 -0.3950316 1.3427236
-0.1971963 -0.39676848 1.3486273
-0.19329457 -0.39852092 1.3545839
-0.18935859 -0.40028965 1.3605959
-0.18538748 -0.40207416 1.3666614
-0.18138088 -0.40387475 1.3727818
-0.17733826 -0.40569162 1.3789574
-0.17325911 -0.40752494 1.3851888
-0.16914311 -0.40937534 1.3914784
-0.16498928 -0.41124192 1.397823
-0.16079743 -0.41312572 1.4042261
-0.15656702 -0.41502684 1.410688
-0.15229747 -0.41694552 1.4172096
-0.14798826 -0.41888201 1.4237919
-0.25462809 -0.40789938 1.4032671
-0.24916415 -0.40705034 1.4003463
-0.23615083 -0.3935847 1.3540214
-0.23081027 -0.39261541 1.3506868
-0.22549579 -0.39165056 1.3473675
-0.22020732 -0.39069042 1.3440644
-0.21494472 -0.38973492 1.3407773
-0.2097078 -0.38878411 1.3375063
-0.20508419 -0.38895276 1.3380865
-0.20124756 -0.39065704 1.3439496
-0.19737716 -0.39237627 1.3498641
-0.19347262 -0.39411089 1.3558316
-0.18953377 -0.39586166 1.3618547
-0.18555976 -0.39762807 1.3679315
-0.18155019 -0.3994104 1.3740631
-0.17750454 -0.40120888 1.3802503
-0.17342229 -0.40302363 1.3864934
-0.16930361 -0.40485644 1.3927988
-0.16514611 -0.40670308 1.3991517
-0.16095097 -0.40856788 1.4055669
-0.1567172 -0.4104498 1.4120412
-0.15244423 -0.41234916 1.4185754
-0.25843316 -0.4011867 1.3971087
-0.2529853 -0.4003554 1.3942137
-0.24756013 -0.39952773 1.3913314
-0.23696367 -0.39015231 1.358682
-0.23160277 -0.38918817 1.3553245
-0.2262681 -0.38822842 1.3519822
-0.22095965 -0.38727337 1.3486563
-0.21567729 -0.38632306 1.3453469
-0.21042077 -0.38537738 1.3420537
-0.20527081 -0.38458782 1.3393041
-0.20143148 -0.38627449 1.3451778
-0.19755833 -0.38797599 1.3511032
-0.19365099 -0.38969275 1.3570817
-0.18970928 -0.39142549 1.3631158
-0.18573236 -0.39317372 1.3692039
-0.18171996 -0.39493805 1.3753481
-0.1776711 -0.39671767 1.3815455
-0.17358579 -0.39851382 1.3878006
-0.16946328 -0.40032628 1.3941123
-0.16530322 -0.40215561 1.4004828
-0.1611048 -0.40400127 1.4069102
-0.15686767 -0.40586397 1.413397
-0.15259127 -0.4077439 1.4199437
-0.262205 -0.39453274 1.3910042
-0.25677323 -0.39371896 1.3881351
-0.2513639 -0.3929086 1.385278
-0.24597673 -0.39210153 1.3824325
-0.23778215 -0.38669622 1.3633749
-0.23240069 -0.38573721 1.3599938
-0.2270457 -0.38478273 1.3566285
-0.22171718 -0.38383296 1.3532799
-0.21641485 -0.38288781 1.3499477
-0.21113862 -0.3819474 1.346632
-0.20588821 -0.38101152 1.3433324
-0.20161574 -0.38188392 1.3464082
-0.19773985 -0.38356766 1.3523446
-0.1938297 -0.38526642 1.3583339
-0.18988512 -0.38698107 1.3643793
-0.18590529 -0.38871109 1.3704787
-0.18189065 -0.39045858 1.37664
-0.17783801 -0.39221808 1.3828434
-0.17374958 -0.39399552 1.3891101
-0.1696239 -0.39578909 1.3954337
-0.16546094 -0.3976002 1.4018191
-0.16125892 -0.39942595 1.4082562
-0.15701842 -0.40126929 1.4147552
-0.1527386 -0.40312976 1.4213147
-0.26602605 -0.38805634 1.38538
-0.2605283 -0.38714018 1.3821093
-0.25513464 -0.38634676 1.3792768
-0.2497631 -0.38555661 1.3764559
-0.24441342 -0.38476965 1.3736464
-0.2390856 -0.38398597 1.3708485
-0.23320416 -0.38226247 1.3646957
-0.2278287 -0.38131329 1.361307
-0.22247988 -0.38036883 1.3579352
-0.2171575 -0.37942904 1.3545802
-0.21186134 -0.37849385 1.3512415
-0.20659123 -0.3775633 1.3479193
-0.20180033 -0.37748533 1.347641
-0.19792169 -0.3791512 1.3535882
-0.19400874 -0.38083196 1.3595886
-0.1900613 -0.38252845 1.3656452
-0.18607855 -0.38424012 1.371756
-0.18206 -0.3859672 1.3779217
-0.17800522 -0.38771001 1.3841436
-0.17391369 -0.38946867 1.3904221
-0.16978484 -0.39124334 1.3967577
-0.16561823 -0.39303428 1.4031515
-0.16141334 -0.39484185 1.4096047
-0.15716948 -0.39666581 1.4161162
-0.15288623 -0.3985067 1.4226884
-0.26696298 -0.38452464 1.3902593
-0.26140192 -0.38355234 1.3867439
-0.25586894 -0.38258496 1.3832463
-0.25036377 -0.38162243 1.3797662
-0.24488626 -0.38066477 1.3763038
-0.23943616 -0.3797119 1.3728586
-0.23401314 -0.37876356 1.3694298
-0.22861712 -0.37781987 1.3660179
-0.22324787 -0.37688079 1.3626227
-0.21790524 -0.3759464 1.3592443
-0.21258907 -0.37501666 1.3558829
-0.2072991 -0.37409148 1.3525379
-0.20203516 -0.37317082 1.3492092
-0.19810386 -0.37472659 1.3548341
-0.19418809 -0.37638927 1.3608456
-0.19023779 -0.37806752 1.3669133
-0.18625212 -0.3797608 1.3730354
-0.18223058 -0.38146934 1.3792127
-0.17817274 -0.38319343 1.3854462
-0.17407811 -0.38493326 1.3917366
-0.16994609 -0.38668895 1.3980843
-0.16577622 -0.3884607 1.4044901
-0.16156818 -0.39024928 1.4109569
-0.15732081 -0.39205346 1.4174799
-0.15303412 -0.3938747 1.4240646
-0.26232347 -0.38000131 1.3916328
-0.2567687 -0.3790395 1.3881105
-0.25124198 -0.3780826 1.3846061
-0.24574308 -0.37713048 1.3811193
-0.24027169 -0.37618294 1.3776493
-0.2348277 -0.37524015 1.3741965
-0.22941093 -0.37430203 1.370761
-0.22402115 -0.37336859 1.3673426
-0.21865816 -0.37243974 1.363941
-0.21332179 -0.37151545 1.3605561
-0.20801184 -0.37059578 1.3571881
-0.20272809 -0.36968064 1.3538367
-0.19828638 -0.37029386 1.3560823
-0.19436778 -0.37193835 1.3621048
-0.19041464 -0.37359834 1.368184
-0.18642601 -0.37527314 1.3743174
-0.18240149 -0.37696308 1.3805063
-0.1783406 -0.3786684 1.3867514
-0.17424284 -0.3803893 1.3930537
-0.17010765 -0.38212588 1.3994133
-0.16593455 -0.38387841 1.4058315
-0.16172297 -0.38564709 1.4123087
-0.15747245 -0.38743222 1.4188461
-0.15318231 -0.38923374 1.4254436
-0.26325157 -0.37642512 1.3965563
-0.25767481 -0.37546903 1.3930091
-0.25212637 -0.3745178 1.38948
-0.24660583 -0.37357122 1.3859681
-0.2411131 -0.37262934 1.3824737
-0.23564795 -0.37169212 1.3789966
-0.23021026 -0.37075967 1.3755372
-0.22479977 -0.36983189 1.372095
-0.21941628 -0.36890867 1.3686699
-0.21405959 -0.36799008 1.3652618
-0.20872948 -0.36707598 1.3618704
-0.20342575 -0.36616635 1.3584957
-0.19846924 -0.36585292 1.3573328
-0.1945478 -0.36747918 1.3633664
-0.1905918 -0.36912081 1.3694569
-0.18660024 -0.3707771 1.3756018
-0.18257274 -0.37244838 1.3818023
-0.17850932 -0.37413597 1.3880634
-0.17440785 -0.37583664 1.3943729
-0.1702695 -0.37755412 1.4007449
-0.16609316 -0.37928736 1.4071753
-0.16187827 -0.38103655 1.4136648
-0.15762433 -0.38280198 1.4202147
-0.26418626 -0.3728236 1.4015149
-0.25858739 -0.37187329 1.3979424
-0.25301692 -0.37092775 1.394388
-0.24747463 -0.36998683 1.3908509
-0.24196038 -0.36905068 1.3873317
-0.23647395 -0.36811924 1.3838303
-0.23101518 -0.36719254 1.3803467
-0.22558378 -0.36627045 1.3768803
-0.22017962 -0.36535299 1.3734314
-0.21480246 -0.36444011 1.3699998
-0.20945208 -0.36353177 1.3665851
-0.20412828 -0.36262786 1.3631872
-0.19883087 -0.36172843 1.3598061
-0.19472817 -0.36301178 1.3646303
-0.19076928 -0.36463496 1.3707322
-0.18677479 -0.36627263 1.3768885
-0.18274429 -0.36792517 1.3831007
-0.17867723 -0.36959264 1.389369
-0.17457321 -0.37127542 1.395695
-0.17043167 -0.37297365 1.402079
-0.16625206 -0.37468746 1.4085215
-0.16203387 -0.37641713 1.4150237
-0.15777655 -0.37816283 1.421586
-0.2595064 -0.36825195 1.4029107
-0.25391376 -0.36731213 1.3993304
-0.24834956 -0.36637709 1.3957682
-0.24281366 -0.36544681 1.3922242
-0.23730578 -0.36452124 1.3886981
-0.23182574 -0.36360037 1.3851899
-0.2263733 -0.3626841 1.3816992
-0.22094828 -0.36177245 1.3782262
-0.21555048 -0.36086541 1.3747706
-0.21017964 -0.35996285 1.3713322
-0.20483562 -0.35906482 1.367911
-0.19951816 -0.35817116 1.3645065
-0.19490887 -0.35853606 1.3658967
-0.1909471 -0.36014074 1.3720099
-0.18694966 -0.36175972 1.3781776
-0.18291615 -0.36339343 1.3844014
-0.17884605 -0.36504194 1.3906817
-0.17473888 -0.36670554 1.3970195
-0.17059414 -0.36838445 1.4034156
-0.1664113 -0.37007886 1.4098706
-0.16218977 -0.37178886 1.4163852
-0.25687262 -0.3666046 1.4156368
-0.2509855 -0.36529574 1.4105827
-0.24514027 -0.36399615 1.4055643
-0.23933648 -0.3627058 1.4005816
-0.2335737 -0.36142457 1.3956342
-0.22785147 -0.36015233 1.3907214
-0.2221694 -0.35888904 1.3858433
-0.21652707 -0.3576346 1.3809993
-0.21092403 -0.3563889 1.376189
-0.20554784 -0.35547686 1.3726672
-0.20021021 -0.35458916 1.3692394
-0.19508991 -0.35405204 1.3671653
-0.19112523 -0.35563809 1.3732898
-0.18712486 -0.35723838 1.3794693
-0.18308835 -0.35885316 1.3857048
-0.17901517 -0.36048263 1.3919969
-0.17490484 -0.36212692 1.3983463
-0.17075695 -0.36378655 1.4047549
-0.16657083 -0.36546138 1.4112222
-0.24423523 -0.36509392 1.4292488
-0.23833725 -0.36377791 1.4240971
-0.23248166 -0.3624714 1.4189824
-0.22666797 -0.36117423 1.4139043
-0.22089572 -0.35988629 1.4088624
-0.21516387 -0.35860646 1.4038521
-0.20947263 -0.35733566 1.3988773
-0.20382155 -0.3560738 1.3939375
-0.19821028 -0.35482088 1.3890326
-0.19263837 -0.35357675 1.3841621
-0.1873004 -0.35270855 1.3807633
-0.18326087 -0.35430434 1.3870105
-0.17918463 -0.35591468 1.3933145
-0.17507115 -0.35753968 1.399676
-0.17092003 -0.35917976 1.4060965
-0.20797019 -0.3583101 1.42231
-0.2022302 -0.35702369 1.4172037
-0.1965313 -0.35574654 1.4121339
-0.19087301 -0.35447845 1.4071003
-0.18525492 -0.35321939 1.4021025
-0.17967659 -0.35196921 1.3971399
-0.17523779 -0.35294372 1.4010082
