# .PCD v0.7 - Point Cloud Data file format
VERSION 0.7
FIELDS x y z
SIZE 4 4 4
TYPE F F F
COUNT 1 1 1
WIDTH 580
HEIGHT 1
VIEWPOINT 0 0 0 1 0 0 0
POINTS 580
DATA ascii
-0.14934058 -0.4235397 1.3896943
-0.14427435 -0.42304173 1.3880605
-0.13930956 -0.42281669 1.3873221
-0.13471223 -0.42373121 1.3903227
-0.13009503 -0.4246498 1.3933368
-0.12545775 -0.4255724 1.3963639
-0.1208003 -0.42649904 1.3994043
-0.15936418 -0.41925037 1.3917096
-0.1542788 -0.41875672 1.3900709
-0.14920539 -0.41826427 1.3884362
-0.14414391 -0.41777301 1.3868054
-0.13909428 -0.41728282 1.3851782
-0.13449985 -0.41817224 1.3881307
-0.12988946 -0.41907731 1.3911351
-0.1252591 -0.4199864 1.3941528
-0.12060859 -0.42089936 1.3971834
-0.11593782 -0.42181632 1.4002273
-0.11124665 -0.4227373 1.4032844
-0.10653497 -0.4236623 1.406355
-0.17453355 -0.41543901 1.3953779
-0.16941687 -0.41494858 1.3937306
-0.16431229 -0.41445935 1.3920873
-0.1592197 -0.41397122 1.3904479
-0.1541391 -0.41348425 1.3888122
-0.14907044 -0.41299844 1.3871804
-0.14401367 -0.41251373 1.3855524
-0.13896877 -0.41203019 1.3839283
-0.13428821 -0.41263106 1.3859465
-0.12968455 -0.41352242 1.3889405
-0.12506105 -0.41441798 1.3919485
-0.12041748 -0.41531745 1.3949696
-0.11575372 -0.41622081 1.3980038
-0.11106963 -0.41712818 1.4010514
-0.10636505 -0.41803938 1.404112
-0.10188846 -0.41997924 1.4106276
-0.17996226 -0.4116945 1.3993613
-0.17437489 -0.41014943 1.3941095
-0.16926308 -0.4096657 1.3924654
-0.16416328 -0.40918308 1.3908249
-0.15907548 -0.40870163 1.3891884
-0.15399964 -0.40822127 1.3875557
-0.14893574 -0.40774211 1.385927
-0.14388368 -0.40726396 1.3843018
-0.13884348 -0.40678704 1.3826807
-0.13407727 -0.40710732 1.3837694
-0.12948033 -0.40798518 1.3867532
-0.12486365 -0.40886724 1.3897513
-0.12022699 -0.4097532 1.3927628
-0.11557021 -0.41064307 1.3957875
-0.11089315 -0.41153678 1.3988252
-0.10619568 -0.4124344 1.4018762
-0.10147769 -0.41333595 1.4049406
-0.098027512 -0.41975886 1.4267722
-0.18001622 -0.40688598 1.3997809
-0.17421645 -0.4048692 1.3928427
-0.16910952 -0.40439233 1.3912021
-0.16401453 -0.40391639 1.3895648
-0.15893154 -0.40344158 1.3879313
-0.15386045 -0.40296784 1.3863015
-0.14880127 -0.40249524 1.3846756
-0.14375393 -0.40202373 1.3830535
-0.13871843 -0.40155333 1.3814353
-0.13386698 -0.40160093 1.3815991
-0.12927681 -0.40246555 1.3845736
-0.12466684 -0.4033339 1.3875608
-0.1200371 -0.40420654 1.390563
-0.11538727 -0.40508297 1.3935781
-0.11071723 -0.40596318 1.3966062
-0.10602686 -0.40684724 1.3996476
-0.10131601 -0.40773517 1.4027022
-0.097588502 -0.41287443 1.4203825
-0.18640292 -0.40511566 1.410791
-0.18007021 -0.40207458 1.4002006
-0.17405829 -0.3995986 1.3915782
-0.16895619 -0.39912841 1.3899407
-0.16386607 -0.39865926 1.388307
-0.15878782 -0.398191 1.3866763
-0.1537215 -0.39772388 1.3850496
-0.14866704 -0.3972578 1.3834265
-0.14362441 -0.39679289 1.3818074
-0.13859358 -0.39632902 1.380192
-0.13365737 -0.39611182 1.3794357
-0.12907395 -0.3969633 1.3824009
-0.12447079 -0.39781842 1.3853788
-0.1198478 -0.39867735 1.38837
-0.11520492 -0.39954045 1.3913757
-0.11054187 -0.40040722 1.3943942
-0.10585857 -0.40127784 1.397426
-0.10115485 -0.40215221 1.400471
-0.097153112 -0.40605018 1.4140455
-0.1928909 -0.40331733 1.421976
-0.18645927 -0.4002659 1.4112176
-0.18012424 -0.39726028 1.4006207
-0.17390041 -0.39433756 1.390316
-0.16880313 -0.39387396 1.3886815
-0.16371781 -0.39341146 1.3870509
-0.15864438 -0.39294994 1.3854237
-0.1535828 -0.39248937 1.3837999
-0.14853306 -0.39202988 1.3821799
-0.14349513 -0.39157146 1.3805636
-0.13846897 -0.39111409 1.3789511
-0.13345453 -0.39065781 1.3773423
-0.12887171 -0.39147821 1.3802348
-0.12427535 -0.39232022 1.3832035
-0.11965917 -0.39316586 1.3861849
-0.11502313 -0.3940154 1.3891802
-0.11036707 -0.39486888 1.3921893
-0.1056908 -0.39572603 1.3952113
-0.1009942 -0.39658695 1.3982468
-0.096721075 -0.39928445 1.4077573
-0.093228549 -0.40567017 1.4302714
-0.19294964 -0.39842847 1.4224091
-0.18651564 -0.39541316 1.4116442
-0.18017827 -0.39244309 1.4010409
-0.17393541 -0.38951731 1.3905958
-0.16865034 -0.38862905 1.3874246
-0.16356979 -0.38817307 1.3857968
-0.15850116 -0.38771823 1.3841729
-0.15344435 -0.38726434 1.3825525
-0.14839932 -0.38681135 1.3809353
-0.14336607 -0.38635942 1.3793219
-0.13834459 -0.38590857 1.3777124
-0.1333348 -0.3854588 1.3761066
-0.1286701 -0.38601032 1.3780756
-0.12408052 -0.38683924 1.381035
-0.11947118 -0.38767177 1.3840071
-0.11484195 -0.38850787 1.386992
-0.11019282 -0.38934797 1.3899912
-0.10552358 -0.39019182 1.3930038
-0.10083404 -0.39103934 1.3960295
-0.096292868 -0.39257863 1.4015248
-0.092810005 -0.39883217 1.4238503
-0.19300845 -0.39353672 1.4228426
-0.18657205 -0.39055747 1.4120711
-0.18023236 -0.38762301 1.4014615
-0.17398722 -0.38473231 1.39101
-0.16849783 -0.38339359 1.3861699
-0.16342205 -0.3829442 1.3845451
-0.15835816 -0.38249585 1.3829241
-0.15330611 -0.38204855 1.3813069
-0.14826582 -0.3816022 1.379693
-0.14323726 -0.38115677 1.3780826
-0.13822041 -0.38071236 1.3764758
-0.13321528 -0.38026905 1.374873
-0.12846912 -0.3805595 1.3759232
-0.12388629 -0.38137546 1.3788732
-0.11928377 -0.38219491 1.3818361
-0.1146614 -0.3830179 1.3848115
-0.11001913 -0.38384452 1.3878002
-0.10535687 -0.38467512 1.3908032
-0.10067441 -0.38550931 1.3938193
-0.095971584 -0.38634714 1.3968486
-0.092394747 -0.3920534 1.4174796
-0.19306743 -0.38864222 1.4232774
-0.18662849 -0.38569888 1.4124984
-0.18028648 -0.38280004 1.4018823
-0.1740391 -0.3799445 1.3914248
-0.16834559 -0.37816763 1.3849175
-0.16327457 -0.37772477 1.3832957
-0.1582154 -0.37728292 1.3816775
-0.15316808 -0.37684208 1.3800632
-0.14813253 -0.37640232 1.3784527
-0.14310867 -0.37596345 1.3768455
-0.13809648 -0.3755255 1.3752416
-0.13309596 -0.3750886 1.3736416
-0.12826879 -0.37512571 1.3737775
-0.12369269 -0.37592876 1.3767184
-0.11909694 -0.37673521 1.3796718
-0.11448145 -0.37754521 1.3826381
-0.10984606 -0.37835863 1.385617
-0.10519071 -0.37917581 1.3886096
-0.10051528 -0.37999678 1.3916162
-0.095819563 -0.38082135 1.3946359
-0.091982886 -0.38533372 1.4111611
-0.1931265 -0.38374487 1.4237128
-0.186685 -0.38083738 1.412926
-0.18034062 -0.37797418 1.4023033
-0.17409097 -0.37515378 1.3918395
-0.16819364 -0.37295112 1.3836675
-0.16312735 -0.37251469 1.3820484
-0.15807292 -0.37207934 1.3804332
-0.15303031 -0.37164503 1.3788218
-0.14799944 -0.37121171 1.3772142
-0.14298028 -0.37077937 1.3756102
-0.13797276 -0.37034795 1.3740096
-0.13297684 -0.36991742 1.3724123
-0.12806906 -0.36970878 1.3716383
-0.12349968 -0.37049901 1.3745701
-0.11891071 -0.37129262 1.3775144
-0.11430205 -0.37208962 1.3804713
-0.10967355 -0.37289008 1.3834411
-0.10502509 -0.37369391 1.3864233
-0.10035665 -0.37450165 1.38942
-0.09566801 -0.37531295 1.3924301
-0.091574684 -0.37867367 1.4048985
-0.19318561 -0.37884453 1.4241487
-0.18674169 -0.37597328 1.4133551
-0.1803948 -0.3731454 1.4027246
-0.17414287 -0.3703602 1.3922545
-0.16804194 -0.36774397 1.3824196
-0.16298041 -0.36731407 1.3808035
-0.1579307 -0.36688516 1.3791912
-0.15289275 -0.36645725 1.3775826
-0.14786658 -0.3660304 1.3759779
-0.14285208 -0.36560449 1.3743769
-0.13784924 -0.36517957 1.3727795
-0.13285796 -0.36475548 1.3711853
-0.12787825 -0.36433235 1.3695947
-0.12330727 -0.3650862 1.3724285
-0.11872505 -0.36586702 1.3753637
-0.11412319 -0.36665109 1.3783113
-0.10950158 -0.36743861 1.3812717
-0.10486006 -0.36822951 1.3842448
-0.10019851 -0.36902377 1.3872306
-0.09551695 -0.36982203 1.3902314
-0.09117008 -0.37207249 1.3986913
-0.087613381 -0.37798917 1.4209332
-0.18679844 -0.37110624 1.4137846
-0.18044911 -0.36831397 1.403147
-0.17419483 -0.36556378 1.3926698
-0.16803333 -0.36285457 1.3823487
-0.16283372 -0.36212277 1.3795607
-0.15778872 -0.3617003 1.3779513
-0.15275548 -0.36127883 1.3763456
-0.14773397 -0.36085841 1.3747439
-0.14272413 -0.36043888 1.3731457
-0.13772589 -0.36002031 1.3715512
-0.13273928 -0.35960278 1.3699604
-0.12776415 -0.35918599 1.3683727
-0.12311546 -0.35969025 1.3702937
-0.11853997 -0.36045828 1.3732196
-0.11394491 -0.3612296 1.3761581
-0.10933015 -0.36200425 1.3791093
-0.10469555 -0.36278227 1.3820732
-0.10004099 -0.36356357 1.3850497
-0.095366351 -0.36434835 1.3880395
-0.090769038 -0.36552936 1.3925387
-0.087222077 -0.37131682 1.4145869
-0.083562143 -0.37729573 1.4373645
-0.1868552 -0.36623618 1.4142141
-0.18050356 -0.36347976 1.4035703
-0.17424679 -0.36076447 1.3930852
-0.16808309 -0.35809004 1.382758
-0.1626873 -0.35694081 1.3783202
-0.15764701 -0.3565248 1.3767138
-0.15261845 -0.35610971 1.375111
-0.14760157 -0.35569561 1.3735119
-0.14259638 -0.35528252 1.3719168
-0.13760278 -0.35487032 1.3703251
-0.13262075 -0.35445908 1.3687371
-0.12765025 -0.35404882 1.3671528
-0.12292423 -0.35431102 1.3681654
-0.11835548 -0.35506642 1.3710823
-0.11376719 -0.35582507 1.3740118
-0.10915925 -0.3565869 1.3769536
-0.10453154 -0.35735202 1.3799081
-0.099883929 -0.35812044 1.3828753
-0.095216289 -0.35889214 1.3858553
-0.090528555 -0.35966748 1.3888493
-0.086834252 -0.36470383 1.4082971
-0.083184473 -0.37054899 1.430868
-0.079416446 -0.37658766 1.4541862
-0.18691203 -0.36136323 1.4146442
-0.18055801 -0.35864264 1.4039937
-0.17429897 -0.35596269 1.3935025
-0.16813287 -0.35332271 1.3831676
-0.16254115 -0.35176817 1.377082
-0.15750556 -0.35135853 1.3754784
-0.15248166 -0.35094985 1.3738785
-0.14746943 -0.3505421 1.3722823
-0.14246887 -0.35013536 1.37069
-0.13747987 -0.34972951 1.3691012
-0.13250244 -0.34932461 1.367516
-0.12776254 -0.34953904 1.3683555
-0.12310307 -0.34999895 1.3701559
-0.11843151 -0.35046059 1.3719631
-0.11374762 -0.35092351 1.3737754
-0.10905134 -0.35138765 1.3755924
-0.10436805 -0.35193878 1.3777499
-0.099727377 -0.35269439 1.3807079
-0.095066734 -0.35345322 1.3836786
-0.090385981 -0.35421532 1.386662
-0.086449854 -0.35814941 1.4020629
-0.08281035 -0.36386368 1.4244328
-0.079053104 -0.36976451 1.447533
-0.18696886 -0.3564873 1.4150745
-0.18061252 -0.35380259 1.4044175
-0.17435117 -0.35115799 1.3939198
-0.16818276 -0.34855267 1.3835779
-0.16239525 -0.34660479 1.3758459
-0.15736435 -0.34620157 1.3742453
-0.15234512 -0.34579924 1.3726482
-0.14733754 -0.34539783 1.3710549
-0.1425456 -0.34549186 1.3714281
-0.13789515 -0.3459475 1.3732368
-0.13323244 -0.34640434 1.3750502
-0.12855738 -0.34686238 1.3768684
-0.12386996 -0.34732166 1.3786914
-0.11917003 -0.34778193 1.3805186
-0.11445788 -0.34824419 1.3823534
-0.10973317 -0.34870762 1.3841931
-0.10499587 -0.34917229 1.3860376
-0.10024594 -0.34963825 1.3878872
-0.095483303 -0.35010543 1.3897417
-0.09070792 -0.35057387 1.3916011
-0.086068839 -0.35165268 1.3958834
-0.082439587 -0.3572382 1.4180552
-0.078693189 -0.36300406 1.4409426
-0.074824572 -0.36896253 1.4645948
-0.18702573 -0.35160837 1.4155048
-0.18066703 -0.34895959 1.4048414
-0.17440343 -0.34635046 1.3943375
-0.16823277 -0.34378001 1.3839895
-0.16224962 -0.34145069 1.3746121
-0.15739517 -0.34142646 1.3745145
-0.15275389 -0.34187776 1.3763313
-0.1481003 -0.34233022 1.3781528
-0.14343441 -0.34278393 1.3799794
-0.13875613 -0.34323883 1.3818108
-0.13406539 -0.34369493 1.3836468
-0.12936218 -0.34415224 1.3854879
-0.12464645 -0.34461075 1.3873339
-0.11991783 -0.34506968 1.3891814
-0.11517705 -0.34553114 1.3910391
-0.11042359 -0.34599391 1.3929021
-0.10565736 -0.34645787 1.3947699
-0.10087835 -0.34692311 1.3966429
-0.09608648 -0.34738958 1.3985208
-0.091281779 -0.34785759 1.4004049
-0.086464025 -0.3483265 1.4022927
-0.082072131 -0.35067183 1.4117345
-0.078336783 -0.35630599 1.4344165
-0.074479803 -0.36212593 1.4578464
-0.1807216 -0.34411371 1.4052657
-0.17445569 -0.34154001 1.3947554
-0.16828284 -0.33900458 1.3844013
-0.16303492 -0.33823663 1.3812653
-0.15837878 -0.33868694 1.3831042
-0.15370978 -0.33913746 1.3849441
-0.14902832 -0.33958912 1.3867885
-0.14433439 -0.34004202 1.388638
-0.13962789 -0.34049609 1.3904923
-0.13490883 -0.34095138 1.3923516
-0.13017713 -0.34140792 1.3942159
-0.12543273 -0.34186566 1.3960853
-0.12067565 -0.34232482 1.3979603
-0.11590533 -0.34278384 1.3998349
-0.11112274 -0.3432458 1.4017214
-0.10632726 -0.34370902 1.4036131
-0.1015188 -0.34417349 1.4055098
-0.09669733 -0.34463921 1.4074117
-0.091863088 -0.34510726 1.4093231
-0.087015219 -0.34557474 1.4112321
-0.082154393 -0.34604424 1.4131495
-0.077983603 -0.34966841 1.4279495
-0.074138194 -0.35535204 1.45116
-0.070166491 -0.36122751 1.4751537
-0.18077619 -0.33926493 1.4056903
-0.17450801 -0.33672673 1.3951737
-0.16872954 -0.33501375 1.3880762
-0.16405812 -0.33546212 1.3899341
-0.15937418 -0.33591175 1.3917969
-0.15467769 -0.3363626 1.393665
-0.14996803 -0.33681342 1.395533
-0.14524572 -0.33726546 1.3974059
-0.14051069 -0.3377187 1.3992838
-0.13576294 -0.33817315 1.4011667
-0.1310024 -0.33862883 1.4030547
-0.12622899 -0.3390857 1.4049478
-0.12144268 -0.33954382 1.4068459
-0.11664288 -0.34000158 1.4087425
-0.11183082 -0.34046268 1.4106531
-0.10700569 -0.3409251 1.412569
-0.10216743 -0.34138873 1.41449
-0.097316004 -0.34185365 1.4164163
-0.092451446 -0.34232023 1.4183495
-0.087573484 -0.34278765 1.4202862
-0.082682192 -0.34325635 1.4222282
-0.077777505 -0.3437264 1.4241757
-0.073800065 -0.34864169 1.4445415
-0.069840871 -0.35437775 1.4683079
-0.18083082 -0.33441317 1.4061151
-0.17456035 -0.33191055 1.3955922
-0.16979374 -0.33220515 1.3968309
-0.16509424 -0.33265257 1.3987123
-0.16038211 -0.3331013 1.400599
-0.15565722 -0.33355117 1.4024906
-0.15091953 -0.33400223 1.4043872
-0.14616875 -0.33445394 1.4062865
-0.14140473 -0.33490595 1.408187
-0.13662794 -0.33535951 1.4100941
-0.13183819 -0.33581427 1.4120063
-0.12703542 -0.33627024 1.4139235
-0.1222196 -0.33672747 1.4158461
-0.11739018 -0.33718455 1.417768
-0.11254796 -0.33764389 1.4196993
-0.10769283 -0.33810541 1.4216399
-0.1028244 -0.33856815 1.4235857
-0.097942635 -0.3390322 1.4255369
-0.093047597 -0.33949798 1.4274954
-0.088138968 -0.3399646 1.4294573
-0.083216824 -0.34043247 1.4314245
-0.078281119 -0.34090164 1.4333973
-0.073464997 -0.34199223 1.4379829
-0.069518246 -0.34759122 1.4615252
-0.18088548 -0.32955846 1.40654
-0.17558655 -0.32891566 1.4037966
-0.17087144 -0.32936087 1.4056967
-0.16614357 -0.32980737 1.4076023
-0.16140284 -0.33025503 1.4095129
-0.15664922 -0.33070391 1.4114287
-0.15188266 -0.33115402 1.4133497
-0.14710312 -0.33160532 1.4152759
-0.14231035 -0.33205748 1.4172057
-0.13750403 -0.33250976 1.4191359
-0.13268471 -0.33296353 1.4210726
-0.12785223 -0.33341858 1.4230148
-0.12300652 -0.33387482 1.424962
-0.11814775 -0.33433297 1.4269174
-0.11327437 -0.33478871 1.4288625
-0.10838886 -0.33524927 1.4308281
-0.10348989 -0.33571112 1.4327992
-0.098577358 -0.33617407 1.4347751
-0.093651496 -0.33663917 1.4367601
-0.088711798 -0.33710483 1.4387475
-0.083758421 -0.3375718 1.4407406
-0.078791291 -0.33804005 1.442739
-0.073810361 -0.33850959 1.444743
-0.069198847 -0.34086838 1.4548103
-0.18143752 -0.32559335 1.4108326
-0.17670661 -0.32603616 1.4127513
-0.17196293 -0.32648036 1.4146761
-0.16720627 -0.32692569 1.4166058
-0.16243663 -0.32737228 1.418541
-0.15765394 -0.32782012 1.4204814
-0.15285815 -0.32826915 1.4224272
-0.14804921 -0.32871944 1.4243783
-0.14322706 -0.32917094 1.4263347
-0.13839154 -0.32962349 1.4282956
-0.13354218 -0.33007595 1.4302562
-0.1286796 -0.33052996 1.4322236
-0.12380364 -0.33098522 1.4341962
-0.11891422 -0.33144176 1.4361744
-0.11401079 -0.33189809 1.4381517
-0.10909393 -0.33235595 1.4401357
-0.10416404 -0.33281681 1.4421327
-0.099221662 -0.33328301 1.4441528
-0.094263278 -0.33374295 1.4461458
-0.089292116 -0.33420765 1.4481593
-0.084307097 -0.33467364 1.4501785
-0.079308152 -0.33514091 1.4522033
-0.07429523 -0.3356095 1.4542336
-0.069268271 -0.33607939 1.4562699
-0.064831831 -0.33971879 1.4720397
-0.17784183 -0.32312107 1.4218272
-0.17306894 -0.32356367 1.4237748
-0.16828296 -0.32400748 1.4257277
-0.16348377 -0.3244524 1.4276855
-0.15867166 -0.32489911 1.4296511
-0.15384626 -0.32534701 1.431622
-0.14900754 -0.32579616 1.4335984
-0.14415546 -0.32624659 1.4355804
-0.13928993 -0.32669821 1.4375677
-0.13441092 -0.32715109 1.4395605
-0.12951781 -0.32760388 1.4415529
-0.12461115 -0.32805791 1.4435508
-0.11969092 -0.32851338 1.445555
-0.11475752 -0.32897156 1.4475712
-0.10980826 -0.32942477 1.4495654
-0.10484703 -0.32988456 1.4515885
-0.099872604 -0.33034784 1.4536271
-0.094883122 -0.3308087 1.4556551
-0.089880086 -0.33127233 1.4576951
-0.084863022 -0.33173725 1.459741
-0.079831846 -0.33220348 1.4617925
-0.074786514 -0.33267105 1.4638499
-0.069726959 -0.3331399 1.4659131
-0.064653121 -0.33361012 1.4679821
-0.17418964 -0.3206099 1.4329944
-0.1693742 -0.32105258 1.4349729
-0.1645454 -0.3214964 1.4369566
-0.15970325 -0.32194147 1.4389459
-0.15484758 -0.32238758 1.4409398
-0.14997745 -0.32283279 1.4429297
-0.14509599 -0.32328403 1.4449466
-0.14019997 -0.32373449 1.44696
-0.13529032 -0.32418627 1.4489791
-0.13036694 -0.32463923 1.4510038
-0.12542954 -0.32509288 1.4530314
-0.12047783 -0.32554647 1.4550588
-0.11551253 -0.32600203 1.4570949
-0.11053322 -0.32645857 1.4591355
-0.10553974 -0.32691577 1.461179
-0.10053328 -0.32737762 1.4632432
-0.095511146 -0.32783556 1.4652901
-0.09047585 -0.32829806 1.4673573
-0.085426316 -0.32876188 1.4694303
-0.080362715 -0.32922789 1.4715133
-0.075284638 -0.32969478 1.4736
-0.070191786 -0.33016136 1.4756855
-0.17047964 -0.31805903 1.4443384
-0.16562085 -0.31850162 1.4463483
-0.16074851 -0.31894544 1.4483638
-0.15586257 -0.31939051 1.4503849
-0.15096298 -0.3198368 1.4524115
-0.14604966 -0.32028437 1.4544439
-0.14112233 -0.32073256 1.4564792
-0.13617992 -0.32117906 1.4585068
-0.13122661 -0.32163385 1.4605721
-0.12625812 -0.32208705 1.4626302
-0.12127557 -0.32254142 1.4646934
-0.11627859 -0.32299608 1.4667581
-0.11375222 -0.33067507 1.5016291
-0.10840233 -0.33049488 1.500811
-0.10290199 -0.32981408 1.4977193
-0.096148148 -0.32482481 1.4750626
-0.091080375 -0.32528704 1.4771616
-0.085996993 -0.32574618 1.4792466
-0.080900304 -0.32621092 1.481357
-0.075789072 -0.32667702 1.4834737
-0.16671044 -0.31546745 1.4558636
-0.16180752 -0.31590992 1.4579057
-0.15689085 -0.31635368 1.4599535
-0.15196033 -0.31679866 1.462007
-0.14701591 -0.31724486 1.4640663
-0.14205757 -0.31769237 1.4661316
-0.13708521 -0.31814113 1.4682026
-0.13209876 -0.31859115 1.4702793
-0.12709787 -0.31904161 1.4723582
-0.12367891 -0.32367033 1.4937195
-0.11877791 -0.32465962 1.4982849
-0.11362075 -0.32500821 1.4998937
-0.10830619 -0.32491857 1.49948
-0.10284775 -0.32436597 1.4969299
-0.097168282 -0.32301888 1.4907131
-0.091691464 -0.32223001 1.4870725
-0.086575948 -0.32269219 1.4892054
-0.081445746 -0.3231557 1.4913445
-0.07630077 -0.3236205 1.4934895
-0.16288058 -0.31283414 1.4675741
-0.15793277 -0.31327647 1.4696492
-0.15297094 -0.31372005 1.4717301
-0.14799504 -0.31416491 1.473817
-0.143005 -0.31461099 1.4759097
-0.13800079 -0.31505838 1.4780085
-0.1329823 -0.31550702 1.4801131
-0.12794845 -0.31595433 1.4822116
-0.12340835 -0.31771088 1.4904519
-0.11859726 -0.31889486 1.4960063
-0.11348315 -0.3193363 1.4980772
-0.10820414 -0.31933418 1.4980671
-0.1027841 -0.31889427 1.4960035
-0.097447209 -0.31867871 1.4949923
-0.092312627 -0.31913793 1.4971466
-0.087163024 -0.31959775 1.4993037
-0.081998572 -0.32005894 1.5014672
-0.15898862 -0.31015816 1.4794745
-0.15399508 -0.31060025 1.4815834
-0.14898729 -0.31104365 1.4836984
-0.14396517 -0.31148827 1.4858193
-0.13892724 -0.31193098 1.487931
-0.13387646 -0.31237841 1.4900653
-0.12881091 -0.31282651 1.4922028
-0.12373082 -0.3132759 1.4943465
-0.11863575 -0.31372565 1.4964918
-0.11352607 -0.3141768 1.4986438
-0.10840259 -0.31463191 1.5008147
-0.10326378 -0.31508693 1.5029851
-0.098110087 -0.31554326 1.5051619
-0.092941441 -0.31600091 1.5073448
-0.15503304 -0.3074384 1.4915695
-0.14999257 -0.30787948 1.4937096
-0.1449378 -0.30832225 1.4958576
-0.13986847 -0.30876625 1.4980117
-0.13478452 -0.30921155 1.5001721
-0.12968589 -0.30965814 1.5023389
-0.12457251 -0.31010604 1.5045118
-0.11944415 -0.3105548 1.5066891
-0.11430126 -0.31100574 1.5088769
-0.10914338 -0.31145793 1.5110707
