# .PCD v0.7 - Point Cloud Data file format
VERSION 0.7
FIELDS x y z
SIZE 4 4 4
TYPE F F F
COUNT 1 1 1
WIDTH 1420
HEIGHT 1
VIEWPOINT 0 0 0 1 0 0 0
POINTS 1420
DATA ascii
0.34852391 -0.3086049 0.87152129
0.35094205 -0.30803213 0.86990374
0.35415557 -0.30816135 0.8702687
0.35737175 -0.30829066 0.8706339
0.36059061 -0.30842006 0.87099934
0.343831 -0.30682677 0.87520832
0.3457585 -0.30580419 0.87229145
0.34767321 -0.30478841 0.869394
0.34988794 -0.3040511 0.86729085
0.35309142 -0.30417833 0.86765373
0.35629749 -0.30430558 0.86801672
0.35950622 -0.30443293 0.86838001
0.36271766 -0.30456039 0.8687436
0.36593178 -0.30468798 0.86910748
0.36914858 -0.30481565 0.86947167
0.37236813 -0.30494344 0.86983621
0.37559032 -0.30507132 0.87020099
0.37881526 -0.30519933 0.87056613
0.38204291 -0.30532748 0.87093163
0.33909819 -0.3050335 0.87892658
0.3410497 -0.30401263 0.87598497
0.34298822 -0.30299857 0.87306303
0.34491381 -0.30199122 0.87016046
0.34682667 -0.30099055 0.86727715
0.34884018 -0.30009398 0.8646937
0.35203359 -0.30021912 0.86505431
0.35522965 -0.30034438 0.86541528
0.35842836 -0.30046973 0.86577642
0.36162969 -0.30059513 0.8661378
0.36483371 -0.30072069 0.86649954
0.36804044 -0.30084634 0.86686158
0.37124979 -0.30097207 0.86722386
0.37446186 -0.3010979 0.86758649
0.37767664 -0.30122387 0.86794943
0.38089406 -0.30134994 0.86831266
0.38411421 -0.30147609 0.86867619
0.38733706 -0.30160239 0.86904007
0.39056259 -0.30172876 0.8694042
0.33432496 -0.30322498 0.8826766
0.33630085 -0.30220583 0.8797099
0.33826348 -0.30119351 0.87676311
0.340213 -0.30018795 0.87383592
0.34214956 -0.29918909 0.87092829
0.34407327 -0.29819685 0.86803991
0.34598425 -0.29721114 0.86517054
0.34788269 -0.29623199 0.86232024
0.35098204 -0.29628354 0.86247039
0.35416818 -0.29640684 0.86282927
0.35735688 -0.29653016 0.86318827
0.36054823 -0.2966536 0.86354756
0.3637422 -0.2967771 0.8639071
0.36693883 -0.29690072 0.86426693
0.37013817 -0.29702446 0.86462712
0.37334016 -0.29714829 0.86498761
0.3765448 -0.29727221 0.86534834
0.37975216 -0.29739627 0.86570948
0.3829622 -0.29752043 0.86607087
0.38617486 -0.29764464 0.86643249
0.38939023 -0.29776901 0.86679447
0.39556497 -0.30013686 0.87368721
0.32951087 -0.30140093 0.88645875
0.33151144 -0.3003836 0.88346666
0.33349854 -0.29937309 0.88049465
0.33547229 -0.29836935 0.8775425
0.33743289 -0.29737237 0.87461025
0.33938038 -0.29638198 0.87169737
0.34131503 -0.29539821 0.86880398
0.3432368 -0.2944209 0.8659296
0.34514591 -0.29345003 0.86307418
0.34704247 -0.29248559 0.8602376
0.34993687 -0.29237148 0.85990202
0.353113 -0.29249275 0.86025864
0.35629174 -0.29261407 0.86061549
0.3594732 -0.29273558 0.86097282
0.36265722 -0.29285708 0.86133021
0.36584389 -0.2929787 0.86168796
0.36903319 -0.29310045 0.86204594
0.37222517 -0.29322228 0.86240429
0.37541977 -0.2933442 0.86276287
0.37861702 -0.29346621 0.86312175
0.38181698 -0.29358837 0.86348099
0.38501957 -0.29371059 0.86384046
0.38822484 -0.29383293 0.86420029
0.39316085 -0.2952531 0.86837721
0.32465529 -0.29956117 0.89027345
0.32668093 -0.29854572 0.88725561
0.32869282 -0.29753709 0.88425803
0.33069122 -0.29653531 0.88128084
0.33267614 -0.29554021 0.87832344
0.33464783 -0.29455176 0.87538588
0.33660635 -0.29356992 0.87246788
0.33855188 -0.29259461 0.8695693
0.34048453 -0.29162577 0.86668998
0.3424044 -0.29066327 0.86382955
0.34431159 -0.28970712 0.8609879
0.34620637 -0.28875729 0.85816509
0.34889781 -0.28848261 0.85734874
0.35206407 -0.28860188 0.85770327
0.35523301 -0.28872129 0.85805815
0.35840452 -0.28884077 0.85841322
0.36157864 -0.28896034 0.85876858
0.36475539 -0.28907999 0.85912418
0.36793476 -0.28919977 0.85948008
0.37111676 -0.2893196 0.85983622
0.37430143 -0.28943956 0.86019278
0.37748873 -0.28955963 0.86054957
0.38067865 -0.28967977 0.86090666
0.38387123 -0.28980002 0.86126399
0.38706645 -0.28992036 0.86162168
0.39078525 -0.29042795 0.86313015
0.40036952 -0.29525322 0.87747049
0.31975776 -0.2977055 0.89412105
0.32180882 -0.29669204 0.89107722
0.32384589 -0.29568538 0.88805383
0.3258692 -0.29468554 0.88505095
0.32787886 -0.29369244 0.88206834
0.32987499 -0.29270598 0.87910563
0.33185783 -0.2917262 0.87616295
0.33382738 -0.29075286 0.8732397
0.33578387 -0.28978607 0.87033606
0.33772737 -0.28882566 0.86745155
0.33965802 -0.2878716 0.86458617
0.34157598 -0.28692383 0.86173964
0.34348133 -0.28598225 0.85891175
0.34537426 -0.28504688 0.85610247
0.34786496 -0.28461677 0.85481071
0.35102141 -0.2847341 0.8551631
0.35418051 -0.28485155 0.85551584
0.35734221 -0.28496909 0.85586888
0.3605065 -0.28508672 0.85622215
0.36367342 -0.28520447 0.85657573
0.3668429 -0.28532225 0.85692954
0.370015 -0.28544015 0.85728359
0.37318972 -0.28555813 0.85763794
0.37636706 -0.28567621 0.85799259
0.37954706 -0.28579441 0.85834754
0.38272968 -0.28591266 0.85870278
0.38591489 -0.28603104 0.85905826
0.38910279 -0.28614953 0.8594141
0.39792618 -0.29037857 0.87211549
0.31918496 -0.29402754 0.89251935
0.32100567 -0.29281983 0.88885337
0.32304049 -0.29182884 0.88584524
0.3250615 -0.2908445 0.88285726
0.32706892 -0.28986675 0.87988937
0.32906285 -0.28889555 0.87694126
0.33104351 -0.28793088 0.87401301
0.33301094 -0.28697258 0.87110406
0.33496541 -0.28602067 0.86821461
0.33690688 -0.28507507 0.86534417
0.3388356 -0.28413567 0.86249268
0.34075159 -0.28320244 0.85965985
0.34265506 -0.28227532 0.85684556
0.34454614 -0.28135428 0.85404974
0.34683815 -0.28077373 0.85228753
0.34998488 -0.28088915 0.85263789
0.35313424 -0.2810047 0.8529886
0.35628614 -0.2811203 0.85333949
0.35944065 -0.28123599 0.85369068
0.36259776 -0.2813518 0.85404223
0.36575744 -0.28146768 0.85439396
0.36891973 -0.28158364 0.85474598
0.37208462 -0.28169969 0.85509825
0.3752521 -0.28181583 0.85545081
0.3784222 -0.28193209 0.85580367
0.38159493 -0.2820484 0.85615683
0.38477024 -0.28216484 0.85651022
0.38794822 -0.28228137 0.85686398
0.39551187 -0.2855626 0.86682415
0.40521589 -0.2903271 0.88128674
0.31915775 -0.29375213 0.90132326
0.31867298 -0.29041627 0.89108777
0.32020652 -0.28896686 0.88664055
0.32223898 -0.28799137 0.88364738
0.32425776 -0.28702241 0.88067436
0.32626295 -0.28605992 0.87772113
0.3282547 -0.28510383 0.87478757
0.33023319 -0.28415412 0.87187356
0.33219853 -0.28321072 0.86897892
0.33415091 -0.28227359 0.86610347
0.33609036 -0.2813426 0.86324692
0.33801705 -0.28041774 0.86040914
0.33993119 -0.27949896 0.85759008
0.34183273 -0.27858615 0.85478926
0.34372199 -0.27767932 0.85200685
0.34581739 -0.27695334 0.84977925
0.34895447 -0.27706686 0.85012758
0.35209408 -0.27718046 0.85047615
0.35523629 -0.27729416 0.85082501
0.35838112 -0.27740797 0.85117424
0.36152846 -0.27752185 0.85152364
0.36467841 -0.27763581 0.85187334
0.36783093 -0.2777499 0.85222334
0.37098601 -0.27786401 0.85257351
0.37414369 -0.27797824 0.85292399
0.37730393 -0.27809253 0.8532747
0.38046682 -0.27820694 0.85362577
0.3836323 -0.27832147 0.85397714
0.38680038 -0.27843606 0.85432875
0.39312631 -0.28080451 0.86159587
0.40273228 -0.28546157 0.87588525
0.31864071 -0.2901057 0.89986312
0.31816259 -0.28681654 0.8896606
0.31941131 -0.28513303 0.88443863
0.32144144 -0.28417286 0.88146037
0.3234579 -0.2832191 0.87850195
0.32546091 -0.2822718 0.8755635
0.32745048 -0.2813307 0.87264436
0.32942683 -0.28039587 0.86974466
0.33139005 -0.2794672 0.86686409
0.33334035 -0.27854469 0.86400259
0.3352778 -0.27762821 0.86115986
0.33720252 -0.27671775 0.85833573
0.3391147 -0.27581328 0.8555302
0.34101439 -0.27491468 0.85274285
0.34290174 -0.27402192 0.84997368
0.34480271 -0.27315539 0.84728581
0.3479301 -0.273267 0.84763199
0.35106009 -0.2733787 0.84797853
0.35419264 -0.27349052 0.84832537
0.35732776 -0.27360243 0.84867245
0.36046544 -0.27371442 0.84901983
0.36360571 -0.27382651 0.84936756
0.36674854 -0.27393869 0.84971553
0.36989388 -0.27405095 0.85006368
0.37304181 -0.27416325 0.85041207
0.37619233 -0.27427569 0.85076082
0.37934542 -0.27438819 0.8511098
0.38250113 -0.27450079 0.85145909
0.38565937 -0.27461347 0.85180861
0.39076933 -0.27610341 0.85643017
0.40027896 -0.28065535 0.87054956
0.4101046 -0.28535795 0.88513631
0.31860781 -0.28978899 0.90881312
0.3181254 -0.28647113 0.89840788
0.31765392 -0.28322837 0.88823819
0.31862009 -0.28131822 0.88224775
0.32064784 -0.28037325 0.87928414
0.32266197 -0.27943453 0.87634027
0.32466272 -0.27850214 0.87341619
0.32665014 -0.27757594 0.87051153
0.3286244 -0.27665588 0.86762607
0.33058548 -0.27574182 0.86475945
0.33253372 -0.2748338 0.86191183
0.33446917 -0.27393174 0.85908288
0.3363919 -0.27303556 0.85627234
0.33830211 -0.27214527 0.85348022
0.34019989 -0.27126071 0.85070616
0.34208542 -0.27038193 0.84795022
0.34395877 -0.26950881 0.84521198
0.34691176 -0.26948938 0.84515107
0.35003215 -0.26959923 0.84549558
0.35315511 -0.26970917 0.84584033
0.35628062 -0.2698192 0.84618545
0.35940868 -0.26992932 0.8465308
0.36253926 -0.27003953 0.84687638
0.36567241 -0.27014983 0.84722227
0.36880818 -0.27026024 0.84756857
0.37194639 -0.27037069 0.84791493
0.37508723 -0.27048123 0.84826159
0.37823057 -0.27059183 0.84860849
0.3813765 -0.27070254 0.84895569
0.38452506 -0.27081338 0.84930325
0.38844046 -0.27145839 0.85132611
0.39785451 -0.27590677 0.86527675
0.40758008 -0.28050187 0.87968761
0.41763434 -0.28525212 0.89458495
0.31808746 -0.28611887 0.90732884
0.31761172 -0.28284824 0.89695722
0.31714684 -0.27965164 0.88682026
0.31783274 -0.27752224 0.88006759
0.31985813 -0.27659228 0.87711859
0.32187 -0.27566856 0.87418926
0.32386845 -0.27475098 0.87127942
0.32585371 -0.2738395 0.86838901
0.32782575 -0.27293402 0.86551756
0.32978487 -0.27203453 0.86266512
0.33173099 -0.27114087 0.85983121
0.33366439 -0.27025306 0.85701585
0.33558515 -0.26937103 0.85421878
0.33749345 -0.26849478 0.85144007
0.33938932 -0.26762417 0.84867924
0.34127298 -0.26675925 0.84593636
0.34314451 -0.26589984 0.84321111
0.34589931 -0.26573381 0.84268457
0.3490102 -0.26584181 0.84302706
0.35212362 -0.2659499 0.84336984
0.35523957 -0.26605809 0.84371293
0.35835803 -0.26616633 0.84405619
0.36147907 -0.26627472 0.84439987
0.36460266 -0.26638317 0.84474379
0.36772874 -0.26649168 0.84508789
0.37085745 -0.26660034 0.84543246
0.3739886 -0.266709 0.84577703
0.37712231 -0.26681778 0.84612197
0.38025859 -0.26692662 0.84646714
0.3833974 -0.26703554 0.84681261
0.3865388 -0.26714459 0.84715837
0.39545906 -0.27121523 0.86006701
0.40508652 -0.27570528 0.87430567
0.41503617 -0.2803452 0.88901961
0.31804872 -0.28575951 0.91642869
0.31756875 -0.28246066 0.90584928
0.31709975 -0.27923709 0.89551139
0.31664133 -0.27608627 0.88540673
0.31704926 -0.27374497 0.87789822
0.31907234 -0.27282998 0.87496376
0.32108185 -0.27192098 0.87204868
0.3230781 -0.27101812 0.86915314
0.32506108 -0.27012119 0.86627674
0.32703099 -0.26923016 0.86341918
0.32898796 -0.26834503 0.86058056
0.33093208 -0.26746565 0.85776043
0.33286348 -0.26659203 0.85495871
0.33478227 -0.26572403 0.85217512
0.33668861 -0.2648617 0.84940958
0.33858261 -0.26400492 0.84666193
0.34046438 -0.2631537 0.84393203
0.34233409 -0.26230794 0.84121966
0.34489277 -0.26200008 0.84023243
0.34799421 -0.26210627 0.84057295
0.35109812 -0.26221251 0.84091371
0.3542046 -0.26231888 0.84125477
0.3573136 -0.26242533 0.84159619
0.36042506 -0.26253185 0.84193772
0.3635391 -0.26263845 0.84227961
0.36665568 -0.26274517 0.84262186
0.36977473 -0.26285192 0.84296423
0.37289637 -0.26295879 0.84330696
0.37602049 -0.26306573 0.84364986
0.37914711 -0.26317272 0.84399301
0.38227636 -0.26327983 0.84433651
0.38540813 -0.26338702 0.84468031
0.3930923 -0.26657984 0.85491967
0.40262324 -0.27096698 0.86898917
0.41247019 -0.27549896 0.88352323
0.42265218 -0.28018516 0.89855182
0.31752488 -0.28206524 0.91491932
0.31705177 -0.27881438 0.9043746
0.31658939 -0.27563751 0.89407003
0.31613746 -0.27253228 0.8839978
0.31626967 -0.2699863 0.87573951
0.31829035 -0.26908606 0.87281942
0.3202976 -0.26819175 0.86991864
0.32229155 -0.26730341 0.86703718
0.32427233 -0.26642093 0.86417472
0.32624006 -0.26554424 0.86133105
0.32819492 -0.26467332 0.85850608
0.33013695 -0.26380807 0.85569954
0.33206636 -0.26294848 0.85291129
0.33398318 -0.26209444 0.85014111
0.33588764 -0.26124594 0.84738886
0.3377797 -0.26040286 0.8446542
0.33965963 -0.25956523 0.84193724
0.34152749 -0.25873294 0.83923763
0.3438921 -0.25828806 0.83779454
0.34698409 -0.25839239 0.83813304
0.35007861 -0.25849685 0.83847183
0.35317564 -0.25860143 0.83881098
0.35627517 -0.25870603 0.83915031
0.35937718 -0.25881073 0.83948994
0.36248174 -0.25891554 0.83982986
0.36558878 -0.25902039 0.84017003
0.36869839 -0.25912535 0.84051049
0.3718105 -0.25923041 0.84085125
0.37492511 -0.25933555 0.84119225
0.37804219 -0.25944072 0.84153342
0.38116184 -0.25954601 0.8418749
0.38428399 -0.25965136 0.84221661
0.39075366 -0.26199958 0.84983343
0.40018874 -0.26628527 0.86373472
0.40993571 -0.27071226 0.87809426
0.42001125 -0.27528828 0.89293724
0.3170028 -0.27838317 0.91341501
0.31653643 -0.27517992 0.90290463
0.31608069 -0.27204955 0.89263344
0.3156352 -0.26898959 0.88259333
0.31549388 -0.26624605 0.87359136
0.31751221 -0.26536044 0.87068558
0.31951711 -0.26448068 0.86779892
0.32150885 -0.26360679 0.86493152
0.3234874 -0.26273859 0.8620829
0.32545295 -0.26187611 0.85925293
0.32740569 -0.26101926 0.85644156
0.32934567 -0.26016805 0.85364854
0.33127302 -0.25932232 0.85087359
0.33318791 -0.2584821 0.8481167
0.3350904 -0.25764728 0.84537756
0.33698058 -0.25681782 0.84265596
0.33885866 -0.25599366 0.83995181
0.34072468 -0.25517476 0.8372649
0.34289718 -0.25459749 0.83537072
0.34597981 -0.25470003 0.83570725
0.34906501 -0.25480273 0.83604419
0.35215262 -0.25490546 0.83638126
0.35524273 -0.25500828 0.83671862
0.35833538 -0.25511122 0.83705634
0.3614305 -0.25521418 0.83739424
0.36452812 -0.25531727 0.83773243
0.36762828 -0.25542045 0.83807099
0.37073088 -0.25552368 0.83840972
0.37383601 -0.25562701 0.83874875
0.37694365 -0.25573039 0.83908802
0.38005379 -0.25583386 0.83942753
0.38316646 -0.25593743 0.83976734
0.38844275 -0.25747353 0.84480751
0.39778352 -0.26165989 0.85854352
0.40743223 -0.26598406 0.87273175
0.4174031 -0.2704522 0.88739234
0.42771471 -0.27507302 0.90255392
0.31695285 -0.27794325 0.92263794
0.31648242 -0.27471316 0.91191554
0.31602281 -0.27155727 0.90143955
0.31557357 -0.26847306 0.89120138
0.31513456 -0.26545817 0.8811934
0.31472188 -0.2625241 0.87145376
0.31673786 -0.26165304 0.86856216
0.31874049 -0.26078767 0.86568958
0.32072991 -0.25992802 0.862836
0.32270628 -0.25907403 0.86000121
0.32466963 -0.25822562 0.85718483
0.32662025 -0.25738278 0.85438699
0.32855815 -0.25654539 0.85160732
0.33048344 -0.25571343 0.8488456
0.33239633 -0.25488687 0.84610182
0.33429685 -0.2540656 0.84337562
0.33618522 -0.25324968 0.84066707
0.33806145 -0.2524389 0.83797574
0.33992568 -0.25163329 0.83530146
0.34190801 -0.25092819 0.8329609
0.34498137 -0.25102901 0.83329552
0.34805721 -0.2511299 0.83363044
0.35113555 -0.25123087 0.83396566
0.35421634 -0.25133193 0.83430111
0.35729963 -0.25143307 0.83463681
0.36038539 -0.25153428 0.83497286
0.36347362 -0.25163558 0.83530909
0.36656436 -0.25173697 0.83564562
0.36965758 -0.25183845 0.83598244
0.37275329 -0.25193998 0.83631951
0.37585148 -0.25204158 0.83665681
0.37895218 -0.25214326 0.83699435
0.38205531 -0.25224501 0.83733213
0.386159 -0.25300074 0.83984071
0.39540711 -0.25708979 0.85341442
0.40495899 -0.26131314 0.86743397
0.41482723 -0.26567587 0.88191605
0.42503035 -0.27018657 0.89688945
0.31642729 -0.27423698 0.92110807
0.31596375 -0.27105519 0.91042107
0.31551081 -0.26794636 0.89997911
0.31506816 -0.26490805 0.88977396
0.31463543 -0.26193786 0.87979776
0.31421229 -0.25903356 0.87004274
0.31596729 -0.25796363 0.86644906
0.31796759 -0.25711253 0.86359042
0.31995472 -0.25626707 0.86075062
0.32192886 -0.25542712 0.85792947
0.32389009 -0.25459269 0.85512668
0.32583854 -0.25376365 0.85234219
0.32777438 -0.25294003 0.84957582
0.32969764 -0.25212172 0.84682727
0.33160853 -0.25130871 0.84409648
0.33350712 -0.25050089 0.84138322
0.33539355 -0.24969828 0.83868736
0.33726794 -0.2489008 0.83600879
0.33913037 -0.24810836 0.83334714
0.34098089 -0.24732091 0.83070225
0.34398866 -0.24737908 0.83089763
0.34705529 -0.24747825 0.8312307
0.3501243 -0.24757744 0.83156389
0.35319582 -0.24767673 0.83189738
0.35626981 -0.24777612 0.83223122
0.35934624 -0.24787557 0.83256525
0.36242515 -0.24797511 0.83289957
0.36550656 -0.24807473 0.83323419
0.36859041 -0.24817443 0.83356905
0.37167674 -0.24827419 0.83390415
0.3747656 -0.24837406 0.8342396
0.37785694 -0.24847403 0.83457536
0.38095069 -0.248574 0.83491117
0.38404694 -0.24867408 0.83524728
0.39305881 -0.25257391 0.84834605
0.4025147 -0.25669804 0.86219823
0.41228288 -0.26095808 0.87650681
0.42237946 -0.26536107 0.89129561
0.43282259 -0.26991519 0.90659201
0.31590351 -0.27054301 0.91958338
0.31544676 -0.26740918 0.90893137
0.3150005 -0.26434714 0.89852345
0.31456429 -0.26135442 0.88835108
0.31413791 -0.25842872 0.87840658
0.31372094 -0.25556779 0.86868221
0.31520045 -0.25429213 0.86434621
0.31719843 -0.25345519 0.8615014
0.31918332 -0.25262377 0.85867536
0.32115522 -0.25179777 0.85586774
0.32311428 -0.25097713 0.85307837
0.32506058 -0.25016183 0.85030717
0.32699433 -0.24935183 0.84755397
0.32891557 -0.24854705 0.84481847
0.33082443 -0.24774745 0.84210062
0.33272105 -0.24695295 0.83940011
0.33460557 -0.24616356 0.83671695
0.33647808 -0.24537921 0.83405089
0.33833867 -0.24459982 0.83140171
0.34018752 -0.24382538 0.82876939
0.34300166 -0.24375011 0.82851356
0.34605905 -0.2438475 0.82884461
0.34911889 -0.24394499 0.82917595
0.35218117 -0.24404256 0.82950759
0.35524592 -0.24414019 0.82983947
0.35831311 -0.24423791 0.83017159
0.36138275 -0.24433571 0.830504
0.36445484 -0.24443357 0.83083665
0.36752939 -0.24453151 0.83116955
0.37060648 -0.24462958 0.83150285
0.37368596 -0.24472767 0.83183628
0.3767679 -0.24482583 0.83216995
0.37985238 -0.24492411 0.83250403
0.38293925 -0.24502243 0.83283818
0.39073828 -0.24811137 0.8433376
0.40009978 -0.25213835 0.85702544
0.40976906 -0.2562975 0.87116247
0.41976139 -0.26059535 0.88577104
0.43009409 -0.26503953 0.90087688
0.31538194 -0.26686165 0.91806513
0.31493148 -0.26377511 0.90744668
0.31449181 -0.26075953 0.89707243
0.31406209 -0.25781217 0.88693279
0.31364194 -0.25493065 0.8770197
0.31323114 -0.25211287 0.86732596
0.3144373 -0.25063843 0.86225355
0.31643298 -0.24981551 0.8594225
0.31841561 -0.24899799 0.85661
0.32038531 -0.2481858 0.85381591
0.32234213 -0.24737886 0.85103983
0.32428637 -0.24657719 0.84828192
0.32621801 -0.24578069 0.84554178
0.32813716 -0.24498928 0.84281915
0.33004406 -0.244203 0.84011418
0.33193868 -0.24342172 0.83742636
0.33382133 -0.24264544 0.83475584
0.33569193 -0.24187408 0.83210218
0.33844531 -0.24174663 0.83166373
0.34120384 -0.24162504 0.83124542
0.34395963 -0.24150358 0.83082753
0.34671268 -0.24138224 0.83041012
0.34946293 -0.24126102 0.82999307
0.3522104 -0.2411399 0.82957643
0.35495514 -0.24101892 0.82916021
0.3576971 -0.24089806 0.82874441
0.36043638 -0.24077733 0.82832909
0.36340919 -0.24081331 0.82845289
0.36647451 -0.24090955 0.82878393
0.3695423 -0.24100584 0.82911521
0.37261251 -0.2411022 0.82944673
0.37568521 -0.24119867 0.82977861
0.37876037 -0.24129522 0.83011073
0.38183796 -0.24139182 0.83044308
0.38844499 -0.24370123 0.83838797
0.39771476 -0.24763371 0.85191661
0.41016489 -0.25347269 0.87200403
0.41717446 -0.25588769 0.88031214
0.42739972 -0.26022494 0.89523327
0.43797633 -0.26471096 0.91066629
0.3148621 -0.26319242 0.91655183
0.31441835 -0.26015326 0.90596813
0.31398478 -0.25718352 0.89562619
0.31356144 -0.25428116 0.88551897
0.31314757 -0.25144362 0.87563735
0.31274286 -0.24866872 0.86597389
0.31367788 -0.24700239 0.86017102
0.31567121 -0.24619333 0.85735357
0.31765157 -0.2453896 0.85455459
0.31961903 -0.2445911 0.85177386
0.3215737 -0.24379775 0.84901106
0.32351577 -0.24300955 0.84626621
0.32544532 -0.24222644 0.84353906
0.32736248 -0.24144834 0.84082937
0.32926732 -0.24067521 0.83813703
0.33132923 -0.24002963 0.8358888
0.3341054 -0.23990828 0.83546621
0.33687875 -0.23978706 0.83504409
0.33964935 -0.23966599 0.83462244
0.34241709 -0.23954499 0.8342011
0.34518203 -0.23942414 0.83378023
0.3479442 -0.23930341 0.83335978
0.3507036 -0.23918279 0.83293974
0.35346025 -0.23906232 0.83252025
0.35621408 -0.23894195 0.83210105
0.35896513 -0.2388217 0.83168226
0.36171344 -0.23870158 0.83126396
0.36445898 -0.23858158 0.83084607
0.36720178 -0.23846172 0.83042866
0.3699418 -0.23834194 0.83001155
0.37267905 -0.2382223 0.82959491
0.37541357 -0.23810276 0.82917863
0.37814537 -0.23798339 0.82876289
0.38087443 -0.23786411 0.8283475
0.38617909 -0.23934293 0.83349741
0.39535809 -0.24318253 0.84686857
0.40483639 -0.24714731 0.86067569
0.41461796 -0.25123689 0.87491745
0.42473701 -0.25546914 0.88965595
0.43520293 -0.25984645 0.90489966
0.44603184 -0.26437524 0.92067093
0.31434399 -0.25953528 0.91504365
0.31390694 -0.25654322 0.90449452
0.31347984 -0.25361937 0.89418584
0.31306243 -0.25076145 0.88410968
0.31265476 -0.24796756 0.87425929
0.3122561 -0.24523526 0.86462605
0.31292209 -0.24338385 0.85809851
0.31491312 -0.24258856 0.85529459
0.31689119 -0.24179851 0.85250902
0.31885645 -0.24101356 0.84974158
0.32080895 -0.24023369 0.84699196
0.32274887 -0.23945884 0.8442601
0.32467633 -0.23868899 0.84154582
0.32693449 -0.23817399 0.83973008
0.32972562 -0.23805302 0.83930361
0.33251396 -0.23793222 0.83887768
0.33529943 -0.23781149 0.83845204
0.3380821 -0.23769091 0.83802688
0.34086192 -0.23757043 0.83760214
0.34363893 -0.23745008 0.83717781
0.3464132 -0.23732989 0.83675402
0.3491846 -0.23720978 0.83633059
0.35195318 -0.2370898 0.83590758
0.35471898 -0.23696995 0.83548498
0.35748199 -0.2368502 0.8350628
0.36024219 -0.23673059 0.8346411
0.36299965 -0.2366111 0.83421981
0.36575425 -0.2364917 0.83379883
0.36850613 -0.23637246 0.83337843
0.37125525 -0.23625334 0.83295846
0.37400159 -0.23613434 0.8325389
0.37674519 -0.23601548 0.83211982
0.37948599 -0.23589669 0.83170104
0.38222376 -0.23577787 0.83128208
0.38495874 -0.23565915 0.83086354
0.39302921 -0.23878379 0.84188008
0.40241304 -0.24265356 0.85552371
0.41595274 -0.24895313 0.87773412
0.42210668 -0.25077188 0.88414645
0.43246192 -0.25504163 0.89920038
0.44317579 -0.25945929 0.91477567
0.31382757 -0.25589019 0.91354042
0.3133972 -0.25294495 0.90302575
0.31297657 -0.2500667 0.89275032
0.31256542 -0.24725324 0.88270611
0.31216347 -0.24450243 0.87288558
0.31177083 -0.2418125 0.86328238
0.31216994 -0.23978271 0.85603595
0.31415865 -0.23900108 0.8532455
0.31613445 -0.23822455 0.85047323
0.31809747 -0.23745306 0.84771895
0.3200478 -0.23668651 0.84498239
0.32249913 -0.23630121 0.84360683
0.32530546 -0.23618066 0.84317648
0.32810888 -0.23606025 0.84274656
0.33090943 -0.23593992 0.84231699
0.33370715 -0.23581973 0.84188789
0.33650202 -0.23569965 0.84145921
0.33929408 -0.23557973 0.84103107
0.34208325 -0.23545989 0.84060329
0.34486958 -0.23534019 0.84017593
0.34765309 -0.2352206 0.83974898
0.3504338 -0.23510115 0.83932257
0.35321167 -0.23498183 0.83889657
0.35598674 -0.23486263 0.838471
0.35875902 -0.23474355 0.8380459
0.36152846 -0.23462459 0.83762121
0.3642951 -0.23450576 0.83719695
0.36705896 -0.23438704 0.83677316
0.36982 -0.23426846 0.83634979
0.37257826 -0.23414998 0.83592683
0.37533367 -0.23403157 0.83550411
0.37808624 -0.23391327 0.83508176
0.3808358 -0.23379494 0.83465934
0.38358253 -0.2336767 0.83423722
0.38632649 -0.2335586 0.83381557
0.39072761 -0.23443657 0.83694994
0.40001854 -0.2382133 0.85043305
0.41742906 -0.24673317 0.88084942
0.42032087 -0.24660891 0.88040584
0.42975515 -0.25029695 0.89357233
0.44035429 -0.25460485 0.9089517
0.31331289 -0.25225705 0.91204214
0.31288907 -0.2493583 0.90156168
0.31247494 -0.24652544 0.89131939
0.31207007 -0.24375622 0.88130718
0.31167418 -0.2410485 0.87151736
0.31128711 -0.23840037 0.86194295
0.31142139 -0.23619884 0.85398328
0.31340781 -0.23543073 0.85120618
0.31538135 -0.23466763 0.84844714
0.31802267 -0.23441108 0.84751958
0.32084429 -0.23429094 0.84708524
0.32366297 -0.23417091 0.84665126
0.32647881 -0.23405102 0.84621775
0.32929173 -0.23393123 0.84578466
0.33210179 -0.23381157 0.84535205
0.33490899 -0.23369205 0.84491992
0.33771333 -0.23357266 0.84448826
0.34051481 -0.23345339 0.84405702
0.34331343 -0.23333423 0.8436262
0.34610918 -0.2332152 0.84319586
0.34890208 -0.23309629 0.84276593
0.35169217 -0.23297751 0.84233648
0.3544794 -0.23285885 0.84190744
0.35726374 -0.23274028 0.84147877
0.36004528 -0.23262185 0.84105057
0.36282399 -0.23250355 0.84062284
0.36559993 -0.23238538 0.8401956
0.36837298 -0.23226731 0.83976871
0.37114316 -0.23214932 0.83934212
0.37391058 -0.23203146 0.838916
0.37667495 -0.2319136 0.83848989
0.37943643 -0.23179579 0.83806396
0.38219509 -0.2316781 0.83763844
0.38495094 -0.23156053 0.83721334
0.38770398 -0.23144306 0.83678865
0.39045432 -0.23132578 0.83636457
0.39765236 -0.23382553 0.84540254
0.41891584 -0.24449734 0.88398677
0.42181715 -0.24437377 0.88353997
0.42708215 -0.24561134 0.88801444
0.43756849 -0.24981183 0.9032014
0.44841975 -0.2541585 0.91891688
0.31279981 -0.24863575 0.91054863
0.31238261 -0.24578327 0.90010232
0.31197485 -0.2429955 0.889893
0.31157628 -0.24027026 0.87991267
0.31118649 -0.23760545 0.87015367
0.31080526 -0.23499911 0.86060876
0.31067646 -0.23263212 0.85194045
0.31350452 -0.23250334 0.85146886
0.31634155 -0.23238361 0.85103035
0.31917572 -0.23226403 0.85059243
0.32200697 -0.23214456 0.85015494
0.32483533 -0.23202524 0.84971792
0.32766074 -0.23190601 0.84928131
0.33048329 -0.23178692 0.84884518
0.33330292 -0.23166795 0.84840947
0.33611965 -0.2315491 0.84797424
0.33893353 -0.23143038 0.84753948
0.34174445 -0.23131175 0.84710503
0.34455255 -0.23119326 0.8466711
0.34735775 -0.2310749 0.84623766
0.35016009 -0.23095666 0.84580463
0.3529596 -0.23083855 0.84537208
0.35575619 -0.23072053 0.84493989
0.35854995 -0.23060267 0.84450823
0.36134082 -0.23048489 0.84407693
0.36412886 -0.23036724 0.84364605
0.366914 -0.23024967 0.84321553
0.36969632 -0.23013225 0.84278548
0.3724758 -0.23001494 0.84235585
0.37525216 -0.22989757 0.84192604
0.37802565 -0.2297803 0.84149659
0.38079631 -0.22966315 0.84106755
0.38356414 -0.22954611 0.84063894
0.3863292 -0.22942922 0.84021086
0.38909143 -0.22931243 0.83978319
0.3918508 -0.22919574 0.83935583
0.39531401 -0.2294894 0.84043127
0.42041326 -0.24224555 0.88714659
0.4233242 -0.24212269 0.88669664
0.42623219 -0.24199995 0.88624716
0.43481767 -0.24507906 0.89752334
0.44555202 -0.24931611 0.91304022
0.31228846 -0.24502634 0.90906012
0.31187779 -0.24221981 0.89864773
0.31147638 -0.23947683 0.88847113
0.311084 -0.23679528 0.87852246
0.3107003 -0.23417312 0.86879414
0.31032497 -0.23160839 0.85927886
0.31179681 -0.23045853 0.85501277
0.3146466 -0.23033938 0.85457075
0.31749341 -0.23022035 0.85412914
0.3203373 -0.23010145 0.853688
0.32317823 -0.22998264 0.85324723
0.32601625 -0.229864 0.85280704
0.32885134 -0.22974546 0.85236728
0.33168352 -0.22962704 0.85192794
0.33451274 -0.22950874 0.85148907
0.3373391 -0.22939059 0.85105067
0.34016252 -0.22927253 0.8506127
0.34298304 -0.22915462 0.8501752
0.34580067 -0.22903681 0.84973812
0.34861541 -0.22891912 0.84930152
0.3514272 -0.22880153 0.84886527
0.35423616 -0.2286841 0.84842956
0.35704222 -0.22856678 0.84799433
0.35984537 -0.22844955 0.84755939
0.36264566 -0.22833245 0.84712493
0.36544305 -0.22821546 0.84669089
0.36823758 -0.22809859 0.84625727
0.37102911 -0.22798175 0.84582382
0.37381762 -0.22786492 0.84539038
0.37660325 -0.2277482 0.84495735
0.37938604 -0.22763161 0.8445248
0.38216594 -0.22751513 0.84409267
0.38494307 -0.22739881 0.84366107
0.38771731 -0.22728255 0.84322977
0.39048871 -0.22716644 0.84279901
0.39325732 -0.22705045 0.84236866
0.39602309 -0.22693458 0.84193879
0.40231436 -0.22882563 0.84895468
0.42484206 -0.23985548 0.88987595
0.42775965 -0.23973343 0.88942313
0.43210128 -0.24040544 0.89191633
0.44272074 -0.24453528 0.90723825
0.31177881 -0.24142872 0.9075765
0.3113746 -0.23866785 0.89719784
0.31097955 -0.23596941 0.88705391
0.31059331 -0.23333128 0.87713671
0.31021562 -0.23075153 0.86743891
0.31007487 -0.22839661 0.85858631
0.31293744 -0.22827804 0.85814059
0.31579706 -0.22815959 0.85769534
0.31865367 -0.22804126 0.85725051
0.32150736 -0.22792307 0.85680616
0.32435808 -0.22780496 0.85636222
0.32720581 -0.227687 0.85591877
0.33005065 -0.22756916 0.85547578
0.33289248 -0.22745141 0.85503316
0.33573142 -0.22733383 0.85459113
0.33856741 -0.22721635 0.85414952
0.34140047 -0.22709899 0.85370833
0.34423059 -0.22698176 0.85326761
0.34705782 -0.22686464 0.85282737
0.34988216 -0.22674766 0.85238761
0.35270354 -0.22663079 0.85194826
0.35552198 -0.226514 0.85150921
0.35833752 -0.22639735 0.8510707
0.36115015 -0.22628079 0.85063255
0.36395988 -0.22616437 0.85019493
0.36676672 -0.22604805 0.84975767
0.36957043 -0.22593172 0.84932035
0.3723712 -0.22581547 0.84888333
0.37516907 -0.22569932 0.84844673
0.37796408 -0.22558331 0.8480106
0.38075626 -0.22546744 0.84757501
0.38354555 -0.22535166 0.84713978
0.38633192 -0.22523597 0.8467049
0.38911545 -0.22512044 0.84627056
0.39189616 -0.22500502 0.8458367
0.394674 -0.22488973 0.84540325
0.39744899 -0.22477452 0.84497023
0.40022117 -0.22465946 0.84453768
0.42637077 -0.23757191 0.89307803
0.42929813 -0.23745061 0.89262205
0.43222249 -0.23732944 0.89216655
0.43992516 -0.2398148 0.90150946
0.31087303 -0.23512731 0.89575261
0.31048426 -0.23247315 0.88564116
0.31010416 -0.22987822 0.87575537
0.3097325 -0.22734059 0.86608791
0.31121397 -0.22619942 0.86174047
0.31408644 -0.22608155 0.86129141
0.31695592 -0.22596379 0.86084276
0.31982243 -0.22584617 0.86039472
0.32268596 -0.22572868 0.85994709
0.3255465 -0.2256113 0.85949993
0.32840407 -0.22549404 0.85905319
0.33125868 -0.22537692 0.85860699
0.33411032 -0.2252599 0.85816121
0.336959 -0.22514302 0.8577159
0.33980474 -0.22502625 0.85727108
0.34264746 -0.22490957 0.8568266
0.3454873 -0.22479305 0.85638267
0.34832418 -0.22467664 0.85593921
0.35115808 -0.22456032 0.85549605
0.35398906 -0.22444414 0.85505342
0.3568171 -0.22432804 0.85461116
0.35964221 -0.2242121 0.85416943
0.36246443 -0.22409627 0.85372818
0.36528361 -0.22398049 0.8532871
0.36809966 -0.22386469 0.85284597
0.37091279 -0.22374901 0.85240525
0.37372303 -0.22363347 0.85196507
0.37653041 -0.22351804 0.85152537
0.37933487 -0.22340274 0.85108608
0.38213637 -0.22328752 0.85064715
0.38493502 -0.22317246 0.85020876
0.38773081 -0.22305748 0.84977078
0.39052373 -0.22294267 0.84933335
0.39331377 -0.22282794 0.84889632
0.39610091 -0.22271334 0.84845972
0.39888522 -0.22259887 0.84802359
0.42497045 -0.23539256 0.89676309
0.4279106 -0.23527189 0.89630336
0.4308477 -0.23515132 0.89584404
0.43378183 -0.23503087 0.89538521
0.43716472 -0.23515359 0.89585268
0.31037304 -0.23159817 0.89431196
0.30999056 -0.22898801 0.88423288
0.30961657 -0.226436 0.87437838
0.30947596 -0.22410327 0.86537057
0.31236145 -0.22398601 0.86491781
0.3152439 -0.22386886 0.86446542
0.31812337 -0.22375184 0.86401355
0.32099983 -0.22363496 0.86356217
0.32387325 -0.22351815 0.86311114
0.32674369 -0.2234015 0.86266071
0.32961112 -0.22328496 0.86221069
0.3324756 -0.22316855 0.86176115
0.33533707 -0.22305226 0.86131215
0.33819559 -0.22293609 0.86086357
0.3410511 -0.22282006 0.86041546
0.3439036 -0.2227041 0.85996771
0.34675315 -0.22258826 0.85952038
0.34959972 -0.22247255 0.85907358
0.35244334 -0.22235696 0.8586272
0.35528398 -0.22224146 0.85818124
0.35812169 -0.22212611 0.85773581
0.36095646 -0.22201087 0.8572908
0.36378807 -0.22189562 0.8568458
0.36661664 -0.22178043 0.85640097
0.36944225 -0.22166535 0.85595661
0.37226495 -0.22155039 0.85551268
0.37508476 -0.22143558 0.85506934
0.37790161 -0.22132087 0.85462636
0.38071552 -0.22120625 0.85418379
0.38352656 -0.22109178 0.85374177
0.38633469 -0.22097744 0.85330021
0.38913992 -0.22086319 0.85285908
0.3919422 -0.22074907 0.85241836
0.41764331 -0.23343562 0.90140724
0.42060247 -0.23331533 0.9009428
0.42355853 -0.23319514 0.90047866
0.42651159 -0.2330751 0.90001512
0.4294616 -0.23295517 0.89955205
0.43240851 -0.23283535 0.89908934
0.43535247 -0.23271568 0.89862722
0.43829343 -0.23259614 0.89816564
0.44507825 -0.2345036 0.90553123
0.30987471 -0.22808036 0.89287603
0.3094984 -0.22551391 0.88282901
0.30913046 -0.22300456 0.87300557
0.31062186 -0.22187275 0.8685748
0.31351739 -0.2217562 0.86811858
0.31640995 -0.22163981 0.86766291
0.31929943 -0.22152354 0.86720771
0.32218587 -0.22140735 0.86675292
0.32506934 -0.22129133 0.86629868
0.32794976 -0.22117542 0.86584491
0.33082715 -0.22105962 0.86539161
0.33370152 -0.22094393 0.86493868
0.33657289 -0.22082835 0.86448628
0.33944121 -0.22071289 0.86403424
0.34230658 -0.22059757 0.86358279
0.34516889 -0.22048232 0.86313164
0.34802824 -0.22036724 0.86268109
0.35088459 -0.22025223 0.8622309
0.35373801 -0.22013739 0.8617813
0.35658836 -0.22002262 0.861332
0.3594358 -0.21990798 0.86088324
0.36227998 -0.21979329 0.86043423
0.36512119 -0.21967871 0.85998571
0.36795938 -0.21956424 0.8595376
0.37079471 -0.21944994 0.85909009
0.37362704 -0.21933571 0.85864294
0.37645641 -0.21922161 0.85819626
0.37928283 -0.21910761 0.85775
0.38210636 -0.21899377 0.85730433
0.38492694 -0.21888001 0.85685903
0.38774458 -0.21876639 0.8564142
0.41321829 -0.23133843 0.90563047
0.41619352 -0.23121862 0.9051615
0.41916573 -0.23109898 0.90469313
0.42213488 -0.23097946 0.90422523
0.42510092 -0.23086004 0.90375775
0.4280639 -0.23074077 0.90329081
0.43102378 -0.23062158 0.90282422
0.43398067 -0.23050256 0.90235829
0.4369345 -0.23038365 0.90189278
0.43988529 -0.23026486 0.90142775
0.44283304 -0.2301462 0.90096325
0.30937797 -0.22457385 0.89144468
0.30900785 -0.22205086 0.88142973
0.30886748 -0.21974154 0.8722629
0.31177628 -0.21962565 0.87180287
0.31468198 -0.21950987 0.87134326
0.3175846 -0.21939421 0.87088412
0.32048422 -0.21927868 0.87042552
0.32338077 -0.21916327 0.8699674
0.32627425 -0.21904798 0.86950976
0.32916471 -0.21893281 0.86905259
0.33205208 -0.21881774 0.86859584
0.33493641 -0.21870278 0.86813951
0.33781773 -0.21858795 0.86768371
0.34069601 -0.21847323 0.86722833
0.34357128 -0.21835864 0.86677343
0.3464435 -0.21824415 0.866319
0.34931278 -0.21812981 0.86586511
0.35217896 -0.21801555 0.86541158
0.35504222 -0.21790145 0.86495864
0.35790229 -0.21778734 0.86450571
0.3607592 -0.21767327 0.86405289
0.36361313 -0.21755932 0.86360055
0.36646411 -0.21744551 0.86314881
0.36931208 -0.2173318 0.86269742
0.37215707 -0.21721821 0.86224651
0.37499905 -0.21710472 0.86179602
0.37783808 -0.21699135 0.86134601
0.38067424 -0.21687815 0.86089665
0.38350734 -0.21676502 0.86044759
0.40875018 -0.22922069 0.90989029
0.41174313 -0.22910221 0.90942001
0.41473162 -0.22898309 0.90894717
0.41771701 -0.2288641 0.90847486
0.4206993 -0.22874525 0.90800303
0.42367846 -0.22862649 0.90753162
0.42665458 -0.22850788 0.9070608
0.42962754 -0.22838935 0.90659034
0.43259746 -0.22827099 0.90612048
0.43556434 -0.22815274 0.90565109
0.43852809 -0.22803462 0.90518218
0.44148883 -0.22791661 0.90471381
0.44444636 -0.22779867 0.90424562
0.3088828 -0.22107854 0.89001793
0.30851883 -0.21859877 0.8800348
0.31002027 -0.2174769 0.87551844
0.31293929 -0.21736176 0.8750549
0.31585521 -0.21724676 0.87459189
0.31876805 -0.21713187 0.87412935
0.32167783 -0.2170171 0.87366736
0.32458448 -0.21690243 0.87320572
0.32748809 -0.21678789 0.87274462
0.33038861 -0.21667345 0.87228388
0.33328608 -0.21655914 0.87182373
0.33618045 -0.21644495 0.871364
0.33907181 -0.21633089 0.8709048
0.3419601 -0.21621694 0.87044603
0.34484538 -0.21610311 0.86998779
0.3477276 -0.2159894 0.86953002
0.3506068 -0.21587579 0.86907268
0.35348296 -0.21576232 0.86861587
0.35635579 -0.21564879 0.86815876
0.3592256 -0.21553536 0.86770213
0.36209238 -0.21542205 0.86724597
0.36495617 -0.21530887 0.86679035
0.36781693 -0.2151958 0.86633515
0.3706747 -0.21508284 0.86588043
0.37352946 -0.21497001 0.86542618
0.37638125 -0.21485731 0.86497247
0.40122896 -0.22720194 0.91466945
0.40423992 -0.22708298 0.91419059
0.40724772 -0.22696415 0.91371214
0.41025564 -0.22684723 0.91324151
0.41325742 -0.22672878 0.91276461
0.4162561 -0.22661047 0.91228831
0.41925168 -0.22649229 0.91181254
0.42224407 -0.22637419 0.91133714
0.42523342 -0.22625627 0.91086239
0.42821962 -0.22613844 0.91038805
0.43120265 -0.22602072 0.90991414
0.43418184 -0.22590272 0.90943909
0.43715906 -0.22578545 0.90896696
0.44013315 -0.22566828 0.90849525
0.44310382 -0.22555104 0.9080233
0.30838919 -0.2175944 0.88859564
0.30824924 -0.21530975 0.87926579
0.31118166 -0.21519528 0.87879831
0.31411099 -0.21508093 0.8783313
0.31703722 -0.2149667 0.87786484
0.31996033 -0.21485259 0.87739885
0.32288033 -0.21473859 0.87693328
0.32579717 -0.21462469 0.87646812
0.32871097 -0.2145109 0.8760035
0.33162171 -0.21439728 0.87553948
0.33452928 -0.21428372 0.87507576
0.33743382 -0.21417032 0.87461263
0.34033525 -0.21405701 0.87414992
0.34323367 -0.21394385 0.8736878
0.34612897 -0.21383078 0.87322605
0.34902126 -0.21371785 0.87276489
0.35191029 -0.21360494 0.87230378
0.35479614 -0.21349207 0.8718428
0.35767895 -0.21337929 0.8713823
0.36055875 -0.21326666 0.87092233
0.36343545 -0.21315412 0.87046278
0.36630917 -0.21304172 0.87000376
0.36917976 -0.21292941 0.8695451
0.37204742 -0.21281724 0.86908704
0.39666119 -0.22504452 0.91901988
0.3996892 -0.22492631 0.91853714
0.40271139 -0.22480676 0.91804892
0.40573633 -0.22469063 0.9175747
0.40875283 -0.2245717 0.91708905
0.41177076 -0.22445545 0.91661423
0.41478288 -0.22433783 0.91613394
0.41779184 -0.22422034 0.91565412
0.42079777 -0.22410303 0.91517508
0.4237971 -0.22398402 0.91468906
0.42679864 -0.22386797 0.91421515
0.42979458 -0.22375073 0.9137364
0.432789 -0.22363447 0.91326159
0.43577921 -0.22351776 0.91278499
0.43876618 -0.2234011 0.91230857
0.44174996 -0.22328451 0.91183251
0.44473055 -0.22316805 0.91135687
0.30789718 -0.2141214 0.887178
0.30940899 -0.21301021 0.88257396
0.31235185 -0.21289653 0.88210297
0.31529152 -0.21278296 0.88163239
0.3182281 -0.21266951 0.88116235
0.32116151 -0.21255617 0.88069272
0.32409179 -0.21244293 0.88022357
0.32701895 -0.21232983 0.87975496
0.329943 -0.21221685 0.87928683
0.33286393 -0.21210399 0.87881923
0.33578175 -0.21199125 0.87835205
0.33869651 -0.21187863 0.87788546
0.34160814 -0.21176612 0.87741929
0.34451666 -0.21165374 0.87695366
0.34742212 -0.21154147 0.87648851
0.35032427 -0.21142918 0.87602323
0.35322326 -0.21131697 0.87555832
0.35611916 -0.21120487 0.87509382
0.35901204 -0.21109292 0.87462997
0.36190182 -0.21098106 0.87416649
0.36478853 -0.21086933 0.87370354
0.36767215 -0.21075767 0.87324095
0.39204878 -0.22286589 0.92340946
0.39509371 -0.22274831 0.92292225
0.39813513 -0.22263066 0.92243481
0.41823113 -0.23197435 0.96114886
0.42065281 -0.23144351 0.95894945
0.42271444 -0.23072462 0.95597082
0.42435342 -0.22978821 0.95209098
0.41329309 -0.22204374 0.92000294
0.41631943 -0.22192903 0.91952771
0.41933575 -0.2218108 0.91903782
0.4223524 -0.22169456 0.91855621
0.42536524 -0.22157809 0.91807365
0.42837632 -0.22146247 0.91759455
0.43138379 -0.22134674 0.91711503
0.43438736 -0.22123073 0.91663438
0.43738753 -0.22111472 0.91615373
0.44038457 -0.22099884 0.91567361
0.44337851 -0.22088312 0.91519409
0.30762097 -0.21080625 0.8863821
0.31057748 -0.21069327 0.88590705
0.31353077 -0.21058036 0.8854323
0.3164809 -0.21046759 0.88495815
0.31942785 -0.21035492 0.88448441
0.32237169 -0.21024241 0.88401127
0.32531232 -0.21012998 0.88353854
0.3282499 -0.2100177 0.88306648
0.3311843 -0.20990553 0.88259482
0.33411556 -0.20979349 0.88212371
0.33704367 -0.20968154 0.88165301
0.33996868 -0.20956974 0.88118291
0.34289062 -0.20945807 0.88071334
0.34580928 -0.20934643 0.88024396
0.34872463 -0.20923479 0.87977451
0.35163686 -0.20912325 0.87930554
0.35454607 -0.20901187 0.87883723
0.35745209 -0.20890057 0.87836927
0.36035505 -0.20878939 0.87790179
0.38432717 -0.22078371 0.92833453
0.38739273 -0.22066674 0.92784274
0.39045382 -0.22054923 0.92734861
0.39351234 -0.22043222 0.92685664
0.41125399 -0.22847444 0.96067196
0.41442615 -0.22835727 0.96017927
0.41723511 -0.22804348 0.95885992
0.41970414 -0.22755045 0.95678681
0.42182368 -0.22687727 0.95395631
0.42354164 -0.22600047 0.95026964
0.4246949 -0.22483848 0.94538373
0.42476359 -0.22312483 0.93817836
0.42089668 -0.21938629 0.92245883
0.42392009 -0.21926901 0.92196566
0.42694649 -0.21915504 0.92148644
0.42996681 -0.21903969 0.92100143
0.43298358 -0.21892428 0.92051619
0.43599728 -0.21880904 0.92003161
0.4390077 -0.21869387 0.91954738
0.44201502 -0.21857886 0.91906375
0.31175473 -0.20835871 0.88926512
0.31471857 -0.20824662 0.88878679
0.31767926 -0.2081347 0.88830906
0.32063672 -0.20802285 0.88783175
0.32359108 -0.20791116 0.88735509
0.3265422 -0.20779958 0.88687885
0.32949015 -0.20768811 0.88640308
0.33243498 -0.20757677 0.88592786
0.33537659 -0.20746553 0.8854531
0.33831513 -0.20735443 0.88497895
0.34125045 -0.20724341 0.88450515
0.34418246 -0.20713243 0.88403147
0.34711123 -0.20702149 0.88355798
0.35003689 -0.20691068 0.88308507
0.35295939 -0.2068 0.88261265
0.35587877 -0.20668942 0.8821407
0.37960568 -0.21856084 0.93280739
0.38269052 -0.21844566 0.93231577
0.3857711 -0.21833003 0.93182224
0.3888441 -0.2182121 0.93131894
0.39191723 -0.21809621 0.93082434
0.40645435 -0.22430883 0.95733953
0.41014627 -0.22448334 0.95808434
0.41337115 -0.22440147 0.95773494
0.41623095 -0.22412436 0.95655221
0.4187561 -0.22367293 0.95462555
0.42093095 -0.2230431 0.95193744
0.42272326 -0.22222212 0.94843352
0.4239901 -0.22113994 0.94381481
0.42434463 -0.21960247 0.937253
0.4224667 -0.21694236 0.92589974
0.42550245 -0.21682693 0.92540711
0.42853755 -0.21671291 0.9249205
0.43156794 -0.21659826 0.92443115
0.43459511 -0.21648371 0.92394227
0.43761915 -0.21636932 0.92345405
0.44063991 -0.21625502 0.92296624
0.44365755 -0.21614085 0.92247897
0.31294096 -0.20600636 0.89264876
0.31591547 -0.20589516 0.89216685
0.3188867 -0.20578404 0.89168537
0.3218548 -0.20567307 0.89120454
0.32481965 -0.20556219 0.89072412
0.32778135 -0.20545146 0.89024431
0.3307398 -0.20534083 0.8897649
0.33369511 -0.20523033 0.8892861
0.33664721 -0.20511992 0.88880771
0.33959612 -0.20500964 0.88832986
0.34254161 -0.20489931 0.88785177
0.3454839 -0.2047891 0.88737422
0.34842309 -0.20467903 0.88689727
0.37173814 -0.2164342 0.93783373
0.3748413 -0.21631812 0.93733072
0.37794122 -0.21620218 0.93682837
0.38103777 -0.21608636 0.9363265
0.38413104 -0.21597068 0.93582523
0.38722095 -0.21585509 0.93532437
0.39030758 -0.21573964 0.93482411
0.40063354 -0.21959412 0.95152605
0.40526527 -0.22028942 0.95453888
0.40903687 -0.22050959 0.95549285
0.4123182 -0.22046402 0.95529538
0.41522825 -0.22022228 0.95424789
0.41779587 -0.21980426 0.95243657
0.42002898 -0.21921831 0.94989765
0.42188865 -0.21844827 0.94656092
0.42326441 -0.21744171 0.94219941
0.42384714 -0.21604659 0.93615419
0.42404872 -0.21448024 0.92936701
0.42709604 -0.21436621 0.92887294
0.43014023 -0.21425235 0.92837954
0.43318108 -0.21413857 0.92788649
0.43621871 -0.21402492 0.92739403
0.43925318 -0.2139114 0.92690217
0.44228435 -0.21379797 0.92641068
0.31712148 -0.20352572 0.89557272
0.32010341 -0.20341547 0.89508754
0.32308215 -0.20330535 0.89460301
0.32605761 -0.20319533 0.89411891
0.32902992 -0.20308545 0.89363539
0.331999 -0.20297571 0.89315248
0.33496484 -0.20286603 0.89266992
0.33792734 -0.2027564 0.89218748
0.34088647 -0.20264681 0.89170521
0.34384248 -0.20253736 0.89122361
0.36690962 -0.21416897 0.94240612
0.37003058 -0.21405357 0.94189835
0.37314814 -0.21393828 0.94139099
0.3762624 -0.21382312 0.94088429
0.37937322 -0.21370807 0.94037801
0.38248074 -0.21359314 0.93987232
0.38558495 -0.21347836 0.93936723
0.38868576 -0.21336366 0.93886256
0.39178568 -0.21325043 0.93836427
0.39921713 -0.21547703 0.94816196
0.40406153 -0.21628189 0.95170361
0.40791756 -0.21654883 0.95287818
0.41125935 -0.21654065 0.95284218
0.41421437 -0.21633059 0.95191789
0.41683581 -0.21595109 0.95024794
0.41912454 -0.21540664 0.94785225
0.42104816 -0.21468464 0.94467521
0.42251581 -0.2137433 0.94053304
0.42328432 -0.21246567 0.93491113
0.42564055 -0.21199858 0.93285578
0.42870051 -0.21188645 0.93236238
0.43175483 -0.21177328 0.93186438
0.43480629 -0.21166041 0.93136775
0.43785447 -0.21154766 0.93087161
0.44089937 -0.21143502 0.93037593
0.32132944 -0.20102876 0.89851582
0.32431889 -0.20091949 0.89802748
0.32730511 -0.20081037 0.89753973
0.33028805 -0.20070136 0.89705247
0.33326781 -0.20059247 0.89656579
0.33624399 -0.2004835 0.89607877
0.33921698 -0.20037469 0.89559239
0.36203387 -0.21188158 0.94702345
0.36517271 -0.21176682 0.94651055
0.36830819 -0.21165222 0.94599831
0.37144023 -0.21153772 0.94548655
0.37456894 -0.21142337 0.94497544
0.37769422 -0.21130911 0.94446474
0.38081613 -0.21119496 0.94395459
0.38393471 -0.21108098 0.94344515
0.38705316 -0.21096888 0.94294411
0.39016476 -0.21085501 0.94243509
0.39327127 -0.2107403 0.94192243
0.39771369 -0.2113374 0.94459122
0.4028438 -0.21228699 0.94883549
0.40679547 -0.21260504 0.95025706
0.41019708 -0.21263278 0.95038098
0.41320392 -0.21245708 0.94959569
0.41587272 -0.21211179 0.94805241
0.41820833 -0.21160342 0.94578022
0.42019308 -0.21092696 0.94275671
0.42174661 -0.21004635 0.93882078
0.42417538 -0.20961197 0.93687922
0.42724875 -0.20950034 0.93638033
0.43031579 -0.20938738 0.93587542
0.4333798 -0.20927465 0.93537158
0.43644378 -0.20916362 0.93487531
0.43950254 -0.20905177 0.93437541
0.44255802 -0.20894003 0.93387598
0.3255651 -0.19851531 0.90147823
0.32856214 -0.19840708 0.90098679
0.33155575 -0.19829889 0.90049547
0.36026707 -0.20945759 0.9511683
0.36342058 -0.20934366 0.95065087
0.36657071 -0.20922986 0.9501341
0.36971742 -0.20911619 0.94961792
0.37286067 -0.20900261 0.94910216
0.37600055 -0.2088892 0.94858712
0.37913701 -0.20877588 0.94807255
0.3822704 -0.20866288 0.94755942
0.38540187 -0.20855081 0.94705045
0.38852659 -0.20843701 0.94653374
0.39165121 -0.2083251 0.94602555
0.3947728 -0.20821351 0.94551873
0.39788529 -0.20809901 0.9449988
0.40161937 -0.2083088 0.94595152
0.40566587 -0.20867586 0.94761837
0.4091309 -0.20874026 0.94791079
0.4121871 -0.20859672 0.94725895
0.41490117 -0.20828372 0.94583762
0.41729009 -0.20781378 0.94370359
0.41960627 -0.20731534 0.94144011
0.42269585 -0.20720384 0.94093376
0.42578167 -0.20709226 0.94042701
0.42886379 -0.20698059 0.93991995
0.43194446 -0.20686996 0.93941754
0.43501967 -0.20675839 0.93891096
0.43809363 -0.20664793 0.93840933
0.44116306 -0.20653701 0.93790561
0.326821 -0.19609259 0.90495574
0.36165306 -0.2068992 0.95482755
0.36481804 -0.20678626 0.95430636
0.36797947 -0.2066734 0.95378554
0.37113744 -0.20656066 0.95326525
0.37429205 -0.20644808 0.95274568
0.37744316 -0.20633559 0.95222658
0.38059199 -0.20622385 0.95171088
0.38373536 -0.20611113 0.95119071
0.38687834 -0.20600016 0.95067859
0.39001396 -0.2058872 0.95015728
0.39314795 -0.20577531 0.94964087
0.39627898 -0.20566377 0.94912618
0.39940649 -0.20555229 0.94861168
0.40253055 -0.20544091 0.94809765
0.40565106 -0.20532955 0.94758373
0.40877029 -0.20521937 0.94707531
0.41188276 -0.2051076 0.94655949
0.41499388 -0.20499699 0.94604897
0.41810283 -0.20488705 0.94554162
0.42120621 -0.20477614 0.9450298
0.42430621 -0.20466535 0.94451851
0.42740291 -0.20455471 0.94400787
0.43049625 -0.20444416 0.94349772
0.43358621 -0.20433372 0.9429881
0.43667284 -0.20422342 0.94247901
0.3662262 -0.20420907 0.95798987
0.36939904 -0.20409718 0.95746499
0.37256846 -0.20398545 0.95694083
0.37573552 -0.20387442 0.95642
0.37889719 -0.20376249 0.95589483
0.38205627 -0.20365115 0.95537251
0.38521194 -0.20353994 0.95485085
0.38836432 -0.20342894 0.95433009
0.39151329 -0.20331806 0.95380998
0.3946588 -0.2032073 0.95329034
0.39780089 -0.20309666 0.95277131
0.40093961 -0.20298615 0.95225292
0.40407485 -0.20287575 0.95173496
0.40720633 -0.2027653 0.95121682
0.41033593 -0.2026557 0.95070267
0.41346037 -0.20254536 0.95018506
0.41658366 -0.20243624 0.94967312
0.41970143 -0.20232618 0.94915682
0.42281577 -0.20221624 0.94864106
0.42592674 -0.20210642 0.94812584
0.42903435 -0.20199671 0.94761121
0.43213862 -0.20188715 0.94709724
0.37082967 -0.20150106 0.96117312
0.37401071 -0.20139037 0.9606452
0.37718827 -0.20127985 0.96011794
0.38036245 -0.20116948 0.95959145
0.38353312 -0.20105921 0.9590655
0.38670033 -0.20094909 0.9585402
0.38986406 -0.20083906 0.95801538
0.39302433 -0.20072916 0.95749116
0.39618114 -0.20061938 0.95696753
0.39933455 -0.20050976 0.95644456
0.40248448 -0.20040022 0.95592207
0.40563095 -0.2002908 0.95540011
0.40877366 -0.20018135 0.95487803
