# .PCD v0.7 - Point Cloud Data file format
VERSION 0.7
FIELDS x y z
SIZE 4 4 4
TYPE F F F
COUNT 1 1 1
WIDTH 1204
HEIGHT 1
VIEWPOINT 0 0 0 1 0 0 0
POINTS 1204
DATA ascii
-0.016205862 -0.045016281 1.0221176
-0.012625475 -0.045090981 1.0238137
-0.0090331892 -0.045165945 1.0255158
-0.0054289438 -0.045241196 1.0272244
-0.033697449 -0.040791649 1.0067339
-0.030199625 -0.040858317 1.0083792
-0.026690351 -0.040925205 1.01003
-0.02316957 -0.040992316 1.0116863
-0.01963722 -0.041059639 1.0133479
-0.016093247 -0.041127186 1.0150149
-0.0125376 -0.041194972 1.0166879
-0.0089702206 -0.041263014 1.0183672
-0.0053910366 -0.04133128 1.020052
-0.0017999902 -0.041399773 1.0217423
0.0018029782 -0.041468497 1.0234385
-0.04725178 -0.036751386 0.99340349
-0.043822207 -0.036810651 0.99500549
-0.040381551 -0.036870111 0.99661273
-0.036929764 -0.036929764 0.99822515
-0.03346679 -0.036989611 0.99984276
-0.029992573 -0.037049651 1.0014657
-0.026507059 -0.037109885 1.0030938
-0.023010196 -0.037170317 1.0047274
-0.019501923 -0.037230942 1.0063661
-0.01598219 -0.037291776 1.0080105
-0.012450948 -0.037352845 1.0096612
-0.0089081228 -0.037414119 1.0113174
-0.0053536552 -0.037475586 1.0129789
-0.0017874887 -0.037537262 1.0146461
0.0017904352 -0.037599139 1.0163186
0.0053801741 -0.037661221 1.0179967
-0.060451843 -0.032816716 0.98042136
-0.05708817 -0.032868948 0.98198181
-0.053713772 -0.032921344 0.98354721
-0.050328594 -0.032973908 0.98511755
-0.046932589 -0.033026636 0.98669291
-0.043525707 -0.033079538 0.98827338
-0.040107895 -0.033132609 0.98985893
-0.036679097 -0.033185851 0.99144953
-0.033239264 -0.033239264 0.99304533
-0.02978834 -0.033292849 0.99464619
-0.026326269 -0.033346608 0.99625224
-0.022853002 -0.033400539 0.99786353
-0.019368483 -0.033454649 0.99948013
-0.01587267 -0.033508968 1.0011029
-0.012365488 -0.033563469 1.0027311
-0.0088468799 -0.033618145 1.0043646
-0.0053167893 -0.033672996 1.0060034
-0.0017751595 -0.03372803 1.0076475
0.0017780653 -0.033783242 1.009297
0.0053429427 -0.033838637 1.010952
0.0089195296 -0.033894215 1.0126123
0.012507885 -0.033949971 1.0142782
-0.067529969 -0.029436141 0.98288614
-0.063819632 -0.029322533 0.97909272
-0.060137801 -0.029209789 0.97532815
-0.056706939 -0.029212665 0.97542417
-0.053354505 -0.029258922 0.97696871
-0.049991436 -0.029305324 0.97851813
-0.046617687 -0.029351875 0.9800725
-0.043233201 -0.029398575 0.98163182
-0.039837927 -0.029445423 0.98319608
-0.036431815 -0.029492421 0.98476535
-0.033014812 -0.029539568 0.98633963
-0.029586866 -0.029586866 0.98791891
-0.026147926 -0.029634317 0.98950332
-0.02269794 -0.029681921 0.99109286
-0.019236874 -0.029729713 0.99268866
-0.015764641 -0.029777654 0.9942894
-0.012281192 -0.029825754 0.9958955
-0.0087864734 -0.029874008 0.99750674
-0.0052804272 -0.029922422 0.99912328
-0.0017629993 -0.029970989 1.0007449
0.0017658653 -0.03001971 1.0023718
0.0053062234 -0.030068601 1.0040042
0.0088581294 -0.03011764 1.0056417
0.012421643 -0.030166848 1.0072848
0.015996817 -0.030216211 1.0089331
-0.075122721 -0.026205599 0.99168581
-0.071349725 -0.026103556 0.98782426
-0.067605995 -0.026002306 0.9839927
-0.06389121 -0.025901843 0.98019087
-0.060204983 -0.025802135 0.97641772
-0.056547027 -0.025703194 0.97267354
-0.053000011 -0.025645167 0.97047764
-0.049658764 -0.025685567 0.9720065
-0.046306975 -0.025726097 0.97354025
-0.042944591 -0.025766755 0.97507882
-0.039571565 -0.025807541 0.97662228
-0.036187839 -0.025848458 0.97817063
-0.032793369 -0.025889501 0.97972387
-0.0293881 -0.025930677 0.98128206
-0.025971984 -0.025971984 0.98284525
-0.022544991 -0.026013453 0.98441446
-0.019107038 -0.026055053 0.98598874
-0.015658071 -0.026096784 0.98756796
-0.012198038 -0.026138654 0.98915243
-0.0087268865 -0.026180658 0.99074197
-0.0052445591 -0.026222795 0.99233657
-0.0017510044 -0.026265066 0.99393618
0.0017538319 -0.026307479 0.99554116
0.0052700052 -0.026350025 0.99715126
0.0087991385 -0.026397415 0.99894458
0.012356848 -0.026478961 1.0020305
0.015936609 -0.026561016 1.0051357
0.019538624 -0.026643578 1.00826
-0.082852639 -0.022916688 1.0006443
-0.079015322 -0.022826649 0.99671286
-0.075208038 -0.022737315 0.99281216
-0.071430445 -0.022648677 0.98894185
-0.067682184 -0.022560729 0.98510164
-0.063962944 -0.022473468 0.98129141
-0.060272317 -0.022386862 0.9775098
-0.056610025 -0.02230092 0.97375721
-0.052975748 -0.022215636 0.97003335
-0.04936916 -0.022131002 0.96633786
-0.04600038 -0.022148332 0.96709454
-0.042659815 -0.022183103 0.96861285
-0.039308742 -0.022217983 0.97013587
-0.035947111 -0.022252973 0.97166365
-0.032574877 -0.022288073 0.97319627
-0.029191988 -0.022323284 0.97473377
-0.025798418 -0.02235863 0.97627705
-0.022394089 -0.022394089 0.9778254
-0.018978946 -0.022429664 0.9793787
-0.015552933 -0.022465348 0.98093688
-0.012116003 -0.022501148 0.98250008
-0.0086681014 -0.022537064 0.98406827
-0.0052091745 -0.022573089 0.9856413
-0.0017413595 -0.022637673 0.98846138
0.0017466825 -0.022706872 0.99148285
0.0052561136 -0.022776492 0.99452281
0.0087871328 -0.022846544 0.9975816
0.012339937 -0.022917025 1.0006591
0.015914731 -0.022987945 1.0037558
0.019511718 -0.023059303 1.0068716
-0.086820126 -0.019490231 1.0057628
-0.082947589 -0.019413266 1.0017911
-0.079105526 -0.019336907 0.99785072
-0.075293563 -0.019261142 0.99394107
-0.071511358 -0.019185973 0.99006206
-0.067758553 -0.019111386 0.98621309
-0.064034835 -0.019037385 0.98239434
-0.060339805 -0.018963939 0.97860432
-0.056673173 -0.018891057 0.97484338
-0.053034611 -0.018818732 0.97111118
-0.049423803 -0.018746961 0.96740746
-0.045840442 -0.018675735 0.963732
-0.042378787 -0.018646667 0.96223199
-0.039049383 -0.018675793 0.96373498
-0.035709564 -0.01870501 0.96524268
-0.032359276 -0.018734317 0.96675509
-0.028998503 -0.018763738 0.96827322
-0.025627159 -0.01879325 0.96979618
-0.022245195 -0.018822858 0.97132403
-0.018852558 -0.018852558 0.9728567
-0.015462845 -0.018899033 0.97525489
-0.012062926 -0.018956026 0.97819602
-0.0086424397 -0.019013368 0.98115498
-0.0052011968 -0.019071056 0.98413187
-0.0017390085 -0.019129094 0.98712683
0.0017443171 -0.019187488 0.9901402
0.0052489741 -0.019246239 0.99317193
0.0087751597 -0.019305352 0.99622238
0.012323072 -0.019364828 0.99929154
0.015892912 -0.019424671 1.0023797
0.019484887 -0.019484887 1.005487
0.023099195 -0.019545473 1.0086135
-0.090828478 -0.016028555 1.0109347
-0.086920135 -0.015964923 1.0069214
-0.083042771 -0.015901808 1.0029407
-0.079195932 -0.015839187 0.99899113
-0.075379275 -0.015777057 0.9950726
-0.07159245 -0.015715415 0.99118477
-0.067835093 -0.015654251 0.9873271
-0.064106897 -0.01559357 0.98349983
-0.060407445 -0.015533343 0.97970128
-0.056736454 -0.015473578 0.97593188
-0.053093605 -0.015414272 0.97219139
-0.049478572 -0.015355418 0.96847945
-0.045891039 -0.015297013 0.96479577
-0.042330705 -0.015239053 0.96114022
-0.038797237 -0.015181527 0.95751202
-0.035475131 -0.015203628 0.95890588
-0.03214654 -0.015227308 0.96039945
-0.028822504 -0.015258973 0.9623965
-0.025507303 -0.015304382 0.96526051
-0.022172311 -0.015350062 0.96814162
-0.018817352 -0.015396015 0.97103989
-0.015442247 -0.015442247 0.97395575
-0.012046809 -0.015488755 0.97688907
-0.0086308578 -0.015535544 0.9798401
-0.0051942053 -0.015582616 0.98280901
-0.0017366637 -0.015629975 0.98579592
0.0017419581 -0.015677622 0.98880112
0.0052418537 -0.015725562 0.99182469
0.0087632202 -0.015773796 0.99486685
0.012306253 -0.015822325 0.99792767
0.015871154 -0.015871154 1.0010073
0.019458128 -0.015920287 1.0041062
0.023067376 -0.015969722 1.0072241
-0.090933673 -0.012481092 1.0121056
-0.087020382 -0.012431484 1.0080827
-0.083138168 -0.01238228 1.0040928
-0.079286546 -0.012333463 1.0001341
-0.075465187 -0.01228503 0.9962067
-0.071673721 -0.012236977 0.99230999
-0.067911804 -0.012189298 0.98844361
-0.064179115 -0.012141994 0.98460776
-0.060475226 -0.012095045 0.98080057
-0.056799881 -0.01204846 0.97702289
-0.053152729 -0.012002229 0.97327399
-0.04953346 -0.011956353 0.96955383
-0.045941755 -0.011910826 0.96586204
-0.042377301 -0.011865644 0.9621982
-0.038839787 -0.011820805 0.95856214
-0.035347983 -0.011782661 0.95546901
-0.032075994 -0.011817471 0.95829183
-0.028784616 -0.011852489 0.96113145
-0.025473673 -0.011887714 0.96398789
-0.022142991 -0.011923149 0.96686137
-0.018792395 -0.011958797 0.96975201
-0.015421703 -0.011994659 0.97266012
-0.012030736 -0.012030736 0.97558564
-0.0086193066 -0.012067029 0.97852874
-0.005187233 -0.012103544 0.98148972
-0.0017343255 -0.012140279 0.98446864
0.0017396054 -0.012177238 0.98746568
0.0052347528 -0.012214423 0.99048108
0.0087513123 -0.012251837 0.99351501
0.012289479 -0.012289479 0.99656749
0.015849454 -0.012327353 0.99963868
0.01943144 -0.012365461 1.0027289
0.023035642 -0.012403807 1.0058384
-0.091039106 -0.0089254025 1.0132791
-0.087120861 -0.0088898838 1.0092467
-0.083233774 -0.0088546565 1.0052475
-0.079377376 -0.0088197077 1.0012798
-0.075551294 -0.0087850345 0.99734342
-0.071755178 -0.0087506315 0.99343777
-0.067988686 -0.0087164976 0.98956263
-0.064251497 -0.0086826347 0.98571819
-0.060543168 -0.0086490242 0.98190248
-0.056863446 -0.0086156735 0.97811627
-0.053211983 -0.008582578 0.97435904
-0.049588472 -0.0085497359 0.97063059
-0.045992587 -0.0085171452 0.96693063
-0.042424008 -0.0084848013 0.96325868
-0.038882434 -0.0084527032 0.95961463
-0.035367537 -0.0084208418 0.95599753
-0.03203401 -0.0084300023 0.95703751
-0.028746828 -0.0084549496 0.95986968
-0.025440132 -0.0084800441 0.96271861
-0.02211375 -0.0085052885 0.96558452
-0.018767502 -0.0085306829 0.96846753
-0.015401213 -0.00855623 0.97136778
-0.012014704 -0.0085819308 0.9742856
-0.0086077861 -0.0086077861 0.97722089
-0.0051802788 -0.008633798 0.98017395
-0.0017319935 -0.0086599672 0.98314488
0.0017372592 -0.0086862957 0.98613387
0.005227671 -0.0087127853 0.98914111
0.008739436 -0.008739436 0.99216676
0.01227275 -0.0087662498 0.99521089
0.015827814 -0.0087932302 0.99827385
0.019404827 -0.0088203764 1.0013556
0.023003995 -0.0088476911 1.0044566
0.026625523 -0.0088751744 1.0075768
-0.091144785 -0.0053614583 1.0144553
-0.08722157 -0.0053400965 1.0104134
-0.083329603 -0.0053189108 1.0064049
-0.079468399 -0.0052978932 1.0024281
-0.075637601 -0.0052770418 0.9984827
-0.071836822 -0.0052563529 0.99456811
-0.06806574 -0.0052358261 0.99068421
-0.064324044 -0.0052154628 0.98683119
-0.060611267 -0.0051952512 0.98300689
-0.056927148 -0.0051751952 0.97921205
-0.053271376 -0.0051552942 0.97544652
-0.049643602 -0.005135545 0.97170973
-0.046043523 -0.0051159472 0.96800154
-0.042470817 -0.0050964979 0.96432149
-0.038925156 -0.0050771944 0.96066904
-0.035406258 -0.0050580367 0.95704418
-0.031992134 -0.0050513898 0.95578647
-0.028709138 -0.0050663184 0.95861119
-0.025406679 -0.005081336 0.96145266
-0.022084583 -0.0050964425 0.964311
-0.018742677 -0.0051116389 0.96718639
-0.01538078 -0.0051269266 0.970079
-0.011998715 -0.0051423064 0.97298908
-0.0085962974 -0.0051577785 0.97591656
-0.0051733437 -0.0051733437 0.97886169
-0.0017296678 -0.0051890034 0.9818247
0.0017349193 -0.0052047577 0.98480564
0.0052206083 -0.0052206083 0.98780477
0.0087275933 -0.0052365558 0.99082226
0.012256069 -0.0052526006 0.99385816
0.015806234 -0.0052687442 0.99691272
0.019378288 -0.0052849879 0.99998617
0.022972437 -0.0053013312 1.0030786
0.026588881 -0.0053177765 1.0061902
-0.091250718 -0.0017892297 1.0156343
-0.087322667 -0.0017820953 1.0115845
-0.083425663 -0.0017750141 1.007565
-0.079559647 -0.001767992 1.003579
-0.075724095 -0.0017610255 0.99962455
-0.071918659 -0.0017541136 0.99570107
-0.068142973 -0.0017472557 0.9918083
-0.064396754 -0.0017404528 0.98794669
-0.060679514 -0.0017337004 0.98411375
-0.056991 -0.001727 0.98031038
-0.053330887 -0.0017203512 0.97653627
-0.049698863 -0.0017137539 0.97279137
-0.046094574 -0.0017072065 0.96907485
-0.042517725 -0.001700709 0.96538663
-0.038967978 -0.0016942599 0.96172589
-0.035445064 -0.0016878601 0.95809311
-0.031950369 -0.0016815984 0.9545387
-0.028671546 -0.0016865615 0.95735598
-0.025373314 -0.0016915543 0.96019006
-0.022055496 -0.0016965766 0.96304089
-0.018717917 -0.0017016288 0.96590871
-0.0153604 -0.0017067111 0.96879363
-0.01198277 -0.0017118242 0.97169602
-0.0085848384 -0.0017169678 0.97461569
-0.0051664268 -0.0017221423 0.97755295
-0.0017273482 -0.0017273482 0.98050803
0.0017325856 -0.0017325856 0.98348099
0.0052135647 -0.0017378549 0.98647201
0.0087157814 -0.0017431563 0.98948133
0.012239432 -0.0017484903 0.99250907
0.015784713 -0.0017538569 0.99555534
0.019351821 -0.0017592565 0.99862039
0.022940964 -0.0017646895 1.0017043
0.02655234 -0.001770156 1.0048074
-0.091356896 0.0017913118 1.0168161
-0.087423876 0.0017841607 1.0127569
-0.08352194 0.0017770625 1.0087278
-0.079651102 0.0017700245 1.0047327
-0.075810798 0.0017630417 1.000769
-0.072000675 0.0017561141 0.9968366
-0.068220384 0.0017492406 0.99293494
-0.064469628 0.0017424223 0.98906469
-0.06074791 0.0017356547 0.98522305
-0.057054996 0.0017289392 0.98141116
-0.05339054 0.0017222755 0.97762859
-0.04975424 0.0017156635 0.97387534
-0.046145741 0.0017091015 0.97015053
-0.042564794 0.0017025918 0.96645534
-0.039010897 0.001696126 0.96278512
-0.035483953 0.0016897119 0.95914429
-0.03198358 0.0016833463 0.95553094
-0.028634055 0.0016843561 0.9561041
-0.025340036 0.0016893358 0.95893073
-0.022026483 0.0016943449 0.96177411
-0.018693222 0.0016993837 0.96463436
-0.015340075 0.0017044528 0.96751171
-0.011966866 0.0017095522 0.97040635
-0.008573411 0.0017146821 0.97331828
-0.0051595289 0.001719843 0.97624779
-0.0017250348 0.0017250348 0.97919488
0.0017302583 0.0017302583 0.98215991
0.0052065402 0.0017355133 0.98514289
0.008704002 0.0017408004 0.98814404
0.01222284 0.00174612 0.99116361
0.015763247 0.001751472 0.9942016
0.019325426 0.0017568569 0.99725831
0.022909578 0.0017622752 1.0003339
0.026515903 0.0017677268 1.0034285
0.03014461 0.0017732122 1.0065422
-0.095433183 0.0054018782 1.0221033
-0.09146332 0.0053801951 1.0180006
-0.087525196 0.0053586853 1.0139307
-0.083618432 0.0053373468 1.0098932
-0.079742767 0.0053161844 1.0058889
-0.075897686 0.0052951872 1.0019161
-0.072082885 0.0052743573 0.99797475
-0.068298005 0.0052536922 0.99406469
-0.064542666 0.0052331896 0.99018526
-0.060816467 0.0052128402 0.98633492
-0.057119135 0.0051926486 0.98251444
-0.053450335 0.0051726131 0.97872347
-0.049809735 0.0051527312 0.97496158
-0.04619702 0.0051330021 0.9712286
-0.04261183 0.0051134196 0.96752334
-0.039053909 0.005093988 0.96384662
-0.03552293 0.0050747041 0.96019787
-0.03201858 0.0050555654 0.95657653
-0.02859666 0.0050464696 0.9548555
-0.025306845 0.0050613689 0.95767468
-0.021997549 0.0050763572 0.96051067
-0.018668592 0.0050914339 0.96336335
-0.015319803 0.0051066009 0.96623313
-0.011951004 0.0051218588 0.96912014
-0.0085620126 0.0051372079 0.97202432
-0.0051526492 0.0051526492 0.97494602
-0.0017227277 0.0051681832 0.97788525
0.0017279371 0.0051838113 0.98084235
0.0051995344 0.0051995344 0.98381734
0.0086922552 0.0052153529 0.98681039
0.012206293 0.0052312682 0.98982179
0.015741842 0.0052472809 0.99285156
0.019299105 0.0052633919 0.99589998
0.022878274 0.0052796016 0.99896705
0.026479559 0.0052959118 1.0020531
0.030103166 0.0053123236 1.0051584
-0.095544934 0.0090136724 1.0233002
-0.091569982 0.0089774495 1.0191878
-0.087626852 0.0089415153 1.0151083
-0.083715163 0.008905869 1.0110614
-0.079834633 0.008870515 1.0070478
-0.075984783 0.0088354396 1.0030658
-0.072165273 0.0088006435 0.99911547
-0.068375781 0.0087661259 0.99519676
-0.064615868 0.0087318746 0.99130827
-0.06088518 0.0086978823 0.98744929
-0.057183422 0.0086641544 0.98362023
-0.053510256 0.0086306864 0.97982067
-0.049865361 0.0085974764 0.97605038
-0.04624841 0.0085645206 0.97230899
-0.042659044 0.0085318089 0.96859533
-0.039097015 0.0084993513 0.96491051
-0.03556199 0.0084671406 0.9612537
-0.032053657 0.008435172 0.95762444
-0.028571716 0.0084034456 0.95402259
-0.025273742 0.0084245801 0.95642197
-0.021968689 0.0084494958 0.95925051
-0.018644027 0.0084745577 0.96209574
-0.015299585 0.0084997695 0.96495795
-0.011935185 0.0085251322 0.96783733
-0.0085506458 0.0085506458 0.97073382
-0.0051457873 0.0085763121 0.97364771
-0.0017204268 0.008602134 0.97657919
0.0017256222 0.0086281113 0.97952831
0.005192548 0.0086542461 0.98249537
0.0086805392 0.0086805392 0.98548037
0.01218979 0.0087069925 0.98848349
0.015720494 0.0087336078 0.99150509
0.019272851 0.0087603871 0.99454522
0.022847058 0.0087873302 0.99760401
0.026443319 0.0088144401 1.0006818
0.030061837 0.0088417167 1.0037785
0.033702824 0.0088691646 1.0068945
-0.095656939 0.012633936 1.0244998
-0.091676906 0.012583105 1.0203779
-0.087728769 0.012532681 1.016289
-0.083812103 0.012482653 1.0122322
-0.079926714 0.012433045 1.0082093
-0.076072089 0.012383829 1.0042183
-0.072247855 0.012335001 1.0002588
-0.068453692 0.01228656 0.99633074
-0.064689241 0.012238505 0.99243391
-0.060954049 0.012190809 0.98856622
-0.057247844 0.012143482 0.9847284
-0.053570315 0.012096522 0.98092037
-0.04992111 0.012049924 0.97714162
-0.046300016 0.012003708 0.97339392
-0.042706363 0.011957781 0.9696697
-0.039140221 0.011912241 0.96597677
-0.035601139 0.011867045 0.96231186
-0.032088805 0.011822192 0.95867461
-0.028602932 0.011777678 0.95506489
-0.025240725 0.011779005 0.95517254
-0.021939903 0.011813794 0.95799363
-0.018619526 0.01184879 0.96083146
-0.015279419 0.011883993 0.96368611
-0.011919406 0.011919406 0.9665578
-0.0085393079 0.011955031 0.96944672
-0.0051389439 0.011990869 0.97235286
-0.0017181319 0.012026924 0.97527653
0.0017233132 0.012063193 0.97821766
0.0051855789 0.012099684 0.98117679
0.0086688548 0.012136396 0.98415381
0.012173332 0.012173332 0.98714894
0.015699206 0.012210493 0.99016237
0.019246669 0.012247881 0.99319422
0.022815928 0.0122855 0.99624473
0.026407178 0.01232335 0.99931407
0.030060707 0.012377938 1.0037407
0.033748183 0.012433542 1.0082496
-0.095769212 0.016262697 1.0257022
-0.091784075 0.01619719 1.0215707
-0.087830916 0.016132209 1.0174723
-0.083909281 0.016067734 1.0134058
-0.08001902 0.016003804 1.0093737
-0.076159582 0.015940377 1.0053734
-0.072330624 0.015877454 1.0014046
-0.068531923 0.015815061 0.99746943
-0.064762779 0.015753109 0.9935621
-0.061023064 0.015691645 0.98968554
-0.057312422 0.015630661 0.98583919
-0.053630508 0.015570147 0.98202258
-0.049976986 0.015510099 0.9782353
-0.046351489 0.015450496 0.9744761
-0.042753786 0.015391363 0.97074652
-0.039183516 0.015332681 0.96704537
-0.03564037 0.015274445 0.96337235
-0.032124035 0.015216649 0.95972711
-0.028634215 0.01515929 0.95610946
-0.025207795 0.015124677 0.95392638
-0.021911195 0.015169289 0.95674008
-0.01859509 0.015214165 0.95957047
-0.015259307 0.015259307 0.9624176
-0.01190367 0.015304718 0.96528172
-0.0085280007 0.0153504 0.96816295
-0.0051321182 0.015396355 0.97106135
-0.0017158431 0.015442587 0.97397727
0.0017210108 0.015489097 0.97691065
0.0051786294 0.015535888 0.97986186
0.0086572021 0.015582963 0.98283088
0.012156919 0.015630323 0.98581797
0.015682066 0.015682066 0.98908138
0.019251803 0.015751475 0.99345911
0.022853285 0.015821505 0.99787593
0.026486928 0.015892157 1.002332
0.030153181 0.015963448 1.0068284
-0.095881753 0.019899987 1.0269076
-0.09189149 0.019819733 1.0227662
-0.08793328 0.019740125 1.0186582
-0.084007084 0.019661233 1.014587
-0.080111526 0.019582817 1.0105406
-0.076247282 0.019505117 1.006531
-0.072413586 0.019428035 1.0025532
-0.068610393 0.019351648 0.99861145
-0.064836487 0.019275712 0.99469286
-0.061092243 0.019200418 0.99080747
-0.057377137 0.019125713 0.98695236
-0.053690836 0.019051587 0.98312724
-0.050033037 0.018978048 0.97933239
-0.046403218 0.018905014 0.97556359
-0.042801313 0.018832579 0.97182566
-0.039226912 0.018760698 0.96811634
-0.035679691 0.01868936 0.96443516
-0.032159343 0.018618567 0.96078193
-0.028665567 0.018548308 0.9571563
-0.025198057 0.018478576 0.95355791
-0.021882562 0.018516013 0.95548981
-0.018570717 0.018570717 0.95831275
-0.015239248 0.018625747 0.96115249
-0.011887975 0.018681103 0.96400905
-0.0085167224 0.018736791 0.96688265
-0.0051253117 0.018792808 0.96977341
-0.0017135603 0.018849164 0.97268152
0.0017187144 0.018905858 0.97560716
0.0051745842 0.018973477 0.97909647
0.0086620925 0.019056605 0.98338616
0.012180295 0.019140463 0.98771358
0.015729599 0.019225065 0.99207932
0.019310415 0.019310415 0.99648368
0.022923172 0.019396529 1.0009274
0.026568295 0.019483417 1.0054111
0.03024623 0.01957109 1.0099354
-0.10002246 0.023641674 1.0323005
-0.095994547 0.023545833 1.0281156
-0.091999166 0.023450768 1.0239646
-0.088035911 0.023356466 1.019847
-0.084104754 0.023263017 1.0157666
-0.080204256 0.023170119 1.0117103
-0.076335184 0.023078078 1.0076914
-0.072496735 0.02298677 1.0037044
-0.068688653 0.022896217 0.99975055
-0.06491036 0.022806343 0.99582618
-0.061161581 0.022717159 0.99193203
-0.057442002 0.022628667 0.9880681
-0.053751297 0.022540865 0.98423433
-0.05008918 0.022453772 0.98043138
-0.046455059 0.02236725 0.97665352
-0.042848948 0.022281455 0.97290725
-0.039270401 0.022196313 0.96918964
-0.035719097 0.022111822 0.96550035
-0.032194726 0.022027971 0.96183908
-0.028696986 0.021944754 0.9582054
-0.025225574 0.021862164 0.9545992
-0.021854002 0.021854002 0.95424283
-0.01854641 0.021918485 0.95705837
-0.015219241 0.02198335 0.95989066
-0.011872322 0.022048598 0.96273971
-0.0085054748 0.022114236 0.96560574
-0.0051228683 0.022199098 0.96931118
-0.0017150291 0.022295378 0.97351527
0.0017225002 0.022392504 0.97775614
0.0051901103 0.022490477 0.98203415
0.0086881956 0.022589307 0.98634952
0.012217162 0.022689017 0.99070323
0.015777418 0.022789603 0.99509531
0.019369384 0.022891091 0.99952668
0.022993488 0.022993488 1.0039978
0.026650164 0.023096809 1.0085093
0.030339854 0.023201065 1.0130615
-0.10014077 0.027311118 1.0335214
-0.096107624 0.02720027 1.0293267
-0.092107095 0.027090322 1.0251659
-0.088138767 0.026981253 1.0210385
-0.084202595 0.026873169 1.0169483
-0.080297194 0.02676573 1.0128826
-0.076423287 0.026659288 1.0088545
-0.072580084 0.026553689 1.0048584
-0.06876719 0.026448919 1.0008936
-0.064984404 0.026345028 0.99696213
-0.061231073 0.026241889 0.9930591
-0.057507016 0.026139552 0.98918641
-0.053811889 0.02603801 0.98534381
-0.050145283 0.025937214 0.98152947
-0.04650702 0.025837233 0.97774589
-0.042896692 0.025738016 0.97399127
-0.039313991 0.025639558 0.97026539
-0.035758592 0.025541851 0.96656793
-0.032230187 0.025444886 0.96289849
-0.028728474 0.025348654 0.95925683
-0.025253149 0.025253149 0.9556427
-0.021825518 0.02518329 0.95299906
-0.018522166 0.025257498 0.95580727
-0.015216528 0.02536088 0.95971954
-0.0118859 0.025469786 0.96384078
-0.0085265432 0.025579628 0.96799749
-0.0051380848 0.025690423 0.97219026
-0.0017201455 0.02580218 0.97641945
0.0017276612 0.025914919 0.98068571
0.0052057281 0.026028642 0.98498929
0.008714457 0.026143372 0.98933095
0.012254253 0.026259113 0.99371094
0.015825532 0.026375886 0.9981299
0.019428719 0.026493706 1.0025885
0.023064245 0.026612589 1.0070873
0.026732543 0.026732543 1.0116267
-0.10025933 0.030989248 1.0347451
-0.096220955 0.030863324 1.0305405
-0.09221527 0.030738423 1.0263699
-0.08824186 0.030614523 1.0222329
-0.08430066 0.030491728 1.0181327
-0.080390342 0.030369686 1.0140576
-0.076511599 0.030248772 1.0100203
-0.07266362 0.030128818 1.0060149
-0.068846337 0.030009942 1.0020456
-0.065058619 0.029891796 0.9981007
-0.061300725 0.029774638 0.99418873
-0.057572175 0.029658394 0.99030727
-0.053872753 0.029543122 0.9864583
-0.050201647 0.029428553 0.98263276
-0.046559088 0.029314982 0.97884059
-0.042944539 0.029202288 0.97507769
-0.039357673 0.029090455 0.97134352
-0.035798173 0.028979475 0.96763784
-0.03226573 0.028869336 0.96396029
-0.028760035 0.028760035 0.96031064
-0.025280787 0.028651558 0.95668858
-0.021856617 0.028581729 0.95435697
-0.018573022 0.028703762 0.95843166
-0.015261278 0.028826857 0.96254188
-0.011921003 0.028951008 0.96668732
-0.0085518342 0.029076237 0.97086877
-0.005153391 0.029202551 0.97508645
-0.0017252922 0.029329967 0.97934097
0.0017328532 0.029458504 0.98363286
0.0052214414 0.029588168 0.98796242
0.0087408777 0.029718984 0.99233037
0.012291569 0.029850954 0.99673694
0.015873943 0.029984113 1.0011832
0.019488418 0.030118464 1.0056692
0.023135435 0.030254031 1.0101959
0.026815431 0.030390821 1.0147634
-0.10037819 0.034676101 1.0359718
-0.096334562 0.034535032 1.0317572
-0.092323698 0.034395106 1.0275768
-0.088345207 0.034256306 1.0234301
-0.084398799 0.034118664 1.019318
-0.080483727 0.033982016 1.0152355
-0.076600112 0.033846561 1.0111887
-0.072747335 0.033712182 1.007174
-0.068925671 0.033579171 1.0032003
-0.065132998 0.033446673 0.99924183
-0.061370537 0.033315435 0.99532092
-0.057637483 0.033185218 0.99143064
-0.053933505 0.033056021 0.98757076
-0.050258141 0.032927748 0.98373854
-0.046611279 0.032800529 0.97993785
-0.042992495 0.032674298 0.97616655
-0.039401453 0.032549027 0.97242403
-0.03583784 0.032424714 0.96871006
-0.032301348 0.032301348 0.96502441
-0.028791662 0.032178916 0.96136671
-0.025308508 0.032057445 0.95773762
-0.021920543 0.03203772 0.95714831
-0.01862758 0.032174911 0.96124703
-0.015306289 0.03231328 0.96538085
-0.011956315 0.032452855 0.96955079
-0.008577276 0.032593649 0.97375715
-0.0051687895 0.032735668 0.97799999
-0.00173047 0.032878932 0.98228008
0.0017380762 0.033023447 0.98659766
0.0052372501 0.033169251 0.99095356
0.0087674577 0.03331634 0.99534798
0.012329117 0.033464745 0.99978173
0.015922651 0.033614486 1.0042553
0.019548491 0.033765573 1.0087692
0.02320707 0.033918027 1.0133238
0.026898837 0.034071859 1.0179197
-0.10049732 0.038371705 1.0372013
-0.096448429 0.038215414 1.0329767
-0.09243238 0.038060393 1.0287864
-0.088448793 0.037906624 1.0246301
-0.084497251 0.037754089 1.020507
-0.080577314 0.037602745 1.0164161
-0.076688826 0.037452683 1.0123599
-0.072831266 0.037303817 1.0083359
-0.069004707 0.037156381 1.0043507
-0.065207541 0.037009683 1.0003854
-0.061440505 0.036864303 0.99645567
-0.057702981 0.036720078 0.99255729
-0.053994399 0.036576848 0.98868573
-0.050314762 0.036434829 0.98484683
-0.04666359 0.036293902 0.98103756
-0.043040559 0.036154069 0.97725779
-0.039445333 0.036015302 0.97350693
-0.0358776 0.0358776 0.96978474
-0.032337047 0.035740945 0.96609092
-0.028823428 0.035605412 0.96242738
-0.025336271 0.03547078 0.95878822
-0.021984849 0.035513986 0.95995617
-0.018682458 0.03566651 0.9640789
-0.015351579 0.03582035 0.96823728
-0.011991841 0.03597552 0.9724316
-0.0086028706 0.036132056 0.97666276
-0.0051842798 0.03628996 0.98093098
-0.0017356789 0.036449257 0.98523682
0.0017433312 0.036609955 0.98958057
0.0052531539 0.03677208 0.99396282
0.0087942025 0.03693565 0.99838424
0.012366895 0.037100684 1.0028452
0.015971661 0.037267208 1.0073464
0.019608932 0.037435234 1.0118881
-0.10470425 0.042249084 1.0427033
-0.10061675 0.042076096 1.0384339
-0.096562572 0.041904513 1.0341992
-0.09254133 0.041734323 1.029999
-0.088552624 0.041565519 1.0258329
-0.084596045 0.041398063 1.0217001
-0.080671713 0.04123221 1.0176069
-0.076777764 0.041067176 1.0135338
-0.07291545 0.040903788 1.0095015
-0.069083922 0.040741801 1.0055037
-0.065282255 0.040580865 1.0015317
-0.061510634 0.040421274 0.99759305
-0.057768732 0.040263057 0.99368829
-0.054055534 0.040105719 0.98980522
-0.050371509 0.039949816 0.98595756
-0.046716016 0.039795123 0.98213977
-0.043088727 0.039641626 0.97835147
-0.03948931 0.03948931 0.97459227
-0.035917446 0.039338157 0.97086179
-0.032372918 0.03918827 0.96716267
-0.028855195 0.039039381 0.9634881
-0.02536409 0.038891602 0.95984095
-0.022049533 0.039010711 0.96278054
-0.018737661 0.039178744 0.96692759
-0.015397134 0.039348233 0.97111052
-0.012027583 0.039519202 0.97533
-0.0086286208 0.039691653 0.97958612
-0.0051998645 0.039865628 0.98387975
-0.0017409192 0.040041141 0.98821145
0.0017486179 0.040218212 0.99258149
0.0052691558 0.040396862 0.99699056
0.0088211121 0.040577114 1.0014392
-0.10482933 0.045977779 1.0439489
-0.10073645 0.045789294 1.0396693
-0.096676983 0.045602351 1.0354246
-0.092650533 0.045416929 1.0312145
-0.088656694 0.045233008 1.0270385
-0.084695064 0.045050565 1.0228961
-0.080765508 0.044869728 1.01879
-0.076866895 0.044690054 1.0147104
-0.07299991 0.044512138 1.0106708
-0.069163367 0.044335496 1.00666
-0.065357156 0.044160239 1.0026808
-0.061580915 0.043986369 0.99873292
-0.057834253 0.043813828 0.99481529
-0.054116812 0.043642588 0.99092722
-0.050428387 0.043472748 0.98707086
-0.046768561 0.043304224 0.98324448
-0.043137003 0.043137003 0.97944766
-0.039533384 0.042971071 0.97568005
-0.035957515 0.042806566 0.97194493
-0.032408796 0.042643152 0.96823448
-0.028887033 0.042480931 0.96455121
-0.025407549 0.042345915 0.96148556
-0.022114595 0.042528071 0.96562147
-0.018793192 0.042711802 0.9697932
-0.015442965 0.042897124 0.97400105
-0.012063537 0.043084063 0.97824556
-0.0086545283 0.043272641 0.98252738
-0.0052155447 0.043462873 0.98684669
-0.0017461918 0.043654792 0.99120432
-0.10495471 0.049715392 1.0451975
-0.10085644 0.04951134 1.0409076
-0.096791662 0.049308959 1.0366528
-0.092759989 0.049108233 1.0324328
-0.088761009 0.048909128 1.0282469
-0.084794313 0.048711624 1.0240947
-0.080860153 0.048516091 1.0199839
-0.076956227 0.048321351 1.0158898
-0.073084302 0.048128691 1.0118393
-0.069243118 0.047937546 1.0078207
-0.065432228 0.047747839 1.0038325
-0.061651673 0.047559865 0.99988049
-0.057900053 0.04737277 0.99594712
-0.054178223 0.047187485 0.99205172
-0.050485391 0.047003638 0.98818666
-0.046821225 0.046821225 0.98435163
-0.043185391 0.046640221 0.9805463
-0.039577626 0.046460692 0.97677189
-0.035997577 0.046282597 0.97302777
-0.03244473 0.046105668 0.96930808
-0.028918946 0.045930091 0.96561676
-0.025482422 0.04586836 0.96431893
-0.022180047 0.046066251 0.96847934
-0.018849052 0.046265855 0.97267574
-0.015489068 0.046467204 0.9769088
-0.012099708 0.046670306 0.98117876
-0.0086805914 0.04687519 0.98548621
-0.0052313213 0.047081891 0.98983181
-0.001751497 0.047290418 0.99421579
-0.1050804 0.053461954 1.0464491
-0.10097671 0.053242266 1.0421489
-0.096906617 0.053024374 1.037884
-0.092869699 0.052808262 1.0336539
-0.088865571 0.052593909 1.0294582
-0.084893808 0.052381285 1.0252963
-0.080954544 0.052170705 1.0211746
-0.077045776 0.051961105 1.0170718
-0.073168889 0.051753603 1.0130103
-0.069323055 0.051547915 1.0089842
-0.065507457 0.051343683 1.0049866
-0.061722323 0.051141351 1.0010263
-0.057966094 0.050939903 0.99708313
-0.054239776 0.050740436 0.99317884
-0.050542526 0.050542526 0.98930502
-0.046874005 0.050346151 0.98546124
-0.043234069 0.050151519 0.98165154
-0.039622065 0.049958255 0.97786868
-0.036037691 0.049766332 0.97411203
-0.032480747 0.049575876 0.97038406
-0.028950926 0.049386874 0.96668458
-0.025557734 0.049411621 0.96716899
-0.022245884 0.049625434 0.97135413
-0.018905247 0.049841102 0.97557557
-0.015535444 0.050058655 0.97983384
-0.012136098 0.05027812 0.98412961
-0.0087068118 0.05049951 0.98846304
-0.0052471934 0.050722867 0.99283499
-0.0017568354 0.050948229 0.99724609
-0.10520637 0.057217501 1.0477036
-0.10109728 0.0569821 1.0433933
-0.097021848 0.056748629 1.0391182
-0.092979684 0.056517065 1.034878
-0.088970378 0.056287382 1.0306723
-0.084993519 0.056059554 1.0265006
-0.081049114 0.055833835 1.0223675
-0.077135526 0.055609334 1.0182567
-0.07325387 0.055387072 1.0141869
-0.069403186 0.055166636 1.0101504
-0.065582909 0.054947842 1.0061442
-0.061792649 0.054730631 1.0021669
-0.058032285 0.054515179 0.9982217
-0.054301467 0.054301467 0.99430847
-0.050599791 0.054089431 0.99042588
-0.046927188 0.053879365 0.98657936
-0.043282807 0.053670678 0.98275816
-0.03966644 0.053463463 0.97896385
-0.036077894 0.053257845 0.97519881
-0.032516841 0.053053793 0.97146243
-0.028982975 0.052851308 0.96775472
-0.025633497 0.052975893 0.97003603
-0.022312114 0.05320581 0.97424597
-0.018961776 0.053437736 0.97849274
-0.015582103 0.053671688 0.98277664
-0.012172705 0.053907692 0.9870981
-0.0087331925 0.054145794 0.99145794
-0.0052631628 0.054386016 0.99585664
-0.10533265 0.06098206 1.0489612
-0.10121807 0.060730841 1.0446399
-0.097137362 0.060481753 1.0403553
-0.093089916 0.060234655 1.0361049
-0.089075431 0.059989575 1.0318893
-0.085093476 0.059746481 1.0277078
-0.081144117 0.05950569 1.0235659
-0.077225491 0.059266072 1.0194442
-0.073339052 0.059028994 1.0153662
-0.069483489 0.058793724 1.0113193
-0.065658689 0.05856045 1.0073067
-0.061863501 0.058328442 1.0033159
-0.058098629 0.058098629 0.99936289
-0.054363303 0.057870612 0.99544072
-0.050657418 0.057644647 0.99155384
-0.046980333 0.057420406 0.98769665
-0.043331519 0.057197608 0.98386425
-0.039710913 0.056976527 0.98006141
-0.036118187 0.056757152 0.9762879
-0.032553021 0.056539461 0.97254336
-0.029015096 0.05632342 0.96882725
-0.025709709 0.056561358 0.97292006
-0.022378739 0.05680757 0.97715515
-0.019018644 0.057055935 0.98142731
-0.01562904 0.057306483 0.98573703
-0.012209536 0.057559237 0.99008471
-0.0087597324 0.057814233 0.99447095
-0.0052792309 0.058071539 0.9988969
-0.10545914 0.064755611 1.0502208
-0.10133928 0.064488634 1.0458909
-0.09725333 0.0642239 1.0415974
-0.093200259 0.063960962 1.037333
-0.089180738 0.063700527 1.0331092
-0.085193656 0.063442089 1.0289178
-0.081239097 0.063185968 1.0247639
-0.077316359 0.062931925 1.0206438
-0.073424511 0.062679462 1.0165493
-0.069563985 0.062429219 1.0124909
-0.065734521 0.062181305 1.0084702
-0.061934587 0.061934587 1.0044688
-0.058165122 0.061690282 1.0005066
-0.054425459 0.061448101 0.99657887
-0.050715044 0.061207809 0.9926818
-0.047033478 0.060969327 0.988814
-0.043380342 0.06073248 0.98497277
-0.039755486 0.060497478 0.98116148
-0.036158569 0.060264282 0.97737944
-0.032589275 0.060032878 0.97362649
-0.029098066 0.059907783 0.97159767
-0.025786374 0.060168207 0.97582126
-0.022445764 0.060430907 0.9800818
-0.019075857 0.060695909 0.98437965
-0.015676262 0.06096324 0.98871529
-0.012246589 0.061232943 0.99308944
-0.008786438 0.061505068 0.9975028
-0.0052953972 0.061779633 1.0019557
-0.10146062 0.068255328 1.0471432
-0.097369224 0.067974739 1.0428386
-0.093311429 0.067696527 1.0385704
-0.089286089 0.06742011 1.0343297
-0.085294038 0.067146376 1.0301301
-0.081334196 0.066874787 1.0259635
-0.078216881 0.067302898 1.0325315
-0.074976243 0.067661487 1.0380328
-0.06964507 0.066073529 1.013671
-0.065809987 0.065809987 1.0096279
-0.062005833 0.065549023 1.0056243
-0.058231875 0.065290287 1.0016549
-0.054487836 0.065033868 0.99772102
-0.050772872 0.064779177 0.99381369
-0.047086742 0.064526275 0.98993379
-0.043429278 0.064275332 0.98608392
-0.03980016 0.064026348 0.98226404
-0.036199041 0.063779265 0.97847342
-0.032625616 0.063534096 0.97471213
-0.029184718 0.063519679 0.974491
-0.0258635 0.063796632 0.97873992
-0.022513192 0.064076006 0.98302597
-0.019133413 0.064357847 0.98734975
-0.01572377 0.064642161 0.99171168
-0.012283871 0.064929031 0.99611264
-0.0088133067 0.065218471 1.0005531
-0.0053116637 0.065510519 1.0050336
-0.10158226 0.072031058 1.0483986
-0.097485468 0.071734592 1.0440836
-0.093422279 0.071440563 1.0398041
-0.089392401 0.071149051 1.0355612
-0.085394792 0.070859507 1.0313469
-0.081893437 0.070974313 1.0330179
-0.078589417 0.071278773 1.0374492
-0.075235933 0.071565881 1.0416281
-0.071839698 0.071839698 1.0456134
-0.065886036 0.069447443 1.0107946
-0.062077343 0.069171898 1.0067841
-0.05829915 0.068898991 1.002812
-0.054550268 0.06862776 0.99886423
-0.050830659 0.068358473 0.99494481
-0.047140121 0.068091288 0.99105603
-0.043478325 0.067826189 0.98719752
-0.03984493 0.067563146 0.98336899
-0.036239609 0.06730213 0.97956997
-0.032662034 0.067043118 0.97580016
-0.029271888 0.067153156 0.97740167
-0.025941091 0.067446835 0.9816761
-0.022581024 0.067743078 0.98598784
-0.019191317 0.068041943 0.99033779
-0.015771568 0.068343461 0.9947263
-0.012321382 0.068647698 0.99915451
-0.0088403402 0.068954654 1.0036222
-0.097601995 0.075503431 1.0453316
-0.093533479 0.075193584 1.0410419
-0.089498214 0.074886262 1.036787
-0.085495949 0.074581578 1.0325687
-0.082103811 0.074805692 1.0356716
-0.078739442 0.075077146 1.0394298
-0.075339787 0.075339787 1.043066
-0.071905628 0.075593099 1.046573
-0.068439908 0.075838819 1.049975
-0.062149312 0.072803475 1.0079513
-0.058366254 0.072515652 1.0039663
-0.054612674 0.072229661 1.0000069
-0.050888583 0.071945928 0.99607861
-0.047193628 0.0716644 0.99218088
-0.04352748 0.071385071 0.98831362
-0.039889805 0.071107909 0.98447645
-0.036280263 0.070832893 0.9806689
-0.032698534 0.070560001 0.97689068
-0.029359583 0.070808403 0.98032981
-0.026019141 0.071118988 0.98462975
-0.022649271 0.071432315 0.98896778
-0.019249573 0.071748406 0.99334401
-0.015819663 0.072067358 0.99775976
-0.012359123 0.072389148 1.0022149
-0.0088675423 0.072713844 1.0067103
-0.097718798 0.079281285 1.0465826
-0.093644954 0.078955553 1.0422826
-0.089604452 0.078632481 1.0380177
-0.085596658 0.078311838 1.033785
-0.082177818 0.078525469 1.0366051
-0.078778997 0.078778997 1.0399519
-0.075348973 0.079024538 1.0431932
-0.07188911 0.079262353 1.0463326
-0.068400614 0.079492606 1.0493722
-0.062221423 0.076443464 1.0091208
-0.058433369 0.076140448 1.0051208
-0.054675218 0.075839818 1.0011522
-0.050946631 0.075541556 0.99721485
-0.047247257 0.075245634 0.99330837
-0.043576747 0.074952006 0.98943228
-0.039934777 0.074660666 0.98558635
-0.03632101 0.074371591 0.98177028
-0.032768708 0.074160762 0.97898716
-0.0294478 0.074485607 0.98327541
-0.026097668 0.074813314 0.9876014
-0.022717927 0.075143911 0.99196559
-0.019308189 0.075477466 0.99636883
-0.015868051 0.075814016 1.0008116
-0.012397097 0.076153599 1.0052943
-0.0088949101 0.076496229 1.0098174
-0.097835876 0.083068199 1.0478365
-0.093756698 0.082726501 1.0435263
-0.089710943 0.082387596 1.0392513
-0.085698493 0.082051747 1.0350149
-0.082161188 0.082161188 1.0363953
-0.07873632 0.082398474 1.0393885
-0.075283229 0.08262793 1.0422829
-0.071802951 0.082849562 1.0450786
-0.068295851 0.083062522 1.0477649
-0.062293325 0.080091417 1.0102869
-0.058500625 0.079773583 1.0062777
-0.054737907 0.079458252 1.0023
-0.05100482 0.079145409 0.99835378
-0.047301002 0.078835003 0.99443829
-0.043626133 0.078527041 0.99055356
-0.039979856 0.078221455 0.98669893
-0.036361847 0.077918246 0.98287416
-0.03286704 0.077842996 0.98192489
-0.029536549 0.078184985 0.98623884
-0.026176672 0.078530014 0.99059111
-0.022787005 0.07887809 0.99498183
-0.01936717 0.079229325 0.99941236
-0.015916737 0.079583682 1.0038823
-0.012435304 0.079941243 1.0083926
-0.0089224493 0.080302037 1.0129437
-0.093868703 0.086506449 1.0447729
-0.089817673 0.086151645 1.0404878
-0.085799932 0.085799932 1.03624
-0.082066528 0.08571393 1.0352013
-0.078618906 0.085932292 1.0378386
-0.075146325 0.086143345 1.0403875
-0.071646854 0.086343646 1.0428066
-0.068122685 0.086534224 1.0451083
-0.062365264 0.08374764 1.0114536
-0.058568053 0.083415106 1.0074375
-0.054800741 0.083085001 1.0034506
-0.051063132 0.082757488 0.99949521
-0.047354873 0.082432553 0.99557084
-0.04367562 0.082110167 0.99167722
-0.040025033 0.081790283 0.98781389
-0.036402781 0.081472889 0.98398054
-0.032965954 0.081547365 0.98488003
-0.029625839 0.081906736 0.98922026
-0.02625615 0.082269266 0.99359876
-0.022856511 0.082635075 0.99801677
-0.019426504 0.083004154 1.0024743
-0.015965724 0.083376557 1.006972
-0.012473748 0.083752304 1.01151
-0.09398099 0.090295456 1.0460227
-0.089924738 0.089924738 1.041728
-0.085902147 0.089557558 1.0374745
-0.081911653 0.089192688 1.0332477
-0.078423865 0.089366734 1.0352639
-0.074930444 0.089551017 1.0373987
-0.071409538 0.089719675 1.0393525
-0.067861781 0.089871012 1.0411056
-0.062437356 0.087412298 1.0126228
-0.058635548 0.0870649 1.0085984
-0.054863725 0.086720079 1.0046039
-0.051121585 0.086377852 1.0006393
-0.047408864 0.086038306 0.99670595
-0.043725222 0.085701436 0.99280345
-0.04007031 0.085367188 0.98893136
-0.0364438 0.085035533 0.9850893
-0.033065476 0.085274123 0.98785323
-0.029715667 0.08565104 0.99221963
-0.026336124 0.08603134 0.99662519
-0.022926442 0.086415045 1.0010703
-0.019486209 0.086802207 1.0055553
-0.016015012 0.087192841 1.0100806
-0.012512431 0.087587021 1.0146469
-0.094093524 0.094093524 1.0472752
-0.090031952 0.093706727 1.0429701
-0.086004004 0.093323492 1.0387046
-0.08200863 0.09294311 1.0344709
-0.078134216 0.092670821 1.0314403
-0.074607857 0.092804894 1.0329325
-0.071049511 0.092910901 1.0341125
-0.067448534 0.092969596 1.0347657
-0.062509716 0.09108559 1.0137964
-0.058703158 0.09072306 1.0097615
-0.054926835 0.090363503 1.0057595
-0.051180165 0.0900065 1.001786
-0.047462989 0.089652307 0.9978438
-0.04377494 0.089300878 0.99393231
-0.040115692 0.088952184 0.99005133
-0.036495615 0.088632211 0.98648995
-0.033165596 0.089023441 0.99084443
-0.029806046 0.089418136 0.99523741
-0.026416589 0.089816399 0.99967015
-0.022996802 0.090218224 1.0041425
-0.01954628 0.090623662 1.0086551
-0.016064607 0.091032766 1.0132085
-0.012551354 0.09144558 1.0178032
-0.090139486 0.097497813 1.0442158
-0.086105913 0.097098157 1.0399355
-0.082105279 0.096701771 1.0356901
-0.078137159 0.096308596 1.0314791
-0.074201234 0.09591867 1.027303
-0.070297636 0.095532686 1.023169
-0.066424116 0.095148064 1.0190496
-0.062582232 0.094767377 1.0149724
-0.058770873 0.094389588 1.0109262
-0.054989789 0.094014801 1.0069122
-0.051238924 0.093643554 1.0029361
-0.047517221 0.093274549 0.99898404
-0.043824766 0.092908509 0.99506366
-0.040161181 0.092545331 0.99117404
-0.036605969 0.092386499 0.98947287
-0.033266317 0.092795521 0.99385357
-0.029896984 0.093208246 0.99827391
-0.026497543 0.093624651 1.0027337
-0.023067597 0.094044819 1.0072337
-0.019606726 0.094468765 1.0117743
-0.016114509 0.094896547 1.0163559
-0.012590521 0.095328234 1.0209793
-0.086208634 0.10088245 1.0411761
-0.082202822 0.10047012 1.0369205
-0.078229621 0.10006115 1.0326997
-0.074288607 0.099655449 1.0285126
-0.070379503 0.09925314 1.0243605
-0.066501789 0.098854013 1.0202413
-0.062655084 0.098457992 1.0161541
-0.058839012 0.098065019 1.0120983
-0.055053275 0.097675167 1.0080748
-0.051297653 0.097288653 1.0040857
-0.04757157 0.096905053 1.0001266
-0.043874711 0.096524358 0.99619764
-0.040206771 0.096146628 0.99229914
-0.036716994 0.096163556 0.9924739
-0.033367675 0.096590638 0.99688166
-0.029988479 0.09702155 1.0013289
-0.026579004 0.097456343 1.0058163
-0.023138829 0.097895041 1.010344
-0.082300603 0.10424744 1.038154
-0.078322306 0.10382259 1.0339231
-0.074376293 0.10340119 1.0297266
-0.07046216 0.10298315 1.0255636
-0.06657964 0.10256864 1.0214356
-0.0627281 0.10215719 1.0173382
-0.058907304 0.10174898 1.013273
-0.055116929 0.10134403 1.0092403
-0.051356602 0.10094228 1.0052395
-0.047625963 0.1005437 1.0012702
-0.04392473 0.10014838 0.99733335
-0.040252462 0.099756099 0.9934268
-0.036828693 0.099963591 0.99549311
-0.033469647 0.10040894 0.99992818
-0.074464157 0.10715573 1.030943
-0.070545182 0.1067222 1.026772
-0.066657655 0.10629194 1.0226325
-0.062801287 0.10586502 1.0185251
-0.058975764 0.10544151 1.0144506
-0.055180721 0.10502137 1.0104084
-0.051415805 0.10460457 1.0063983
-0.047680654 0.10419106 1.0024199
-0.043974921 0.10378081 0.99847299
-0.040298253 0.10337378 0.99455696
-0.070628189 0.11046973 1.0279801
-0.066735856 0.11002398 1.0238322
-0.062874645 0.10958153 1.019715
-0.05904438 0.10914264 1.0156308
-0.055244658 0.10870723 1.0115792
-0.051475149 0.10827531 1.0075599
-0.066814251 0.11376481 1.0250349
-0.062948175 0.11330672 1.0209074
