# .PCD v0.7 - Point Cloud Data file format
VERSION 0.7
FIELDS x y z
SIZE 4 4 4
TYPE F F F
COUNT 1 1 1
WIDTH 769
HEIGHT 1
VIEWPOINT 0 0 0 1 0 0 0
POINTS 769
DATA ascii
-0.025723422 -0.44072798 0.97343904
-0.025614006 -0.4354381 0.96929842
-0.022234589 -0.43614 0.9708609
-0.018844256 -0.43684411 0.97242826
-0.029799448 -0.44348592 0.99501717
-0.025571814 -0.43131128 0.96770179
-0.022197902 -0.43200532 0.96925896
-0.018813113 -0.43270162 0.9708212
-0.015417399 -0.43340021 0.97238863
-0.012010701 -0.43410105 0.973961
-0.028887387 -0.42651379 0.96456301
-0.025529759 -0.42719796 0.96611029
-0.022161337 -0.42788428 0.96766239
-0.018782074 -0.42857277 0.96921945
-0.015391921 -0.42926356 0.97078168
-0.011990819 -0.42995653 0.97234881
-0.0085787205 -0.43065175 0.97392106
-0.0051555689 -0.43134928 0.9754985
-0.034064665 -0.44642642 1.0177047
-0.028840033 -0.42242166 0.96298182
-0.02548784 -0.42309815 0.96452397
-0.02212489 -0.42377675 0.96607101
-0.018751137 -0.42445755 0.967623
-0.015366526 -0.42514056 0.96918005
-0.011971004 -0.42582574 0.97074199
-0.0085645206 -0.42651314 0.97230905
-0.0051470217 -0.42720279 0.97388124
-0.0017184524 -0.42789465 0.97545844
0.0017212399 -0.42858872 0.97704071
-0.032984104 -0.42879337 0.98542225
-0.028792834 -0.41834292 0.96140581
-0.025446061 -0.4190118 0.96294296
-0.022088565 -0.41968274 0.96448487
-0.018720301 -0.42035583 0.96603173
-0.015341217 -0.42103118 0.96758372
-0.011951256 -0.42170858 0.96914053
-0.0085503682 -0.4223882 0.97070235
-0.0051385029 -0.42307004 0.97226936
-0.0017156036 -0.4237541 0.97384137
0.0017183819 -0.42444032 0.97541839
0.005163508 -0.42512882 0.97700065
0.0086198281 -0.42581952 0.97858799
-0.03207653 -0.41361842 0.95830786
-0.028745791 -0.41427758 0.95983505
-0.025404418 -0.41493881 0.96136707
-0.022052359 -0.41560215 0.96290392
-0.018689565 -0.4162676 0.96444571
-0.015315989 -0.41693524 0.96599257
-0.011931571 -0.41760501 0.96754432
-0.0085362634 -0.41827688 0.96910101
-0.0051300121 -0.418951 0.97066283
-0.0017127641 -0.41962722 0.9722296
0.0017155333 -0.42030567 0.97380143
0.0051549342 -0.42098629 0.97537839
0.0086054923 -0.42166913 0.97696042
-0.037368733 -0.43240961 1.0100906
-0.032024287 -0.40957379 0.95674706
-0.028698899 -0.41022545 0.9582693
-0.025362909 -0.41087914 0.95979631
-0.02201627 -0.41153491 0.96132815
-0.018658934 -0.41219282 0.962865
-0.015290844 -0.41285279 0.96440667
-0.011911951 -0.41351488 0.96595329
-0.0085222041 -0.41417912 0.96750492
-0.0051215491 -0.41484547 0.96906149
-0.001709934 -0.41551396 0.97062308
0.0017126937 -0.41618457 0.97218961
0.005146388 -0.41685742 0.97376132
0.0085912021 -0.41753241 0.9753381
-0.036105145 -0.41434953 0.9759354
-0.031972215 -0.40554231 0.95519137
-0.028652159 -0.40618649 0.95670867
-0.025321538 -0.4068327 0.95823067
-0.021980301 -0.40748096 0.95975757
-0.018628398 -0.40813127 0.96128929
-0.015265779 -0.40878361 0.96282578
-0.011892393 -0.4094381 0.96436733
-0.0085081887 -0.41009471 0.96591383
-0.0051131127 -0.4107534 0.96746528
-0.001707113 -0.41141424 0.96902174
0.0017098638 -0.41207716 0.9705832
0.0051378701 -0.4127422 0.97214961
-0.041770827 -0.43405336 1.0308999
-0.035273854 -0.40145007 0.95346528
-0.031922538 -0.40155193 0.95370722
-0.028605565 -0.40216061 0.95515287
-0.025280293 -0.40279934 0.95666993
-0.021944443 -0.40344012 0.95819181
-0.01859796 -0.40408295 0.95971859
-0.015240797 -0.40472785 0.96125019
-0.0118729 -0.40537471 0.96278656
-0.0084942207 -0.40602374 0.96432799
-0.0051047048 -0.4066748 0.96587431
-0.0017043012 -0.40732801 0.9674257
0.0017070429 -0.40798324 0.96898198
0.0051293806 -0.40864065 0.97054332
-0.041099641 -0.42350501 1.0143352
-0.035317067 -0.39857835 0.95463336
-0.031961661 -0.39867967 0.95487607
-0.028604545 -0.398781 0.95511878
-0.025245722 -0.39888242 0.95536166
-0.0219087 -0.39941248 0.95663118
-0.018567622 -0.40004784 0.95815295
-0.015215895 -0.40068525 0.9596796
-0.011853471 -0.40132466 0.96121109
-0.0084802974 -0.40196609 0.96274734
-0.0050963238 -0.40260959 0.96428859
-0.0017014986 -0.40325519 0.96583486
0.0017042314 -0.40390286 0.96738607
0.0051209191 -0.40455261 0.96894228
-0.039170679 -0.40022215 0.96672851
-0.035360388 -0.39569959 0.95580435
-0.032000877 -0.39580032 0.95604765
-0.028639652 -0.39590108 0.95629102
-0.025276715 -0.39600188 0.9565345
-0.021912066 -0.39610273 0.95677811
-0.018545704 -0.39620367 0.95702195
-0.015191074 -0.39665583 0.95811409
-0.011834105 -0.39728779 0.95964062
-0.0084664207 -0.39792177 0.96117198
-0.0050879708 -0.39855772 0.96270812
-0.0016987054 -0.39919576 0.96424925
0.0017014291 -0.39983585 0.9657954
-0.044953674 -0.41896823 1.020696
-0.038765736 -0.39271376 0.95673454
-0.035403818 -0.3928138 0.95697826
-0.03204019 -0.39291391 0.95722216
-0.028674845 -0.39301404 0.95746613
-0.025307786 -0.39311427 0.95771027
-0.021939006 -0.39321449 0.95795447
-0.01856851 -0.39331478 0.95819879
-0.015196295 -0.39341518 0.95844334
-0.011822356 -0.39351556 0.9586879
-0.0084525887 -0.39389062 0.95960164
-0.0050796457 -0.39451915 0.96113288
-0.0016959214 -0.39514971 0.96266901
0.001698636 -0.3957822 0.96420991
-0.043520853 -0.40213269 0.98816317
-0.038813394 -0.3898215 0.95791078
-0.035447355 -0.38992092 0.9581551
-0.0320796 -0.3900204 0.95839959
-0.028710125 -0.39011994 0.95864415
-0.025338931 -0.39021954 0.95888889
-0.021966012 -0.39031914 0.95913368
-0.018591372 -0.39041883 0.9593786
-0.01521501 -0.39051861 0.95962381
-0.011836921 -0.39061841 0.95986903
-0.0084571047 -0.39071825 0.96011436
-0.0050755595 -0.39081809 0.96035969
-0.0016931464 -0.39111683 0.96109378
0.0016958524 -0.3917419 0.9626298
-0.049683172 -0.4213869 1.0445201
-0.042229615 -0.3868233 0.95884496
-0.03886117 -0.38692209 0.95908988
-0.035491001 -0.38702089 0.95933479
-0.032119107 -0.38711974 0.95957983
-0.028745493 -0.38721871 0.9598251
-0.025370153 -0.38731766 0.96007037
-0.021993086 -0.38741666 0.96031582
-0.018614292 -0.38751572 0.96056134
-0.015233771 -0.38761485 0.96080703
-0.011851521 -0.38771406 0.96105295
-0.0084675383 -0.38781327 0.96129888
-0.0050818236 -0.38791251 0.96154493
-0.0016943748 -0.38801184 0.9617911
-0.048069272 -0.40413794 1.0105901
-0.04228165 -0.38391736 0.96002638
-0.038909066 -0.38401556 0.96027189
-0.035534751 -0.38411373 0.96051741
-0.03215871 -0.38421196 0.96076304
-0.028780947 -0.38431028 0.96100891
-0.025401451 -0.38440862 0.96125478
-0.022020224 -0.384507 0.96150082
-0.018637268 -0.38460544 0.96174699
-0.015252579 -0.38470393 0.96199328
-0.011866156 -0.38480249 0.96223974
-0.008477998 -0.38490111 0.96248633
-0.0050881025 -0.38499975 0.96273297
-0.0016964688 -0.38509843 0.96297973
-0.04655005 -0.3879171 0.97865057
-0.042333808 -0.38100427 0.96121067
-0.038957071 -0.38110176 0.96145666
-0.035578609 -0.38119939 0.96170294
-0.032198414 -0.38129699 0.96194917
-0.028816488 -0.38139468 0.96219563
-0.025432827 -0.38149241 0.96244216
-0.022047432 -0.38159016 0.9626888
-0.018660299 -0.38168797 0.96293551
-0.015271433 -0.38178581 0.96318239
-0.011880828 -0.38188374 0.96342945
-0.0084884837 -0.38198176 0.96367669
-0.0050943964 -0.38207975 0.96392393
-0.0016985681 -0.38217783 0.96417135
-0.052823961 -0.40619805 1.0339612
-0.045765258 -0.37798715 0.96215141
-0.042386096 -0.37808397 0.96239787
-0.039005201 -0.37818086 0.96264452
-0.035622578 -0.37827784 0.9628914
-0.032238211 -0.37837481 0.96313822
-0.028852116 -0.37847188 0.96338528
-0.02546428 -0.37856895 0.9636324
-0.022074705 -0.37866607 0.96387964
-0.018683389 -0.37876326 0.964127
-0.015290335 -0.3788605 0.96437454
-0.011895536 -0.37895778 0.96462214
-0.0084989946 -0.37905517 0.96487004
-0.0051007071 -0.37915257 0.96511793
-0.051124215 -0.38960177 1.0006908
-0.045821842 -0.37506026 0.963341
-0.042438515 -0.37515646 0.96358806
-0.039053451 -0.37525272 0.9638353
-0.035666652 -0.37534907 0.96408278
-0.032278113 -0.37544543 0.96433026
-0.028887834 -0.37554184 0.96457791
-0.02549581 -0.37563828 0.96482563
-0.022102045 -0.37573478 0.96507347
-0.018706538 -0.37583134 0.96532148
-0.015309283 -0.37592793 0.96556962
-0.011910281 -0.3760246 0.96581787
-0.0085095316 -0.37612128 0.96606624
-0.0051070326 -0.37621808 0.96631485
-0.04952148 -0.37397256 0.96931934
-0.045878559 -0.3721261 0.96453339
-0.04249106 -0.37222168 0.96478117
-0.039101817 -0.37231731 0.965029
-0.035710838 -0.37241301 0.96527708
-0.032318112 -0.37250876 0.96552527
-0.028923638 -0.37260452 0.96577346
-0.025527421 -0.37270033 0.96602184
-0.022129456 -0.37279621 0.96627033
-0.018729741 -0.37289211 0.96651888
-0.015328278 -0.3729881 0.96676767
-0.011925063 -0.3730841 0.96701652
-0.0085200947 -0.37318015 0.96726549
-0.055896372 -0.3912746 1.0235126
-0.049325366 -0.36908978 0.96548063
-0.045935422 -0.36918467 0.96572882
-0.042543739 -0.36927965 0.96597725
-0.039150309 -0.36937463 0.96622574
-0.035755128 -0.36946967 0.96647429
-0.032358211 -0.3695648 0.9667232
-0.028959535 -0.36965996 0.96697205
-0.025559111 -0.36975512 0.96722102
-0.022156933 -0.36985034 0.96747011
-0.018753003 -0.36994562 0.96771932
-0.01534732 -0.37004092 0.96796864
-0.011939881 -0.37013632 0.96821815
-0.0085306847 -0.37023172 0.96846771
-0.054114953 -0.37531337 0.99089319
-0.049386561 -0.36614174 0.96667844
-0.045992427 -0.366236 0.96692729
-0.042596549 -0.3663303 0.96717632
-0.039198916 -0.36642465 0.96742541
-0.035799537 -0.36651906 0.96767467
-0.032398406 -0.36661354 0.96792412
-0.028995518 -0.36670804 0.96817356
-0.025590876 -0.36680254 0.96842313
-0.022184478 -0.36689714 0.96867281
-0.018776324 -0.36699176 0.96892267
-0.01536641 -0.36708644 0.96917266
-0.011954736 -0.36718118 0.96942276
-0.0085413009 -0.36727595 0.96967298
-0.060901515 -0.39309159 1.0475757
-0.052844487 -0.36309278 0.96762985
-0.049447905 -0.36318636 0.96787924
-0.046049573 -0.36327994 0.96812868
-0.042649489 -0.36337364 0.96837837
-0.039247647 -0.36346734 0.96862805
-0.03584405 -0.36356109 0.96887791
-0.032438703 -0.36365491 0.96912795
-0.029031591 -0.36374876 0.96937805
-0.02562272 -0.36384264 0.96962821
-0.022212092 -0.3639366 0.96987861
-0.018799702 -0.36403057 0.97012907
-0.015385547 -0.3641246 0.97037965
-0.011969628 -0.36421868 0.97063035
-0.058908068 -0.3766546 1.0132861
-0.052910194 -0.36013067 0.96883297
-0.049509406 -0.36022362 0.96908301
-0.046106856 -0.36031654 0.96933305
-0.042702552 -0.36040956 0.96958321
-0.039296497 -0.36050263 0.96983367
-0.035888679 -0.36059576 0.97008419
-0.0324791 -0.36068895 0.97033489
-0.029067755 -0.36078215 0.97058558
-0.025654647 -0.36087537 0.9708364
-0.022239774 -0.36096865 0.97108734
-0.018823138 -0.36106199 0.97133845
-0.015404731 -0.36115536 0.97158962
-0.011984557 -0.36124879 0.97184098
-0.057048868 -0.3613095 0.98130578
-0.052976064 -0.35716119 0.97003913
-0.04957106 -0.35725349 0.97028977
-0.046164289 -0.35734579 0.97054046
-0.042755757 -0.35743815 0.97079128
-0.039345473 -0.35753059 0.97104239
-0.035933416 -0.35762304 0.97129345
-0.032519594 -0.35771552 0.97154462
-0.029104009 -0.35780811 0.9717961
-0.025686651 -0.35790068 0.97204751
-0.022267526 -0.3579933 0.9722991
-0.018846631 -0.35808599 0.97255081
-0.015423965 -0.35817873 0.9728027
-0.063932516 -0.37811518 1.0368717
-0.056449573 -0.35409278 0.97099721
-0.053042099 -0.35418433 0.97124827
-0.049632866 -0.35427597 0.97149956
-0.046221863 -0.35436761 0.97175086
-0.042809095 -0.35445932 0.97200233
-0.039394569 -0.35455111 0.97225404
-0.035978265 -0.3546429 0.97250575
-0.032560192 -0.35473472 0.97275758
-0.029140353 -0.35482666 0.97300965
-0.025718737 -0.35491857 0.97326171
-0.022295348 -0.35501057 0.97351396
-0.018870184 -0.35510257 0.97376627
-0.015443245 -0.35519463 0.97401875
-0.061872475 -0.36239591 1.0034615
-0.056520008 -0.35110915 0.9722088
-0.053108297 -0.35120004 0.97246045
-0.049694821 -0.35129097 0.97271228
-0.046279579 -0.35138199 0.97296429
-0.042862564 -0.35147303 0.97321635
-0.039443783 -0.35156417 0.97346872
-0.036023226 -0.3516553 0.97372109
-0.032600891 -0.35174647 0.97397351
-0.029176788 -0.35183772 0.97422624
-0.025750903 -0.35192901 0.97447896
-0.02232324 -0.35202032 0.9747318
-0.018893797 -0.35211167 0.97498477
-0.015462575 -0.3522031 0.97523791
-0.06919463 -0.37963539 1.0615536
-0.060004801 -0.34802786 0.97317111
-0.05659062 -0.34811804 0.97342336
-0.053174663 -0.34820828 0.97367567
-0.049756937 -0.34829855 0.97392809
-0.046337444 -0.34838894 0.97418082
-0.042916171 -0.3484793 0.97443354
-0.039493121 -0.34856972 0.97468638
-0.036068302 -0.34866023 0.97493947
-0.032641694 -0.34875074 0.97519255
-0.029213315 -0.34884134 0.97544587
-0.025783148 -0.34893194 0.97569919
-0.0223512 -0.3490226 0.97595268
-0.018917469 -0.34911329 0.9762063
-0.066902019 -0.36344069 1.0263814
-0.060079839 -0.34502995 0.97438812
-0.056661408 -0.34511948 0.97464103
-0.053241197 -0.34520903 0.97489393
-0.049819209 -0.34529865 0.97514701
-0.046395451 -0.34538835 0.97540033
-0.042969909 -0.34547809 0.97565371
-0.039542586 -0.34556782 0.97590715
-0.036113489 -0.34565768 0.97616088
-0.032682598 -0.3457475 0.97641456
-0.029249929 -0.34583738 0.97666842
-0.025815474 -0.34592736 0.97692251
-0.022379231 -0.34601733 0.97717661
-0.018941199 -0.34610736 0.97743088
-0.06476704 -0.34834164 0.99362743
-0.060155064 -0.34202451 0.97560811
-0.056732364 -0.34211335 0.97586155
-0.053307895 -0.34220228 0.97611523
-0.049881637 -0.34229124 0.97636896
-0.046453606 -0.34238029 0.97662294
-0.043023784 -0.3424693 0.97687691
-0.039592177 -0.34255838 0.97713101
-0.036158789 -0.34264755 0.97738534
-0.032723606 -0.34273672 0.97763968
-0.029286638 -0.34282595 0.97789419
-0.025847882 -0.34291524 0.97814888
-0.022407332 -0.34300455 0.97840363
-0.072181217 -0.36460769 1.0505842
-0.063655667 -0.33892342 0.97657728
-0.060230479 -0.33901155 0.9768312
-0.056803506 -0.33909974 0.97708529
-0.05337476 -0.33918798 0.97733963
-0.049944222 -0.33927625 0.97759396
-0.0465119 -0.33936459 0.97784847
-0.043077789 -0.33945298 0.97810316
-0.039641887 -0.33954141 0.97835791
-0.0362042 -0.33962989 0.9786129
-0.032764718 -0.33971837 0.97886789
-0.02932344 -0.33980691 0.979123
-0.025880372 -0.33989555 0.9793784
-0.022435503 -0.33998418 0.97963375
-0.069819525 -0.34909764 1.0162102
-0.063735552 -0.33590358 0.97780281
-0.060306083 -0.33599102 0.97805738
-0.056874827 -0.33607852 0.97831208
-0.053441789 -0.33616611 0.978567
-0.05000696 -0.3362537 0.97882199
-0.046570342 -0.33634135 0.97907716
-0.043131933 -0.33642906 0.97933251
-0.039691728 -0.33651683 0.97958791
-0.036249727 -0.3366046 0.97984344
-0.032805931 -0.33669242 0.98009914
-0.029360335 -0.33678031 0.98035496
-0.025912942 -0.33686826 0.98061097
-0.022463748 -0.33695623 0.98086703
-0.0194754 -0.34524575 1.0049975
-0.016710622 -0.36206347 1.0539533
-0.067605413 -0.33456013 0.98398417
-0.063815624 -0.33287609 0.97903126
-0.060381874 -0.3329629 0.97928661
-0.056946326 -0.33304974 0.97954196
-0.053508993 -0.33313665 0.97979754
-0.050069865 -0.33322358 0.98005325
-0.046628933 -0.33331054 0.98030901
-0.043186214 -0.33339757 0.98056501
-0.039741691 -0.33348462 0.98082101
-0.036295369 -0.33357173 0.98107719
-0.032847248 -0.33365887 0.98133355
-0.029397326 -0.33374611 0.98159009
-0.025945598 -0.33383337 0.98184675
-0.022492068 -0.33392069 0.98210359
-0.019036729 -0.33400804 0.98236048
-0.015579583 -0.33409551 0.98261768
-0.012289144 -0.33882928 0.99654031
-0.0092022447 -0.35520664 1.0447083
-0.075105295 -0.34988075 1.0398195
-0.067332178 -0.32975501 0.98000729
-0.063895911 -0.32984105 0.98026299
-0.060457863 -0.32992721 0.980519
-0.057018012 -0.33001333 0.980775
-0.053576361 -0.33009952 0.98103112
-0.050132923 -0.3301858 0.98128754
-0.046687678 -0.33027211 0.98154402
-0.043240629 -0.33035842 0.98180056
-0.039791785 -0.33044481 0.98205733
-0.036341134 -0.33053127 0.98231429
-0.032888677 -0.33061776 0.9825713
-0.029434415 -0.3307043 0.9828285
-0.025978342 -0.33079088 0.98308581
-0.022520458 -0.33087751 0.98334324
-0.019060764 -0.33096418 0.98360085
-0.015599256 -0.3310509 0.98385853
-0.012135936 -0.33113769 0.98411649
-0.0086707994 -0.33122453 0.98437458
-0.0052226223 -0.33250695 0.98818588
-0.0018243691 -0.34845451 1.0355808
-0.072680429 -0.33503905 1.0062476
-0.067416973 -0.32671303 0.98124146
-0.0639764 -0.32679838 0.98149782
-0.060534041 -0.32688382 0.98175448
-0.057089884 -0.32696933 0.98201126
-0.05364392 -0.32705486 0.98226815
-0.050196152 -0.32714042 0.98252517
-0.046746574 -0.32722601 0.98278219
-0.043295197 -0.32731169 0.9830395
-0.039842013 -0.32739741 0.98329693
-0.036387019 -0.32748315 0.98355448
-0.03293021 -0.32756895 0.98381215
-0.029471597 -0.32765481 0.98407
-0.026011165 -0.32774067 0.98432791
-0.022548921 -0.32782662 0.98458606
-0.019084858 -0.32791257 0.98484415
-0.015618982 -0.32799861 0.98510259
-0.012151284 -0.32808468 0.9853611
-0.0086817686 -0.32817087 0.9856199
-0.0052104294 -0.32825705 0.98587877
-0.0017372658 -0.32834324 0.98613769
0.0017377224 -0.32842955 0.98639685
0.0054254411 -0.34180281 1.0265617
-0.080651022 -0.35073817 1.0646642
-0.071072623 -0.32416052 0.98398793
-0.067529567 -0.32379562 0.98288029
-0.064057104 -0.32374808 0.98273599
-0.060610425 -0.32383284 0.98299325
-0.057161935 -0.32391763 0.98325062
-0.053711642 -0.32400247 0.98350823
-0.050259534 -0.32408732 0.98376578
-0.04680562 -0.32417226 0.98402357
-0.043349899 -0.32425725 0.98428154
-0.039892361 -0.32434225 0.98453957
-0.036433015 -0.32442731 0.98479778
-0.032971848 -0.32451242 0.9850561
-0.02950887 -0.32459757 0.98531461
-0.026044069 -0.32468274 0.98557311
-0.022577453 -0.32476798 0.98583186
-0.019109014 -0.32485324 0.98609072
-0.015638756 -0.3249386 0.98634976
-0.012166674 -0.32502401 0.98660904
-0.0086927656 -0.32510942 0.98686832
-0.0052170311 -0.32519493 0.9871279
-0.0017394678 -0.32528049 0.9873876
0.0017399254 -0.32536605 0.98764729
0.0052211499 -0.32545167 0.98790723
0.0087042069 -0.32553735 0.98816729
-0.077978261 -0.33548787 1.0293815
-0.071387298 -0.32211342 0.98834455
-0.067828208 -0.32174921 0.98722696
-0.064277157 -0.3213858 0.98611194
-0.06073413 -0.32102326 0.98499954
-0.057234164 -0.32085818 0.98449308
-0.053779524 -0.32094231 0.98475122
-0.050323077 -0.3210265 0.98500955
-0.046864811 -0.32111076 0.985268
-0.043404736 -0.32119507 0.98552668
-0.039942838 -0.32127938 0.98578537
-0.036479127 -0.32136372 0.98604423
-0.033013593 -0.32144815 0.98630327
-0.029546235 -0.32153255 0.98656225
-0.02607706 -0.32161707 0.98682153
-0.022606058 -0.32170162 0.98708093
-0.019133234 -0.3217862 0.98734051
-0.015658582 -0.32187083 0.98760021
-0.012182101 -0.32195553 0.98786002
-0.0087037915 -0.32204029 0.98812008
-0.0052236496 -0.32212505 0.98838019
-0.0017416752 -0.32220989 0.98864055
0.001742134 -0.3222948 0.98890102
0.0052277795 -0.32237974 0.98916161
0.0087152608 -0.32246464 0.9894222
0.012204584 -0.3225497 0.98968315
-0.075476736 -0.32121494 0.99635911
-0.071704768 -0.32004812 0.99273986
-0.06812951 -0.31968462 0.99161232
-0.064562373 -0.31932199 0.99048752
-0.061003305 -0.31896013 0.9893651
-0.057452299 -0.3185991 0.98824525
-0.053909328 -0.31823894 0.98712802
-0.050386786 -0.317958 0.9862566
-0.046924159 -0.31804153 0.9865157
-0.043459713 -0.3181251 0.98677492
-0.039993446 -0.31820872 0.98703432
-0.036525358 -0.31829241 0.9872939
-0.033055443 -0.31837609 0.98755348
-0.0295837 -0.31845984 0.98781323
-0.026110135 -0.31854364 0.98807317
-0.022634739 -0.31862748 0.98833323
-0.019157514 -0.31871137 0.98859346
-0.015678458 -0.31879529 0.98885381
-0.012197568 -0.31887928 0.98911428
-0.0087148445 -0.31896329 0.98937488
-0.0052302852 -0.31904739 0.98963577
-0.0017438882 -0.31913155 0.98989677
0.0017443482 -0.31921571 0.99015784
0.005234425 -0.31929991 0.99041903
0.0087263444 -0.31938419 0.99068046
0.012220106 -0.31946847 0.99094188
-0.083528399 -0.33596978 1.0536416
-0.075624868 -0.31832793 0.99831462
-0.072025076 -0.31796435 0.99717438
-0.068433501 -0.31760165 0.99603689
-0.064850114 -0.31723973 0.9949019
-0.061274875 -0.31687865 0.99376947
-0.057707779 -0.31651843 0.99263978
-0.054148771 -0.31615895 0.99151248
-0.050597847 -0.31580034 0.9903878
-0.047054965 -0.31544253 0.98926568
-0.0435201 -0.31508553 0.98814607
-0.040044181 -0.31513032 0.9882865
-0.0365717 -0.31521323 0.98854655
-0.033097398 -0.31529626 0.9888069
-0.02962126 -0.31537929 0.98906738
-0.026143294 -0.31546241 0.98932803
-0.022663493 -0.31554556 0.98958874
-0.019181857 -0.31562874 0.98984963
-0.015698384 -0.31571195 0.99011058
-0.012213076 -0.31579524 0.99037176
-0.0087259253 -0.31587848 0.99063289
-0.0052369372 -0.3159619 0.99089444
-0.0017461068 -0.31604531 0.9911561
0.001746568 -0.31612882 0.99141794
0.0052410876 -0.31621227 0.99167967
0.0087374542 -0.31629583 0.99194175
-0.080794133 -0.32138112 1.0191511
-0.075964585 -0.31622466 1.0027992
-0.072348252 -0.31586191 1.0016488
-0.068740219 -0.31549996 1.000501
-0.065140434 -0.31513885 0.99935585
-0.061548885 -0.31477857 0.99821341
-0.057965532 -0.31441909 0.99707341
-0.054390352 -0.31406042 0.99593604
-0.050823327 -0.31370261 0.99480134
-0.047264416 -0.31334558 0.99366915
-0.043713599 -0.31298938 0.99253958
-0.040170852 -0.31263402 0.99141264
-0.036636133 -0.3122794 0.99028814
-0.03313946 -0.31220859 0.99006355
-0.029658915 -0.31229094 0.99032468
-0.026176535 -0.31237331 0.99058592
-0.022692317 -0.31245574 0.99084735
-0.019206259 -0.31253824 0.99110889
-0.015718361 -0.31262073 0.99137056
-0.012228619 -0.31270328 0.99163228
-0.0087370351 -0.31278586 0.99189419
-0.0052436069 -0.31286854 0.99215639
-0.001748331 -0.31295124 0.99241865
0.0017487932 -0.313034 0.99268103
0.0052477675 -0.31311679 0.99294364
0.0087485928 -0.31319964 0.99320632
-0.07994879 -0.31446525 1.0084878
-0.076307379 -0.31410244 1.0073243
-0.072674356 -0.31374052 1.0061636
-0.069049686 -0.31337935 1.0050054
-0.065433361 -0.31301904 1.0038499
-0.061825346 -0.31265959 1.0026971
-0.058225598 -0.31230092 1.0015469
-0.054634105 -0.31194311 1.0003994
-0.051050831 -0.31158611 0.99925441
-0.047475748 -0.31122991 0.99811208
-0.043908834 -0.31087455 0.99697244
-0.04035005 -0.31051996 0.9958353
-0.036799379 -0.31016618 0.99470073
-0.033256792 -0.30981326 0.9935689
-0.029722253 -0.30946112 0.99243957
-0.026209861 -0.30927637 0.9918471
-0.022721216 -0.30935809 0.99210918
-0.019230723 -0.30943981 0.99237126
-0.015738387 -0.30952162 0.99263358
-0.012244205 -0.30960348 0.99289614
-0.0087481737 -0.30968538 0.99315876
-0.0052502933 -0.30976731 0.99342149
-0.0017505609 -0.30984929 0.99368447
0.0017510243 -0.30993128 0.99394745
0.0052544642 -0.31001338 0.99421072
-0.086351275 -0.32152072 1.0428988
-0.080311626 -0.31232297 1.0130646
-0.076653279 -0.31196102 1.0118905
-0.073003404 -0.31159988 1.0107192
-0.069361962 -0.31123957 1.0095505
-0.065728948 -0.31088015 1.0083846
-0.062104296 -0.31052148 1.0072212
-0.058488015 -0.31016371 1.0060607
-0.054880053 -0.30980673 1.0049028
-0.051280376 -0.30945054 1.0037475
-0.04768898 -0.30909523 1.0025949
-0.044105813 -0.30874068 1.0014449
-0.04053086 -0.30838698 1.0002977
-0.036964092 -0.30803409 0.99915302
-0.033405472 -0.30768198 0.99801087
-0.029854981 -0.3073307 0.99687141
-0.02631259 -0.30698019 0.99573457
-0.022778265 -0.30663049 0.99460024
-0.019255251 -0.30633351 0.99363697
-0.015758466 -0.3064146 0.9939
-0.01225983 -0.30649576 0.99416316
-0.0087593403 -0.30657691 0.99442643
-0.0052569965 -0.30665812 0.99468988
-0.0017527965 -0.30673936 0.99495339
0.0017532612 -0.30682069 0.9952172
0.0052611786 -0.30690208 0.99548119
-0.084361769 -0.31052309 1.0188707
-0.080677763 -0.31016117 1.0176831
-0.077002317 -0.30980003 1.0164982
-0.073335446 -0.30943981 1.0153162
-0.069677077 -0.30908036 1.0141369
-0.066027202 -0.30872178 1.0129603
-0.062385786 -0.30836403 1.0117865
-0.058752801 -0.30800709 1.0106153
-0.055128209 -0.30765098 1.0094469
-0.051511999 -0.30729574 1.0082812
-0.04790413 -0.30694127 1.0071182
-0.044304572 -0.30658764 1.0059578
-0.040713299 -0.30623481 1.0048002
-0.037130281 -0.30588278 1.0036452
-0.033555489 -0.30553156 1.0024928
-0.0299889 -0.30518115 1.001343
-0.026430486 -0.30483159 1.0001961
-0.022880208 -0.30448276 0.99905151
-0.019338051 -0.30413479 0.99790972
-0.015803978 -0.30378756 0.99677044
-0.012277965 -0.30344114 0.99563378
-0.0087705357 -0.30346054 0.99569744
-0.0052637169 -0.303541 0.99596149
-0.0017550379 -0.30362156 0.99622577
0.0017555037 -0.30370215 0.99649012
0.0052679097 -0.30378279 0.99675477
-0.073670633 -0.30726042 1.0199568
-0.069995157 -0.30690184 1.0187665
-0.066328265 -0.30654413 1.0175791
-0.062669903 -0.30618724 1.0163944
-0.059020054 -0.30583119 1.0152124
-0.055378679 -0.30547595 1.0140332
-0.051745757 -0.30512154 1.0128567
-0.048121255 -0.30476797 1.011683
-0.044505145 -0.3044152 1.010512
-0.040897392 -0.30406323 1.0093436
-0.037297975 -0.30371207 1.008178
-0.033706862 -0.30336177 1.0070151
-0.030124031 -0.30301231 1.0058551
-0.026549438 -0.30266359 1.0046976
-0.022983067 -0.30231571 1.0035428
-0.019424886 -0.30196866 1.0023907
-0.015874863 -0.30162239 1.0012412
-0.012332973 -0.30127692 1.0000944
-0.0087991869 -0.3009322 0.99895012
-0.0052734786 -0.30058828 0.99780852
-0.001757285 -0.30049571 0.99750125
0.0017577522 -0.30057561 0.99776644
-0.066632122 -0.30434674 1.0222408
-0.062956661 -0.30399075 1.0210451
-0.059289802 -0.30363566 1.0198524
-0.055631489 -0.30328134 1.0186623
-0.051981706 -0.30292788 1.0174751
-0.048340421 -0.30257523 1.0162907
-0.044707604 -0.30222341 1.0151089
-0.041083224 -0.3018724 1.01393
-0.037467256 -0.3015222 1.0127537
-0.033859666 -0.30117282 1.0115802
-0.030260429 -0.30082425 1.0104095
-0.02666951 -0.30047646 1.0092413
-0.023086889 -0.30012953 1.0080761
-0.019512527 -0.29978335 1.0069133
-0.015946401 -0.299438 1.0057533
-0.012388485 -0.29909343 1.004596
-0.0088387467 -0.29874963 1.0034412
-0.0052971598 -0.29840669 1.0022893
-0.001763695 -0.29806447 1.0011399
0.0017616748 -0.29772303 0.99999309
-0.059562024 -0.30141994 1.0245349
-0.055886615 -0.30106661 1.0233339
-0.052219819 -0.30071414 1.0221359
-0.048561592 -0.30036244 1.0209404
-0.044911917 -0.30001161 1.019748
-0.041270759 -0.29966161 1.0185583
-0.037638079 -0.29931235 1.0173712
-0.034013867 -0.29896399 1.0161871
-0.030398076 -0.29861638 1.0150056
-0.026790682 -0.2982696 1.0138268
-0.023191659 -0.29792362 1.0126508
-0.019600976 -0.29757845 1.0114776
-0.016018603 -0.29723409 1.0103071
-0.012444511 -0.2968905 1.0091392
-0.0088786734 -0.29654768 1.007974
-0.0053210598 -0.29620567 1.0068115
-0.0017716435 -0.29586446 1.0056517
-0.0487848 -0.29812932 1.0256331
-0.045118105 -0.2977795 1.0244296
-0.041460007 -0.29743049 1.0232289
-0.037810471 -0.29708228 1.0220309
-0.034169473 -0.2967349 1.0208359
-0.030536976 -0.2963883 1.0196435
-0.026912959 -0.29604256 1.0184541
-0.023297386 -0.2956976 1.0172673
-0.019690229 -0.29535344 1.0160834
-0.016091458 -0.29501006 1.0149021
-0.012501046 -0.29466751 1.0137236
-0.0089189615 -0.29432574 1.0125479
-0.0053451774 -0.29398477 1.0113748
-0.0017796642 -0.29364458 1.0102046
-0.041650999 -0.2951788 1.0279425
-0.037984449 -0.29483166 1.0267336
-0.034326509 -0.29448533 1.0255275
-0.030677155 -0.29413977 1.0243242
-0.027036356 -0.29379508 1.0231237
-0.023404082 -0.29345119 1.0219262
-0.019780301 -0.29310808 1.0207313
-0.016164981 -0.29276577 1.0195392
-0.012558097 -0.29242426 1.01835
-0.0089596184 -0.29208356 1.0171635
-0.0053695147 -0.29174364 1.0159798
-0.034484997 -0.29221499 1.0302625
-0.030818626 -0.29187053 1.029048
-0.02716089 -0.29152688 1.0278364
-0.023511758 -0.29118407 1.0266278
-0.019871198 -0.29084209 1.025422
-0.016239177 -0.29050085 1.0242189
-0.012615671 -0.29016045 1.0230187
-0.009000646 -0.28982079 1.0218213
-0.02362043 -0.28889602 1.0313729
-0.019962935 -0.28855515 1.0301559
-0.016314059 -0.28821504 1.0289418
-0.012673776 -0.28787577 1.0277305
-0.0090420526 -0.28753728 1.026522
-0.016389634 -0.28590807 1.0337083
-0.012732418 -0.28556994 1.0324858
