# .PCD v0.7 - Point Cloud Data file format
VERSION 0.7
FIELDS x y z
SIZE 4 4 4
TYPE F F F
COUNT 1 1 1
WIDTH 646
HEIGHT 1
VIEWPOINT 0 0 0 1 0 0 0
POINTS 646
DATA ascii
-0.12829675 -0.30557954 1.3241105
-0.12236578 -0.30245125 1.3105553
-0.11794484 -0.30295637 1.312744
-0.11376479 -0.30414668 1.3179017
-0.10955175 -0.30534637 1.3231002
-0.1432946 -0.30303285 1.3334332
-0.13716769 -0.299909 1.3196874
-0.13116582 -0.29684895 1.3062222
-0.12528516 -0.29385066 1.2930288
-0.12112219 -0.29480684 1.2972363
-0.11700401 -0.29595134 1.3022724
-0.11285374 -0.29710475 1.3073478
-0.10867102 -0.29826725 1.3124632
-0.10445545 -0.29943895 1.317619
-0.10020661 -0.30061984 1.3228152
-0.15217733 -0.29733109 1.3289477
-0.14597957 -0.2942763 1.3152939
-0.13990785 -0.29128358 1.3019177
-0.13395838 -0.28835109 1.2888107
-0.12825245 -0.28575546 1.2772093
-0.12422534 -0.28684762 1.2820908
-0.12016734 -0.28794813 1.2870097
-0.11607809 -0.2890572 1.2919667
-0.11195719 -0.29017475 1.2969618
-0.10780433 -0.29130107 1.3019959
-0.10361913 -0.29243621 1.3070695
-0.099401176 -0.29358023 1.3121828
-0.095150091 -0.29473323 1.3173362
-0.090865485 -0.29589531 1.3225303
-0.1547341 -0.28868303 1.3109391
-0.14859313 -0.28575602 1.2976472
-0.14257541 -0.28288773 1.284622
-0.13667747 -0.2800768 1.2718573
-0.13122627 -0.27802175 1.2625251
-0.12725687 -0.27907208 1.2672948
-0.12325736 -0.28013039 1.2721006
-0.11922742 -0.28119674 1.2769431
-0.11516667 -0.28227127 1.2818226
-0.11107477 -0.28335398 1.2867393
-0.10695136 -0.28444511 1.2916943
-0.1027961 -0.28554472 1.2966877
-0.098608591 -0.28665286 1.3017199
-0.094388455 -0.28776968 1.3067914
-0.090135291 -0.28889516 1.3119024
-0.085848741 -0.29002953 1.3170537
-0.081649445 -0.29160514 1.3242087
-0.16343157 -0.28312793 1.3066187
-0.1572227 -0.28026655 1.2934136
-0.1511381 -0.27746248 1.280473
-0.14517404 -0.27471393 1.2677886
-0.13965066 -0.27265128 1.2582695
-0.13511883 -0.27245271 1.2573532
-0.13059363 -0.2722545 1.2564385
-0.12627664 -0.27249169 1.2575331
-0.12230437 -0.27351704 1.262265
-0.1183021 -0.27455014 1.2670327
-0.11426948 -0.27559111 1.2718366
-0.11020616 -0.27663994 1.276677
-0.10611179 -0.27769682 1.2815545
-0.10198605 -0.27876186 1.2864696
-0.097828545 -0.27983513 1.2914226
-0.093638897 -0.28091669 1.2964139
-0.089416742 -0.28200665 1.3014441
-0.08527346 -0.28347662 1.3082279
-0.081433959 -0.28618219 1.320714
-0.16579621 -0.27481288 1.2892079
-0.15964568 -0.2720722 1.2763509
-0.15361661 -0.26938564 1.2637476
-0.14898369 -0.26906011 1.2622204
-0.14443083 -0.26886356 1.2612983
-0.13988461 -0.26866728 1.2603775
-0.13534503 -0.26847127 1.2594581
-0.13081206 -0.26827559 1.25854
-0.12628572 -0.26808023 1.2576236
-0.12176604 -0.2678853 1.2567091
-0.11739101 -0.26800588 1.2572749
-0.11338614 -0.26901418 1.262005
-0.10935102 -0.27003008 1.2667707
-0.1052853 -0.27105364 1.2715726
-0.10118865 -0.27208504 1.2764111
-0.09706074 -0.2731244 1.281287
-0.092901163 -0.27417174 1.2862002
-0.088811055 -0.27554199 1.2926284
-0.085051142 -0.27814022 1.3048172
-0.081219614 -0.2807878 1.3172376
-0.077314138 -0.28348517 1.3298916
-0.16809864 -0.26671651 1.2722551
-0.16295633 -0.26564112 1.2671255
-0.15837553 -0.26544631 1.2661961
-0.15380144 -0.26525179 1.2652682
-0.14923407 -0.2650575 1.2643416
-0.14467338 -0.26486355 1.2634164
-0.14011936 -0.2646699 1.2624927
-0.13557199 -0.26447651 1.2615701
-0.13103126 -0.26428339 1.260649
-0.12649715 -0.26409054 1.259729
-0.1219697 -0.26389807 1.258811
-0.11744889 -0.263706 1.2578948
-0.11293466 -0.26351419 1.2569798
-0.10850906 -0.263522 1.257017
-0.10447159 -0.26451319 1.2617451
-0.10040364 -0.26551187 1.2665088
-0.096304886 -0.26651818 1.271309
-0.092265278 -0.26779434 1.2773964
-0.088582255 -0.27028942 1.2892982
-0.084829964 -0.2728315 1.301424
-0.08100637 -0.27542165 1.3137792
-0.07710921 -0.27806047 1.3263665
-0.17242892 -0.26200238 1.271132
-0.16782671 -0.26180968 1.270197
-0.16323125 -0.26161721 1.2692633
-0.15864252 -0.26142499 1.2683307
-0.15406056 -0.26123312 1.2673998
-0.14948529 -0.26104149 1.2664701
-0.14491674 -0.26085013 1.2655417
-0.14035489 -0.2606591 1.2646148
-0.13579969 -0.26046827 1.263689
-0.13125119 -0.26027778 1.2627648
-0.12670933 -0.26008755 1.261842
-0.12217408 -0.25989759 1.2609204
-0.11764551 -0.25970802 1.2600006
-0.11312359 -0.2595188 1.2590827
-0.10860823 -0.25932986 1.258166
-0.10409946 -0.25914121 1.2572507
-0.099630721 -0.25903988 1.256759
-0.095639028 -0.26022711 1.2625191
-0.092030369 -0.26262325 1.2741442
-0.08835464 -0.26506391 1.2859854
-0.084609933 -0.26755032 1.2980484
-0.080794252 -0.27008367 1.3103391
-0.07690537 -0.27266452 1.3228604
-0.17272067 -0.25795946 1.2732828
-0.16811047 -0.25776941 1.2723447
-0.16350706 -0.25757962 1.271408
-0.15891042 -0.25739011 1.2704725
-0.15432052 -0.25720087 1.2695384
-0.14973736 -0.25701189 1.2686056
-0.14516091 -0.25682315 1.2676741
-0.1405912 -0.25663474 1.266744
-0.1360282 -0.2564466 1.2658154
-0.13147186 -0.2562587 1.2648879
-0.12692219 -0.25607109 1.2639619
-0.12237919 -0.25588375 1.2630372
-0.11784283 -0.25569671 1.2621139
-0.11331314 -0.25551003 1.2611924
-0.1087901 -0.25532371 1.2602727
-0.10427364 -0.25513762 1.2593544
-0.099763766 -0.25495183 1.2584373
-0.095398381 -0.25513521 1.2593423
-0.091796659 -0.25747845 1.2709085
-0.088128179 -0.25986513 1.2826892
-0.08439105 -0.2622965 1.2946904
-0.080583252 -0.26477355 1.306917
-0.076702602 -0.26729697 1.3193725
-0.072747283 -0.26986894 1.3320678
-0.17301343 -0.25390282 1.2754409
-0.16839521 -0.25371546 1.2744997
-0.1637838 -0.25352836 1.2735598
-0.15917917 -0.2533415 1.2726212
-0.15458134 -0.25315493 1.2716841
-0.14999026 -0.25296864 1.2707483
-0.14540593 -0.25278261 1.2698138
-0.14082833 -0.25259683 1.2688805
-0.13625744 -0.25241134 1.2679486
-0.13169326 -0.25222608 1.2670181
-0.1271358 -0.25204113 1.2660891
-0.122585 -0.25185645 1.2651613
-0.11804085 -0.251672 1.2642348
-0.11350338 -0.25148788 1.2633098
-0.10897258 -0.25130412 1.2623867
-0.10444842 -0.25112066 1.2614652
-0.09993086 -0.25093749 1.260545
-0.095419891 -0.25075459 1.2596263
-0.091564134 -0.25235969 1.2676892
-0.087902874 -0.25469294 1.27941
-0.084173292 -0.2570698 1.2913496
-0.080373339 -0.25949106 1.3035126
-0.076500915 -0.26195768 1.3159032
-0.072554149 -0.26447156 1.3285314
-0.17794032 -0.2500174 1.2785524
-0.17330717 -0.24983242 1.2776064
-0.16868089 -0.24964772 1.2766619
-0.16406146 -0.2494633 1.2757188
-0.15944885 -0.24927917 1.2747772
-0.15484302 -0.24909529 1.2738369
-0.15024398 -0.24891168 1.2728978
-0.14565173 -0.24872833 1.2719603
-0.14106624 -0.24854527 1.2710241
-0.13648747 -0.24836244 1.2700891
-0.13191544 -0.2481799 1.2691556
-0.12735011 -0.24799758 1.2682233
-0.12279148 -0.24781555 1.2672924
-0.11823954 -0.24763377 1.2663628
-0.1136943 -0.24745229 1.2654347
-0.10915568 -0.24727102 1.2645078
-0.10462378 -0.24709019 1.2635831
-0.10009851 -0.24690965 1.2626598
-0.095579855 -0.24672939 1.2617379
-0.091332786 -0.2472668 1.2644862
-0.087678738 -0.24954718 1.2761477
-0.083956651 -0.25186998 1.2880261
-0.080164522 -0.25423607 1.300126
-0.076300263 -0.25664636 1.3124518
-0.072362043 -0.25910279 1.3250138
-0.068347692 -0.26160669 1.3378183
-0.17824315 -0.24593042 1.2807283
-0.17360193 -0.24574819 1.2797793
-0.16896757 -0.2455662 1.2788316
-0.16434008 -0.2453845 1.2778853
-0.15971941 -0.24520303 1.2769403
-0.15510558 -0.24502185 1.2759968
-0.15049857 -0.24484095 1.2750547
-0.14589836 -0.24466032 1.274114
-0.14130491 -0.24447994 1.2731746
-0.13671826 -0.24429983 1.2722367
-0.13213833 -0.24411994 1.2713
-0.12756515 -0.24394037 1.2703648
-0.12299868 -0.24376102 1.2694308
-0.1184389 -0.24358189 1.2684979
-0.11388584 -0.24340308 1.2675667
-0.10933946 -0.24322452 1.2666368
-0.10479974 -0.24304619 1.2657082
-0.10026672 -0.24286829 1.2647817
-0.095740348 -0.24269065 1.2638566
-0.091220595 -0.2425133 1.262933
-0.087455727 -0.24442753 1.2729018
-0.083741136 -0.24669686 1.2847197
-0.079956785 -0.24900828 1.2967569
-0.076100677 -0.25136286 1.3090187
-0.072170943 -0.25376233 1.3215145
-0.068165451 -0.25620809 1.3342512
-0.17854705 -0.24182956 1.282912
-0.1738977 -0.24165004 1.2819597
-0.16925521 -0.24147077 1.2810086
-0.16461962 -0.24129179 1.2800591
-0.15999091 -0.24111305 1.2791109
-0.15536904 -0.24093461 1.2781643
-0.15075402 -0.24075641 1.2772189
-0.14614579 -0.24057847 1.2762749
-0.14154439 -0.24040079 1.2753323
-0.13694979 -0.24022341 1.2743913
-0.13236195 -0.24004623 1.2734514
-0.12778088 -0.23986937 1.2725132
-0.12320656 -0.23969275 1.2715762
-0.11863896 -0.23951638 1.2706405
-0.11407805 -0.23934022 1.269706
-0.10952386 -0.23916434 1.268773
-0.10497635 -0.23898871 1.2678412
-0.10043552 -0.23881334 1.2669109
-0.0959014 -0.23863836 1.2659826
-0.091373928 -0.23846367 1.2650559
-0.087233849 -0.23933388 1.2696724
-0.083526716 -0.24155022 1.2814301
-0.079750136 -0.24380755 1.2934053
-0.075902127 -0.24610689 1.3056034
-0.071980849 -0.24845004 1.3180338
-0.068264961 -0.25187418 1.3361989
-0.17419453 -0.23753798 1.2841479
-0.16954389 -0.23736145 1.2831935
-0.16490014 -0.23718512 1.2822403
-0.16026333 -0.23700915 1.281289
-0.1556334 -0.23683344 1.280339
-0.15101033 -0.23665799 1.2793906
-0.14639412 -0.2364828 1.2784435
-0.1417847 -0.23630783 1.2774975
-0.13718212 -0.23613316 1.2765533
-0.13258633 -0.23595871 1.2756102
-0.12799732 -0.23578456 1.2746687
-0.1234151 -0.23561063 1.2737285
-0.11883962 -0.23543699 1.2727897
-0.1142709 -0.2352636 1.2718524
-0.10970887 -0.23509043 1.2709162
-0.10515355 -0.23491751 1.2699814
-0.10060493 -0.23474483 1.2690479
-0.096062988 -0.23457241 1.2681158
-0.091527775 -0.23440039 1.2671858
-0.087013103 -0.23426604 1.2664595
-0.083313383 -0.23642989 1.2781574
-0.079544529 -0.23863359 1.2900708
-0.075704604 -0.2408783 1.3022058
-0.0718683 -0.24342489 1.3159729
-0.18034874 -0.24124573 1.3295163
-0.17553362 -0.24106617 1.3285267
-0.16518179 -0.23306471 1.2844304
-0.16053683 -0.23289146 1.2834755
-0.15589876 -0.23271845 1.2825221
-0.1512676 -0.23254573 1.2815702
-0.1466433 -0.23237322 1.2806195
-0.14202584 -0.232201 1.2796704
-0.13741523 -0.23202901 1.2787225
-0.13281149 -0.23185734 1.2777765
-0.12821452 -0.23168589 1.2768316
-0.12362437 -0.23151472 1.2758883
-0.11904097 -0.23134378 1.2749462
-0.11446436 -0.23117311 1.2740057
-0.10989448 -0.23100267 1.2730664
-0.10533135 -0.23083253 1.2721287
-0.10077491 -0.23066258 1.2711921
-0.096225187 -0.23049287 1.2702569
-0.091682151 -0.23032345 1.2693231
-0.087145828 -0.23015435 1.2683913
-0.083101153 -0.23133564 1.2749014
-0.079339989 -0.23348626 1.2867535
-0.075508118 -0.23567685 1.298826
-0.072863676 -0.24209544 1.3341991
-0.18548837 -0.23714337 1.3327874
-0.18065758 -0.23696643 1.331793
-0.17583399 -0.23678976 1.3308001
-0.17101757 -0.23661335 1.3298086
-0.16620839 -0.23643728 1.328819
-0.15616508 -0.22858946 1.2847129
-0.15152581 -0.2284195 1.2837577
-0.14689343 -0.22824979 1.2828039
-0.14226793 -0.22808033 1.2818515
-0.13764928 -0.22791111 1.2809005
-0.13303749 -0.22774215 1.2799509
-0.12843254 -0.22757345 1.2790028
-0.1238344 -0.227405 1.278056
-0.11924307 -0.22723679 1.2771107
-0.11465851 -0.22706883 1.2761667
-0.11008073 -0.22690108 1.275224
-0.10550972 -0.22673365 1.2742829
-0.10094546 -0.22656646 1.2733433
-0.096387923 -0.22639954 1.2724051
-0.091837093 -0.22623284 1.2714683
-0.087292939 -0.22606634 1.2705325
-0.082889989 -0.22626726 1.2716618
-0.079136506 -0.22836535 1.2834533
-0.076392204 -0.23380645 1.3140333
-0.18580681 -0.2328465 1.3350754
-0.18096748 -0.23267248 1.3340776
-0.17613539 -0.23249871 1.3330812
-0.17131051 -0.23232521 1.3320864
-0.16649307 -0.23215231 1.3310951
-0.16168244 -0.23197915 1.3301022
-0.15687908 -0.2318064 1.3291117
-0.14714439 -0.22411223 1.2849956
-0.14251082 -0.22394557 1.28404
-0.13788411 -0.22377914 1.2830857
-0.1332643 -0.22361298 1.282133
-0.12865134 -0.22344704 1.2811816
-0.12404519 -0.22328134 1.2802315
-0.11944589 -0.22311591 1.2792829
-0.1148534 -0.22295073 1.2783358
-0.11026771 -0.22278577 1.27739
-0.10568879 -0.22262107 1.2764456
-0.10111663 -0.22245659 1.2755026
-0.096551232 -0.22229238 1.274561
-0.091992572 -0.22212841 1.2736208
-0.087440632 -0.22196467 1.2726821
-0.082895383 -0.22180115 1.2717445
-0.079815641 -0.22576423 1.2944677
-0.077448428 -0.23234527 1.3322015
-0.18612632 -0.22853486 1.3373712
-0.18127845 -0.22836377 1.33637
-0.17643781 -0.22819291 1.3353702
-0.17160442 -0.22802232 1.3343719
-0.16677833 -0.22785209 1.3333757
-0.16195953 -0.22768223 1.3323817
-0.15714769 -0.22751231 1.3313874
-0.15234306 -0.22734272 1.330395
-0.14754561 -0.22717339 1.329404
-0.13811976 -0.21963306 1.2852784
-0.13349186 -0.21946968 1.2843224
-0.12887086 -0.21930654 1.2833678
-0.12425672 -0.21914366 1.2824146
-0.11964941 -0.218981 1.2814627
-0.11504894 -0.21881858 1.2805122
-0.11045531 -0.21865644 1.2795633
-0.10586847 -0.2184945 1.2786157
-0.10128842 -0.21833281 1.2776695
-0.096715137 -0.21817136 1.2767247
-0.092148624 -0.21801016 1.2757814
-0.087588839 -0.21784917 1.2748393
-0.083138466 -0.2179576 1.2754738
-0.0809028 -0.22421633 1.3120995
-0.078532889 -0.23083909 1.3508555
-0.1913107 -0.22437675 1.3406812
-0.18644695 -0.22420835 1.3396749
-0.18159048 -0.2240402 1.3386703
-0.1767413 -0.22387232 1.3376671
-0.17189938 -0.22370467 1.3366654
-0.16706471 -0.22353728 1.3356652
-0.16223752 -0.22337051 1.3346688
-0.15741719 -0.22320348 1.3336707
-0.15260415 -0.22303683 1.332675
-0.14779828 -0.22287042 1.3316807
-0.14299957 -0.22270425 1.3306878
-0.13820802 -0.22253834 1.3296964
-0.12909114 -0.21515189 1.2855614
-0.12446894 -0.21499181 1.2846049
-0.11985362 -0.21483196 1.2836498
-0.11524517 -0.21467237 1.2826962
-0.11064355 -0.214513 1.281744
-0.10604876 -0.21435389 1.2807932
-0.10146078 -0.21419497 1.2798437
-0.096879601 -0.21403633 1.2788957
-0.092305198 -0.21387789 1.2779491
-0.08773756 -0.2137197 1.2770039
-0.084254049 -0.21632797 1.2925886
-0.082019478 -0.22262429 1.33021
-0.19164106 -0.22003232 1.3429962
-0.18676865 -0.2198669 1.3419865
-0.18190357 -0.21970172 1.3409784
-0.17704581 -0.21953681 1.3399718
-0.17219532 -0.21937212 1.3389666
-0.16735211 -0.21920769 1.337963
-0.16251643 -0.21904388 1.3369632
-0.15768746 -0.21887961 1.3359605
-0.15286613 -0.21871616 1.3349628
-0.14805181 -0.21855268 1.3339651
-0.14324468 -0.21838945 1.3329687
-0.13844475 -0.21822648 1.331974
-0.13365196 -0.21806373 1.3309807
-0.12886631 -0.21790123 1.3299888
-0.12005854 -0.21066877 1.2858446
-0.11544205 -0.21051198 1.2848876
-0.11083244 -0.21035543 1.2839321
-0.10622967 -0.21019913 1.2829781
-0.10163373 -0.21004304 1.2820253
-0.097044624 -0.20988721 1.2810742
-0.092462301 -0.20973156 1.2801242
-0.087886788 -0.20957619 1.2791759
-0.085399978 -0.21465401 1.310169
-0.083166197 -0.22098447 1.3488078
-0.19197258 -0.2156729 1.3453195
-0.18709151 -0.21551047 1.3443063
-0.18221779 -0.2153483 1.3432947
-0.17735139 -0.21518636 1.3422846
-0.17249231 -0.21502465 1.3412759
-0.16764052 -0.21486321 1.3402689
-0.16279632 -0.21470238 1.3392657
-0.15795846 -0.2145406 1.3382565
-0.15312901 -0.21438062 1.3372586
-0.14830624 -0.21422011 1.3362573
-0.14349067 -0.21405984 1.3352576
-0.13868231 -0.21389984 1.3342595
-0.13388111 -0.21374002 1.3332627
-0.12908711 -0.21358049 1.3322675
-0.12430025 -0.21342118 1.3312738
-0.11952052 -0.2132621 1.3302815
-0.11474793 -0.21310329 1.3292909
-0.1064112 -0.20603019 1.2851704
-0.10180727 -0.20587692 1.2842144
-0.097210206 -0.20572391 1.28326
-0.092619956 -0.20557113 1.2823069
-0.088679142 -0.206918 1.2907084
-0.086576872 -0.2129323 1.3282243
-0.1972024 -0.21145798 1.3486689
-0.19230522 -0.21129833 1.3476506
-0.18741547 -0.21113893 1.346634
-0.18253306 -0.21097976 1.3456188
-0.17765801 -0.21082084 1.3446052
-0.1727903 -0.21066216 1.3435931
-0.16792995 -0.21050373 1.3425827
-0.16307688 -0.21034554 1.3415737
-0.15823108 -0.21018755 1.3405662
-0.15339248 -0.21002971 1.3395594
-0.14856151 -0.20987262 1.3385575
-0.14373748 -0.20971534 1.3375543
-0.13892066 -0.20955829 1.3365527
-0.13411106 -0.20940149 1.3355527
-0.12930866 -0.20924492 1.3345541
-0.12451343 -0.20908859 1.333557
-0.11972535 -0.20893246 1.3325613
-0.11494456 -0.20877686 1.3315688
-0.11017075 -0.2086212 1.3305761
-0.10540401 -0.20846571 1.3295844
-0.097376354 -0.2015464 1.2854533
-0.092778139 -0.20139645 1.2844969
-0.091146387 -0.20800072 1.3266187
-0.08778549 -0.21115968 1.3467664
-0.19263923 -0.20690881 1.3499913
-0.18774058 -0.20675227 1.3489701
-0.18284945 -0.20659614 1.3479513
-0.17796564 -0.20644014 1.3469335
-0.17308934 -0.20628457 1.3459184
-0.16822034 -0.20612915 1.3449044
-0.16335866 -0.20597395 1.3438919
-0.15850461 -0.2058194 1.3428835
-0.1536572 -0.20566425 1.3418711
-0.1488177 -0.20551015 1.3408657
-0.14398515 -0.20535587 1.3398591
-0.13915986 -0.20520183 1.3388541
-0.13434188 -0.20504814 1.3378513
-0.12953116 -0.20489475 1.3368505
-0.12472745 -0.20474128 1.3358492
-0.119931 -0.20458817 1.3348502
-0.11514161 -0.2044351 1.3338515
-0.11035934 -0.20428219 1.3328538
-0.10558438 -0.20412982 1.3318596
-0.10081655 -0.20397767 1.3308669
-0.096055813 -0.20382574 1.3298757
-0.091302156 -0.20367405 1.3288859
-0.089028314 -0.20933685 1.3658333
-0.19297422 -0.20250382 1.3523389
-0.18806709 -0.20235068 1.3513162
-0.18316691 -0.20219722 1.3502915
-0.17827469 -0.20204465 1.3492726
-0.17338948 -0.20189185 1.3482522
-0.16851194 -0.20173965 1.3472358
-0.16364141 -0.20158724 1.346218
-0.16254397 -0.20621249 1.3771058
-0.14423391 -0.20098168 1.3421739
-0.13939993 -0.20083041 1.3411638
-0.13457371 -0.20068009 1.3401599
-0.12975422 -0.20052925 1.3391526
-0.12494197 -0.20037864 1.3381468
-0.12013692 -0.20022821 1.3371422
-0.11533931 -0.20007838 1.3361417
-0.11054885 -0.19992878 1.3351426
-0.10576556 -0.19977939 1.3341449
-0.10098941 -0.19963023 1.3331488
-0.096220389 -0.19948129 1.3321543
-0.092390426 -0.20136376 1.3447255
-0.18839446 -0.19793342 1.3536685
-0.183486 -0.1977836 1.3526438
-0.17858492 -0.19763398 1.3516206
-0.17369084 -0.19748411 1.3505956
-0.16880454 -0.19733489 1.349575
-0.16565982 -0.19927195 1.3628227
-0.1626431 -0.20148325 1.3779458
-0.15913339 -0.2032011 1.3896941
-0.13964103 -0.19644417 1.3434834
-0.13480566 -0.19629598 1.3424699
-0.12997763 -0.19614805 1.3414583
-0.12515715 -0.19600081 1.3404514
-0.12034389 -0.1958538 1.3394458
-0.11553785 -0.19570698 1.3384417
-0.11073902 -0.1955604 1.3374393
-0.10594736 -0.19541401 1.3364382
-0.10116287 -0.19526787 1.3354387
-0.096385531 -0.19512193 1.3344406
-0.093696833 -0.19940609 1.36374
-0.18872298 -0.19350077 1.3560289
-0.18380569 -0.19335404 1.3550006
-0.17889586 -0.19320753 1.3539739
-0.17399345 -0.19306123 1.3529487
-0.16909812 -0.19291475 1.3519222
-0.16580468 -0.19464028 1.3640144
-0.162377 -0.19630653 1.3756913
-0.15861987 -0.19766475 1.3852096
-0.13503854 -0.19189687 1.3447889
-0.13020228 -0.19175245 1.3437768
-0.12537329 -0.19160824 1.3427663
-0.12055157 -0.19146426 1.3417573
-0.11573709 -0.19132049 1.3407497
-0.11092982 -0.19117694 1.3397437
-0.10612978 -0.1910336 1.3387393
-0.10133693 -0.19089049 1.3377364
-0.096980713 -0.19159605 1.3426808
-0.18412653 -0.18890902 1.3573657
-0.17920788 -0.18876563 1.3563354
-0.17429668 -0.18862244 1.3553065
-0.16939205 -0.18847848 1.3542721
-0.16555624 -0.18954989 1.3619705
-0.1618778 -0.19087084 1.3714619
-0.15792626 -0.19194116 1.3791524
-0.1537243 -0.1927654 1.3850749
-0.1492597 -0.19330356 1.3889416
-0.1444561 -0.19342427 1.389809
-0.1352727 -0.18748321 1.3471208
-0.13042769 -0.1873416 1.3461033
-0.12559019 -0.18720046 1.3450892
-0.12075996 -0.18705954 1.3440766
-0.11593699 -0.18691884 1.3430656
-0.11112129 -0.18677834 1.3420562
-0.10631283 -0.18663807 1.3410482
-0.10151157 -0.18649799 1.3400418
-0.098350212 -0.18950407 1.3616413
-0.18444847 -0.18444847 1.3597391
-0.17952099 -0.18430822 1.3587052
-0.17460094 -0.18416813 1.3576725
-0.16968791 -0.18402773 1.3566375
-0.16507226 -0.18421108 1.3579891
-0.1611978 -0.18525718 1.3657008
-0.15707307 -0.18607116 1.3717015
-0.15268804 -0.18661872 1.375738
-0.14798443 -0.1868 1.3770745
-0.14266965 -0.18619598 1.3726217
-0.13550766 -0.18305421 1.3494607
-0.13065408 -0.18291572 1.3484398
-0.12580782 -0.18277739 1.3474201
-0.12096908 -0.18263958 1.3464042
-0.11613762 -0.18250197 1.3453897
-0.11131343 -0.18236455 1.3443767
-0.10649651 -0.18222736 1.3433653
-0.10168683 -0.18209037 1.3423554
-0.099758945 -0.18735217 1.3811449
-0.17983519 -0.17983519 1.3610831
-0.17490608 -0.17969802 1.3600451
-0.16998456 -0.17956115 1.3590091
-0.16507022 -0.17942415 1.3579723
-0.16035359 -0.17950028 1.3585484
-0.15604964 -0.18005727 1.362764
-0.15143456 -0.18027923 1.3644439
-0.14629154 -0.17986666 1.3613213
-0.14061223 -0.17874436 1.3528273
-0.13574304 -0.17860925 1.3518047
-0.13088126 -0.17847444 1.3507844
-0.12602645 -0.17833932 1.3497617
-0.12117887 -0.17820422 1.3487393
-0.11633892 -0.17806979 1.3477217
-0.11150624 -0.1779355 1.3467053
-0.10668083 -0.17780139 1.3456904
-0.10298899 -0.17963195 1.359545
-0.18015037 -0.17534636 1.3634686
-0.17521246 -0.17521246 1.3624275
-0.17028207 -0.17507875 1.3613877
-0.16535921 -0.17494525 1.3603497
-0.16044386 -0.17481196 1.3593132
-0.15553613 -0.17467904 1.3582797
-0.1506356 -0.17454602 1.3572453
-0.14574294 -0.17441368 1.3562163
-0.14085715 -0.17428088 1.3551836
-0.13597915 -0.17414872 1.354156
-0.13110855 -0.1740168 1.3531302
-0.12624532 -0.17388505 1.3521057
-0.12138955 -0.17375366 1.3510841
-0.11654098 -0.17362227 1.3500624
-0.1116997 -0.17349103 1.3490418
-0.10686578 -0.17336003 1.3480233
-0.17058069 -0.17058069 1.3637751
-0.16564897 -0.17045037 1.3627334
-0.16072477 -0.17032029 1.3616933
-0.15580809 -0.17019036 1.3606546
-0.15089928 -0.1700611 1.359621
-0.14599746 -0.16993147 1.3585848
-0.14110304 -0.16980197 1.3575493
-0.13621634 -0.16967298 1.3565181
-0.13133706 -0.16954422 1.3554887
-0.1264652 -0.16941564 1.3544607
-0.12160072 -0.16928728 1.3534344
-0.11674359 -0.16915907 1.3524095
-0.11189383 -0.1690311 1.3513863
-0.16100667 -0.16581285 1.3640816
-0.15608117 -0.16568616 1.3630394
-0.15116325 -0.16555974 1.3619994
-0.14625287 -0.16543357 1.3609614
-0.14134979 -0.16530739 1.3599234
-0.13645439 -0.16518162 1.3588887
-0.13156641 -0.16505603 1.3578556
-0.12668586 -0.16493064 1.356824
-0.15142839 -0.16104288 1.3643883
-0.1465092 -0.16091993 1.3633467
-0.14159742 -0.16079707 1.3623058
