# .PCD v0.7 - Point Cloud Data file format
VERSION 0.7
FIELDS x y z
SIZE 4 4 4
TYPE F F F
COUNT 1 1 1
WIDTH 1333
HEIGHT 1
VIEWPOINT 0 0 0 1 0 0 0
POINTS 1333
DATA ascii
0.2967394 -0.3453283 0.98503208
0.3003242 -0.34545964 0.98540664
0.30391166 -0.34559098 0.98578131
0.30750191 -0.3457225 0.98615646
0.31109488 -0.3458541 0.98653185
0.27666703 -0.33853045 0.97544497
0.28020933 -0.33865792 0.97581226
0.28375432 -0.33878544 0.97617972
0.28730196 -0.33891311 0.97654754
0.29085234 -0.33904088 0.97691572
0.29440531 -0.3391687 0.97728401
0.297961 -0.33929664 0.97765267
0.30151939 -0.33942467 0.97802162
0.30508041 -0.33955279 0.97839075
0.30864421 -0.33968103 0.9787603
0.31221065 -0.33980939 0.97913009
0.31577978 -0.33993778 0.97950006
0.27239677 -0.33407149 0.97246969
0.27509156 -0.33318543 0.96989042
0.27802566 -0.33260736 0.96820766
0.28154221 -0.33273172 0.96856964
0.28506142 -0.33285615 0.96893185
0.28858322 -0.33298063 0.96929425
0.29210767 -0.33310524 0.96965694
0.29563472 -0.3332299 0.97001982
0.29916444 -0.33335465 0.97038299
0.30269682 -0.33347952 0.97074652
0.3062318 -0.33360445 0.97111017
0.30976945 -0.33372954 0.97147423
0.31330979 -0.33385468 0.97183853
0.31685272 -0.33397987 0.97220302
0.32039833 -0.33410522 0.97256786
0.26926446 -0.33100665 0.97353297
0.2719703 -0.33012748 0.97094721
0.27466199 -0.32925317 0.9683758
0.27733955 -0.32838362 0.96581835
0.28000301 -0.32751867 0.96327436
0.28285536 -0.32689273 0.96143341
0.28634915 -0.32701409 0.96179038
0.2898455 -0.32713556 0.96214765
0.29334447 -0.32725713 0.96250516
0.296846 -0.32737872 0.96286279
0.3003501 -0.3275004 0.96322066
0.30385685 -0.32762218 0.96357882
0.30736613 -0.32774401 0.9639371
0.3108781 -0.32786596 0.9642958
0.31439263 -0.327988 0.96465474
0.31790978 -0.3281101 0.96501386
0.32142958 -0.32823232 0.96537334
0.32495201 -0.32835466 0.96573311
0.26612529 -0.32793504 0.97459847
0.26884246 -0.32706311 0.97200716
0.27154517 -0.32619578 0.96942949
0.27423373 -0.32533318 0.96686596
0.27690828 -0.32447535 0.96431649
0.2795687 -0.32362196 0.96178031
0.28221521 -0.3227731 0.95925754
0.28484789 -0.32192865 0.95674795
0.28761795 -0.3212575 0.95475328
0.29108921 -0.32137594 0.9551053
0.29456303 -0.32149449 0.95545763
0.29803938 -0.3216131 0.95581013
0.30151829 -0.32173181 0.95616293
0.3049998 -0.32185063 0.95651603
0.30848387 -0.32196951 0.9568693
0.31197044 -0.32208842 0.9572227
0.31545964 -0.32220745 0.95757645
0.31895134 -0.32232648 0.95793027
0.32244569 -0.32244569 0.9582845
0.32594261 -0.32256499 0.95863903
0.32944208 -0.32268432 0.95899367
0.33294418 -0.32280377 0.95934868
0.26297924 -0.3248567 0.97566628
0.26570773 -0.32399201 0.97306925
0.26842177 -0.32313192 0.9704861
0.27112138 -0.32227635 0.96791655
0.27380681 -0.32142541 0.96536076
0.27647832 -0.32057917 0.96281922
0.27913582 -0.31973737 0.96029103
0.28177935 -0.31889999 0.95777601
0.28440908 -0.31806695 0.95527411
0.28702512 -0.3172383 0.95278531
0.28962755 -0.31641391 0.9503094
0.29231486 -0.31570002 0.94816536
0.29576382 -0.31581563 0.94851249
0.29921538 -0.31593132 0.94885999
0.30266944 -0.31604707 0.94920766
0.306126 -0.31616291 0.94955558
0.30958515 -0.31627887 0.94990385
0.31304678 -0.31639487 0.95025223
0.31651098 -0.31651098 0.95060092
0.3199777 -0.31662714 0.95094985
0.32344699 -0.3167434 0.95129901
0.32691878 -0.31685972 0.95164835
0.33039308 -0.3169761 0.95199788
0.33386996 -0.31709257 0.9523477
0.33734941 -0.31720915 0.95269781
0.2598263 -0.32177165 0.97673655
0.26256618 -0.32091421 0.97413379
0.26529148 -0.32006136 0.97154492
0.26800236 -0.31921303 0.96896982
0.2706989 -0.31836915 0.96640825
0.27338126 -0.31752977 0.96386033
0.2760497 -0.31669506 0.96132654
0.2787042 -0.31586474 0.95880616
0.2813448 -0.31503877 0.95629895
0.28397164 -0.31421715 0.95380485
0.28658479 -0.31339976 0.95132369
0.28918442 -0.31258661 0.9488554
0.29177055 -0.31177765 0.94639981
0.29434332 -0.31097287 0.94395691
0.29694733 -0.31021872 0.94166768
0.30037436 -0.31033152 0.9420101
0.30380392 -0.31044444 0.94235283
0.30723593 -0.3105574 0.94269574
0.31067044 -0.31067044 0.94303888
0.31410751 -0.31078362 0.94338238
0.31754702 -0.31089684 0.94372606
0.32098907 -0.31101012 0.94406998
0.32443359 -0.31112352 0.94441414
0.32788068 -0.31123701 0.94475865
0.33133024 -0.31135052 0.94510329
0.33478233 -0.31146416 0.94544816
0.3382369 -0.31157783 0.94579321
0.34169394 -0.31169155 0.94613844
0.25666645 -0.31867981 0.97780913
0.25941774 -0.3178297 0.97520071
0.2621544 -0.31698406 0.97260606
0.26487654 -0.31614298 0.97002536
0.26758432 -0.31530637 0.96745831
0.27027774 -0.31447411 0.96490473
0.272957 -0.31364623 0.96236455
0.27562243 -0.312823 0.95983863
0.27827394 -0.31200412 0.95732599
0.28091162 -0.3111895 0.95482653
0.28353551 -0.31037909 0.95233995
0.28614581 -0.30957294 0.94986641
0.28874257 -0.30877095 0.9474057
0.29132593 -0.30797312 0.94495767
0.29389596 -0.30717939 0.94252223
0.29645276 -0.30638972 0.9400993
0.29899648 -0.30560413 0.93768883
0.30152717 -0.30482253 0.93529069
0.30492216 -0.30492216 0.93559635
0.30832997 -0.30503231 0.93593436
0.31174025 -0.30514255 0.93627262
0.31515294 -0.30525285 0.93661106
0.3185682 -0.3053633 0.93694991
0.3219859 -0.3054738 0.93728894
0.32540604 -0.30558434 0.93762815
0.32882866 -0.30569497 0.9379676
0.33225381 -0.30580574 0.93830746
0.33568138 -0.30591652 0.93864739
0.33911145 -0.30602741 0.93898761
0.34254402 -0.30613837 0.93932807
0.34597909 -0.30624944 0.93966883
0.25626242 -0.31473839 0.9762699
0.25901046 -0.31390011 0.97366965
0.2617439 -0.31306624 0.97108316
0.26446289 -0.31223685 0.96851045
0.26716754 -0.31141183 0.96595144
0.26985788 -0.31059116 0.96340579
0.2725341 -0.30977479 0.96087354
0.27519646 -0.30896288 0.95835519
0.277845 -0.30815536 0.9558503
0.28047973 -0.30735204 0.95335853
0.28310075 -0.30655289 0.95087969
0.28570819 -0.30575788 0.94841373
0.28830209 -0.30496696 0.9459604
0.29088265 -0.30418015 0.94351983
0.29344994 -0.30339739 0.94109184
0.29600403 -0.30261865 0.9386763
0.29854503 -0.30184388 0.9362731
0.3010731 -0.3010731 0.93388224
0.30358821 -0.3003062 0.93150342
0.30609056 -0.29954317 0.92913669
0.3094084 -0.29958591 0.92926925
0.31279477 -0.29969341 0.92960268
0.31618354 -0.29980099 0.92993635
0.3195748 -0.29990864 0.93027031
0.32296848 -0.3000164 0.93060458
0.32636458 -0.3001242 0.93093896
0.32976314 -0.30023211 0.93127364
0.33316413 -0.30034006 0.9316085
0.33675584 -0.30061617 0.93246496
0.34093896 -0.30140981 0.93492669
0.34514427 -0.30220768 0.93740153
0.34937203 -0.30300987 0.93988979
0.25682539 -0.31198251 0.9784146
0.25860447 -0.30998284 0.97214341
0.26133472 -0.30916068 0.96956503
0.26405057 -0.3083429 0.96700042
0.26675206 -0.30752945 0.96444929
0.26943934 -0.30672026 0.96191156
0.27211252 -0.3059153 0.95938712
0.27477181 -0.30511472 0.9568764
0.27741739 -0.30431849 0.95437932
0.2800492 -0.30352637 0.95189518
0.28266728 -0.30273834 0.94942379
0.28527188 -0.30195445 0.9469654
0.28786299 -0.30117458 0.94451964
0.29044074 -0.30039871 0.94208646
0.29300529 -0.29962686 0.93966585
0.2955566 -0.29885891 0.93725747
0.29809496 -0.29809496 0.9348616
0.30062035 -0.29733488 0.93247789
0.30313289 -0.29657865 0.93010628
0.30563268 -0.29582626 0.92774671
0.30811977 -0.29507768 0.92539901
0.31059435 -0.29433286 0.92306322
0.31383437 -0.29432136 0.9230271
0.31719953 -0.29442623 0.92335606
0.32118598 -0.29509979 0.92546844
0.32529685 -0.29587302 0.92789334
0.32942936 -0.29665032 0.93033105
0.33358362 -0.29743171 0.93278152
0.33775979 -0.29821718 0.93524492
0.34195814 -0.29900685 0.93772143
0.34617865 -0.29980066 0.94021088
0.35042217 -0.30059913 0.94271493
0.35468835 -0.30140185 0.94523239
0.26068619 -0.30902535 0.97996897
0.2617825 -0.30626839 0.97122627
0.26363951 -0.30446109 0.96549505
0.2663379 -0.30365911 0.96295184
0.26902211 -0.30286136 0.96042198
0.27169222 -0.30206773 0.95790529
0.27434847 -0.30127838 0.95540214
0.2769911 -0.30049336 0.95291269
0.27961996 -0.29971242 0.95043617
0.28223521 -0.2989355 0.94797248
0.28483692 -0.29816261 0.94552153
0.28742519 -0.29739368 0.94308311
0.29000017 -0.29662874 0.94065738
0.29256195 -0.29586771 0.93824404
0.29511061 -0.29511061 0.93584311
0.29764625 -0.29435733 0.93345439
0.30016896 -0.29360789 0.93107778
0.30267888 -0.29286227 0.92871326
0.30517614 -0.29212049 0.92636096
0.30766073 -0.2913824 0.92402035
0.31013283 -0.29064804 0.92169166
0.3139497 -0.29117614 0.92336631
0.31803232 -0.29193738 0.9257803
0.32213634 -0.29270256 0.9282068
0.32626194 -0.29347178 0.93064618
0.33040923 -0.29424503 0.93309826
0.33457848 -0.2950224 0.93556339
0.33876979 -0.29580387 0.93804157
0.34298339 -0.29658949 0.94053292
0.34721956 -0.29737943 0.94303793
0.35147867 -0.29817384 0.94555712
0.35576057 -0.29897249 0.94808978
0.26347652 -0.30884334 0.99045837
0.26455927 -0.30605876 0.98152828
0.26562271 -0.30332398 0.97275788
0.26666731 -0.30063766 0.96414286
0.26860613 -0.29901436 0.95893693
0.27127323 -0.29823205 0.95642805
0.27392647 -0.29745391 0.95393252
0.27656609 -0.29668 0.95145065
0.279192 -0.29591009 0.94898158
0.28180438 -0.29514423 0.94652545
0.28440323 -0.2943823 0.94408196
0.28698874 -0.29362431 0.94165111
0.28956094 -0.29287022 0.93923271
0.29211998 -0.29211998 0.93682671
0.29466596 -0.29137361 0.9344331
0.29719895 -0.29063103 0.9320516
0.29971907 -0.2898922 0.92968225
0.30222642 -0.28915718 0.92732501
0.30472106 -0.2884258 0.92497951
0.30720314 -0.28769818 0.92264599
0.31080079 -0.28801957 0.92367673
0.31487656 -0.28877279 0.92609233
0.31897369 -0.28952995 0.9285205
0.32309234 -0.2902911 0.93096149
0.32723269 -0.29105622 0.93341523
0.33139497 -0.29182541 0.93588203
0.33557931 -0.29259869 0.93836194
0.33978584 -0.29337606 0.94085497
0.34401476 -0.29415753 0.94336116
0.34826678 -0.29494363 0.94588214
0.35254154 -0.2957339 0.94841653
0.35683927 -0.29652843 0.95096451
0.36116019 -0.29732722 0.95352626
0.26739562 -0.30584466 0.9920513
0.26844475 -0.30308279 0.98309273
0.26947507 -0.30037031 0.97429436
0.27048713 -0.29770595 0.96565217
0.27148139 -0.29508847 0.95716202
0.27350572 -0.29364109 0.95246726
0.27614239 -0.2928783 0.94999301
0.27876547 -0.2921195 0.94753176
0.28137496 -0.29136461 0.94508314
0.28397101 -0.29061362 0.94264716
0.28655368 -0.28986645 0.94022363
0.28912318 -0.28912318 0.93781269
0.29167947 -0.28838366 0.93541402
0.29422271 -0.2876479 0.93302751
0.29675308 -0.28691596 0.93065327
0.29927054 -0.28618768 0.92829102
0.30177528 -0.28546309 0.92594069
0.30426735 -0.28474218 0.92360228
0.30764949 -0.28486064 0.92398655
0.31171864 -0.28560609 0.92640454
0.31580886 -0.2863552 0.92883438
0.3199206 -0.28710824 0.93127698
0.32405403 -0.28786525 0.93373245
0.32820928 -0.28862625 0.93620092
0.33238661 -0.28939134 0.9386825
0.33658612 -0.29016045 0.94117725
0.34080777 -0.29093346 0.94368464
0.34505266 -0.29171118 0.94620728
0.34932029 -0.29249308 0.94874346
0.35361087 -0.29327914 0.95129323
0.35792455 -0.29406947 0.95385671
0.3622615 -0.294864 0.95643395
0.27132735 -0.30283633 0.9936493
0.27234256 -0.30009723 0.98466194
0.27333963 -0.29740727 0.97583574
0.27431893 -0.29476506 0.9671663
0.27308637 -0.28984013 0.95100689
0.27572015 -0.2890884 0.94854039
0.27834031 -0.28834057 0.94608665
0.28094694 -0.28759658 0.94364548
0.28354016 -0.28685641 0.94121689
0.28612003 -0.28612003 0.93880069
0.28868672 -0.28538746 0.93639702
0.29124027 -0.28465858 0.9340055
0.29378086 -0.28393346 0.93162626
0.29630852 -0.28321201 0.92925906
0.29882333 -0.28249419 0.92690384
0.30132547 -0.28178003 0.92456061
0.30449623 -0.28169972 0.92429709
0.30855855 -0.28243721 0.92671686
0.31264192 -0.28317827 0.92914844
0.31674674 -0.28392324 0.93159276
0.32087317 -0.28467208 0.93404984
0.32502145 -0.28542492 0.93651998
0.32919174 -0.28618178 0.93900329
0.33338419 -0.28694263 0.94149977
0.33759883 -0.28770739 0.94400907
0.34183633 -0.28847653 0.94653273
0.34609681 -0.28925002 0.94907063
0.35038018 -0.29002762 0.95162207
0.35468668 -0.29080945 0.95418739
0.35901642 -0.29159549 0.95676649
0.36336964 -0.29238582 0.95935965
0.36774653 -0.29318041 0.96196687
0.2742725 -0.3025845 1.0044349
0.27527177 -0.29981828 0.99525249
0.27625287 -0.29710215 0.98623621
0.27002391 -0.28679559 0.95202339
0.27266833 -0.28605083 0.94955117
0.27529919 -0.28531006 0.94709218
0.27791643 -0.28457314 0.94464588
0.28052017 -0.28383994 0.94221205
0.28311056 -0.28311056 0.9397909
0.28568769 -0.28238493 0.9373821
0.28825158 -0.28166297 0.93498558
0.29080242 -0.28094473 0.93260133
0.2933403 -0.2802301 0.93022919
0.29586527 -0.27951911 0.92786902
0.29837751 -0.27881178 0.92552096
0.30134088 -0.27853671 0.92460787
0.3053959 -0.27926576 0.927028
0.30947283 -0.27999923 0.92946273
0.31357071 -0.28073609 0.93190873
0.31769019 -0.2814768 0.93436754
0.32183143 -0.28222141 0.93683934
0.3259947 -0.28297001 0.93932432
0.33018008 -0.28372258 0.94182247
0.33438778 -0.28447917 0.94433397
0.33861783 -0.28523964 0.94685841
0.3428711 -0.28600466 0.94939792
0.34714729 -0.28677383 0.95195121
0.35144657 -0.28754717 0.95451832
0.35576904 -0.28832465 0.9570992
0.36011499 -0.2891064 0.95969421
0.36448455 -0.28989238 0.96230322
0.36887795 -0.29068261 0.96492648
0.27826458 -0.29953322 1.0060731
0.26695499 -0.2837446 0.95304227
0.26961011 -0.28300688 0.95056444
0.27225158 -0.28227311 0.94809985
0.27487952 -0.28154325 0.94564837
0.27749383 -0.28081712 0.94320941
0.28009474 -0.28009474 0.94078308
0.2826823 -0.27937609 0.93836927
0.28525659 -0.27866107 0.93596768
0.28781778 -0.27794972 0.93357843
0.2903659 -0.27724203 0.9312014
0.29290107 -0.27653787 0.92883629
0.29542339 -0.2758373 0.92648321
0.29818341 -0.27537155 0.92491889
0.30223155 -0.27609259 0.92734069
0.30630147 -0.27681789 0.92977685
0.3103925 -0.27754673 0.93222487
0.31450498 -0.27827927 0.93468535
0.31863925 -0.27901572 0.93715888
0.32279545 -0.27975607 0.93964553
0.32697377 -0.28050032 0.94214541
0.33117437 -0.28124857 0.94465864
0.33539703 -0.28200048 0.94718415
0.33964315 -0.2827571 0.94972551
0.34391218 -0.28351784 0.95228064
0.3482042 -0.28428265 0.95484948
0.35251939 -0.28505158 0.95743215
0.35685807 -0.28582472 0.96002895
0.3612203 -0.28660202 0.96263981
0.36560634 -0.28738359 0.96526492
0.37001643 -0.28816947 0.96790457
0.26387945 -0.28068703 0.95406324
0.26654539 -0.27995649 0.95158005
0.26919752 -0.27922973 0.94910979
0.27183613 -0.27850693 0.94665301
0.27446106 -0.27778786 0.94420886
0.27707255 -0.27707255 0.94177741
0.2796706 -0.27636087 0.93935847
0.28225529 -0.27565283 0.93695182
0.28482684 -0.27494845 0.93455762
0.28738526 -0.27424765 0.93217552
0.28993064 -0.27355036 0.92980546
0.29246312 -0.27285668 0.92744756
0.2950238 -0.27220428 0.92523003
0.29906502 -0.27291727 0.92765355
0.30312747 -0.27363399 0.93008965
0.30721214 -0.27435523 0.93254125
0.31131762 -0.27507958 0.93500334
0.31544486 -0.27580783 0.9374786
0.31959403 -0.27653989 0.93996698
0.32376525 -0.27727589 0.94246858
0.32795873 -0.27801579 0.94498354
0.33217433 -0.27875936 0.94751096
0.33641303 -0.27950734 0.95005339
0.34067482 -0.28025958 0.95261025
0.34495959 -0.28101587 0.95518088
0.34926754 -0.28177622 0.9577654
0.35359886 -0.28254071 0.96036392
0.35795379 -0.28330937 0.96297663
0.36233243 -0.28408223 0.96560359
0.36673522 -0.28485945 0.96824539
0.3711614 -0.28564036 0.97089964
0.26079729 -0.27762291 0.95508635
0.26347417 -0.27689958 0.95259792
0.26613709 -0.27618 0.95012236
0.26878625 -0.27546418 0.94765973
0.27142188 -0.2747522 0.94521046
0.27404395 -0.27404395 0.94277382
0.27665251 -0.2733393 0.94034976
0.2792477 -0.27263829 0.93793803
0.28182963 -0.27194086 0.93553877
0.28439838 -0.271247 0.93315172
0.28695402 -0.27055663 0.93077672
0.28949669 -0.2698698 0.92841387
0.29202652 -0.26918647 0.926063
0.29589635 -0.26973975 0.92796648
0.29995182 -0.27044836 0.93040425
0.30402935 -0.27116132 0.93285692
0.30812812 -0.27187774 0.93532163
0.31224832 -0.27259773 0.93779856
0.3163904 -0.27332157 0.94028866
0.32055452 -0.27404919 0.94279194
0.32474089 -0.27478075 0.94530863
0.32894981 -0.27551633 0.9478392
0.33318064 -0.27625531 0.95038146
0.33743522 -0.27699906 0.95294011
0.34171271 -0.2777468 0.95551246
0.3460134 -0.27849859 0.95809883
0.35033742 -0.27925447 0.9606992
0.35468495 -0.28001443 0.9633137
0.35905617 -0.28077853 0.96594238
0.36345169 -0.2815471 0.96858639
0.36787048 -0.28231919 0.97124261
0.26039633 -0.27383614 0.95361799
0.26307011 -0.27312374 0.95113707
0.26573002 -0.27241504 0.94866908
0.26837623 -0.2717101 0.94621414
0.27100894 -0.27100894 0.94377238
0.27362809 -0.27031139 0.94134319
0.27623373 -0.26961738 0.93892634
0.27882612 -0.26892695 0.93652201
0.28140521 -0.26824006 0.93412995
0.28397116 -0.26755664 0.93175
0.28652409 -0.26687673 0.92938221
0.28906408 -0.26620024 0.92702645
0.29272553 -0.26656014 0.9282797
0.29677409 -0.26726064 0.9307192
0.30084398 -0.26796487 0.93317157
0.30493641 -0.26867372 0.9356401
0.30904958 -0.26938546 0.93811876
0.31318459 -0.27010098 0.94061053
0.3173416 -0.27082032 0.94311553
0.32152084 -0.2715435 0.94563401
0.3257224 -0.27227053 0.94816577
0.32994604 -0.27300104 0.95070976
0.33419335 -0.27373627 0.95327014
0.3384636 -0.27447546 0.95584434
0.34275699 -0.27521867 0.9584325
0.34707364 -0.27596587 0.96103466
0.35141379 -0.27671716 0.96365088
0.35577768 -0.27747256 0.96628153
0.36016586 -0.2782324 0.96892768
0.36457714 -0.27899566 0.97158569
0.36901277 -0.27976316 0.97425848
0.25731191 -0.27076614 0.95464021
0.25999659 -0.27006099 0.95215404
0.26266733 -0.2693595 0.94968081
0.26532423 -0.26866165 0.94722039
0.26796749 -0.26796749 0.94477302
0.27059722 -0.26727703 0.94233865
0.27321345 -0.26659009 0.93991673
0.27581626 -0.26590669 0.93750733
0.27840579 -0.26522681 0.93511021
0.28098205 -0.26455036 0.93272525
0.28354526 -0.26387736 0.93035251
0.28609544 -0.26320782 0.92799187
0.28955263 -0.26337838 0.92859322
0.29359418 -0.26407075 0.93103433
0.29765707 -0.26476678 0.93348831
0.3017422 -0.26546717 0.93595767
0.30584869 -0.26617101 0.93843919
0.30997658 -0.26687822 0.94093263
0.31412646 -0.26758921 0.94343936
0.31829858 -0.26830402 0.94595957
0.32249293 -0.26902261 0.94849306
0.32670918 -0.26974452 0.9510383
0.33094928 -0.27047122 0.95360047
0.3352122 -0.27120185 0.9561764
0.33949831 -0.27193645 0.9587664
0.34380761 -0.27267501 0.96137029
0.34814039 -0.27341759 0.96398842
0.35249689 -0.27416423 0.96662092
0.35687774 -0.2749154 0.96926928
0.36128154 -0.27566981 0.97192913
0.36570963 -0.2764284 0.97460371
0.37016216 -0.27719119 0.97729307
0.25422084 -0.2676895 0.95566458
0.25691646 -0.26699162 0.9531731
0.25959808 -0.26629737 0.95069456
0.26226574 -0.2656067 0.9482289
0.26491964 -0.26491964 0.94577605
0.26755998 -0.26423624 0.94333625
0.27018675 -0.26355642 0.94090921
0.27280009 -0.26288009 0.93849474
0.27540004 -0.26220724 0.93609256
0.27798671 -0.26153779 0.93370265
0.2805602 -0.26087177 0.9313249
0.28312063 -0.26020914 0.92895931
0.28637752 -0.26019442 0.9289068
0.29041213 -0.26087868 0.93134964
0.29446799 -0.26156655 0.93380529
0.29854527 -0.26225802 0.93627387
0.30264553 -0.26295432 0.93875974
0.30676636 -0.26365325 0.94125497
0.31090915 -0.2643559 0.94376343
0.31507409 -0.2650623 0.94628537
0.31926125 -0.26577246 0.94882059
0.32347056 -0.26648611 0.95136839
0.32770291 -0.26720393 0.95393097
0.33195859 -0.26792598 0.95650876
0.33623728 -0.2686519 0.95910037
0.34053928 -0.26938182 0.96170622
0.3448647 -0.2701157 0.9643262
0.34921378 -0.27085361 0.96696055
0.35358727 -0.27159601 0.96961099
0.35798365 -0.27234164 0.97227287
0.3624042 -0.27309132 0.9749493
0.36684912 -0.27384514 0.97764045
0.37131876 -0.27460316 0.98034668
0.25112316 -0.26460627 0.95669115
0.25382975 -0.26391569 0.95419431
0.25652224 -0.26322868 0.95171046
0.25920075 -0.26254529 0.94923955
0.26186544 -0.26186544 0.94678152
0.26451629 -0.26118904 0.94433606
0.26715368 -0.26051635 0.94190383
0.26977757 -0.2598471 0.93948418
0.27238798 -0.25918129 0.93707699
0.27498505 -0.25851887 0.93468201
0.27756891 -0.25785986 0.93229932
0.2801396 -0.2572042 0.92992872
0.28320032 -0.25700837 0.92922074
0.2872279 -0.25768447 0.93166512
0.29127675 -0.25836411 0.93412244
0.29534698 -0.25904736 0.9365927
0.29943979 -0.25973505 0.93907911
0.30355397 -0.26042607 0.94157755
0.30768961 -0.26112038 0.94408774
0.31184736 -0.26181835 0.94661134
0.31602734 -0.26252005 0.94914836
0.32022929 -0.26322514 0.95169759
0.32445431 -0.26393434 0.95426172
0.32870266 -0.26464778 0.95684117
0.33297408 -0.26536512 0.95943475
0.33726868 -0.26608634 0.96204239
0.34158668 -0.26681149 0.96466416
0.34592834 -0.26754063 0.96730042
0.3502945 -0.26827434 0.96995306
0.35468334 -0.26901105 0.97261667
0.35909641 -0.26975185 0.97529513
0.36353379 -0.27049673 0.97798818
0.3679958 -0.27124572 0.98069626
0.24801883 -0.26151645 0.95772004
0.25073642 -0.2608332 0.95521784
0.25343987 -0.2601535 0.95272869
0.25612921 -0.25947732 0.95025235
0.25880468 -0.25880468 0.94778907
0.26146629 -0.2581355 0.94533843
0.2641142 -0.2574698 0.94290054
0.26674867 -0.25680771 0.94047582
0.26936963 -0.25614902 0.93806356
0.27197713 -0.25549367 0.93566352
0.27457133 -0.25484166 0.93327576
0.27715236 -0.25419298 0.93090022
0.28002092 -0.25382015 0.92953479
0.28404152 -0.25448808 0.93198085
0.28808334 -0.25515953 0.93443984
0.29214656 -0.25583455 0.93691194
0.2962313 -0.25651315 0.93939704
0.30033895 -0.25719634 0.94189906
0.30446786 -0.2578826 0.94441223
0.3086184 -0.25857216 0.94693756
0.31279117 -0.25926542 0.94947636
0.31698644 -0.25996244 0.95202893
0.32120341 -0.26066247 0.95459259
0.32544449 -0.26136732 0.95717394
0.32970858 -0.26207605 0.95976937
0.33399582 -0.26278856 0.9623788
0.33830643 -0.26350501 0.96500248
0.34264061 -0.26422536 0.96764052
0.34699941 -0.26495028 0.97029537
0.35138077 -0.26567814 0.97296089
0.35578623 -0.26640999 0.97564107
0.36021614 -0.26714593 0.97833622
0.36467052 -0.26788592 0.9810462
0.36914963 -0.26863003 0.9837712
0.24490778 -0.25841993 0.95875102
0.24763644 -0.25774404 0.95624346
0.25035086 -0.2570717 0.953749
0.25305116 -0.25640282 0.95126748
0.25573745 -0.25573745 0.94879889
0.25840983 -0.25507551 0.94634306
0.2610684 -0.25441697 0.94389987
0.26371336 -0.25376189 0.94146949
0.26634485 -0.25311032 0.9390521
0.26896283 -0.25246206 0.936647
0.27156752 -0.25181714 0.93425435
0.2741589 -0.25117552 0.93187386
0.27683941 -0.25062975 0.92984903
0.28085303 -0.25128955 0.93229693
0.28488776 -0.25195277 0.93475753
0.28894389 -0.2526195 0.93723118
0.29302156 -0.25328982 0.93971801
0.29712197 -0.2539646 0.94222152
0.30124387 -0.25464261 0.94473696
0.30538723 -0.25532374 0.94726402
0.30955279 -0.25600851 0.94980454
0.31374079 -0.256697 0.9523589
0.31795084 -0.2573888 0.95492542
0.32218406 -0.2580846 0.95750695
0.32644078 -0.25878465 0.96010417
0.33072063 -0.25948849 0.96271545
0.33502382 -0.26019618 0.96534097
0.33935055 -0.26090771 0.9679808
0.34370193 -0.26162386 0.97063774
0.34807584 -0.26234287 0.97330528
0.3524738 -0.26306581 0.97598743
0.35689604 -0.26379272 0.97868437
0.36134285 -0.26452371 0.98139638
0.36581436 -0.26525873 0.98412335
0.37031072 -0.26599786 0.98686546
0.24179004 -0.25531676 0.95978427
0.24452978 -0.25464827 0.95727128
0.24725524 -0.25398326 0.95477146
0.24996649 -0.25332174 0.95228463
0.25266364 -0.25266364 0.94981074
0.25534683 -0.25200897 0.94734967
0.25801614 -0.25135767 0.94490129
0.26067171 -0.25070971 0.94246554
0.26331371 -0.25006524 0.94004279
0.26594225 -0.24942409 0.93763262
0.26855734 -0.24878626 0.9352349
0.27115911 -0.24815169 0.93284941
0.27374762 -0.2475203 0.93047589
0.27766231 -0.24808881 0.93261302
0.28169 -0.24874382 0.93507534
0.28573906 -0.2494023 0.93755072
0.28980958 -0.25006428 0.94003922
0.2939018 -0.25072977 0.94254094
0.29801705 -0.25139984 0.9450599
0.30215383 -0.25207308 0.94759071
0.30631214 -0.25274935 0.95013297
0.3104929 -0.25342932 0.95268911
0.31469622 -0.25411302 0.95525914
0.31892136 -0.2547996 0.9578402
0.32317069 -0.25549099 0.96043921
0.32744318 -0.2561861 0.96305233
0.33173895 -0.25688502 0.96567971
0.3360582 -0.25758776 0.96832138
0.34040219 -0.25829512 0.97098053
0.34476852 -0.25900522 0.97364986
0.34915894 -0.25971922 0.97633398
0.35357362 -0.26043716 0.97903281
0.3580128 -0.26115909 0.98174673
0.36247665 -0.26188505 0.98447573
0.36696535 -0.26261503 0.98721981
0.24141648 -0.25154585 0.95830142
0.24415295 -0.2508882 0.95579606
0.2468752 -0.25023404 0.95330393
0.24958329 -0.24958329 0.9508248
0.25227731 -0.24893591 0.94835848
0.25495741 -0.24829186 0.94590491
0.25762367 -0.24765114 0.94346398
0.2602762 -0.24701372 0.94103563
0.26291525 -0.2463797 0.93862027
0.26554087 -0.245749 0.93621749
0.26815307 -0.24512151 0.93382698
0.27075192 -0.24449719 0.93144858
0.27446944 -0.24488591 0.9329294
0.2784901 -0.24553268 0.93539339
0.28253201 -0.24618287 0.93787038
0.28659543 -0.24683653 0.94036061
0.29068053 -0.2474937 0.94286418
0.2947886 -0.24815539 0.94538498
0.29891822 -0.24882019 0.94791764
0.30306929 -0.24948798 0.95046169
0.30724275 -0.25015938 0.95301956
0.31143826 -0.25083408 0.95558983
0.31565639 -0.25151232 0.95817369
0.31989834 -0.252195 0.96077448
0.32416338 -0.25288138 0.9633894
0.32845175 -0.25357154 0.96601868
0.33276466 -0.25426632 0.96866554
0.33710009 -0.25496402 0.97132355
0.34145892 -0.25566521 0.97399479
0.34584174 -0.25637025 0.9766807
0.35024884 -0.25707921 0.97938162
0.35468039 -0.25779209 0.98209745
0.35913652 -0.25850889 0.98482823
0.36361754 -0.25922972 0.98757434
0.36812365 -0.2599546 0.99033588
0.23829645 -0.24843672 0.95933372
0.24104404 -0.24778654 0.95682305
0.24377732 -0.24713977 0.95432556
0.24649636 -0.24649636 0.95184106
0.24920128 -0.2458563 0.94936949
0.25189218 -0.24521953 0.94691062
0.25456917 -0.24458607 0.9444645
0.25723237 -0.24395587 0.94203097
0.25988188 -0.24332891 0.93961
0.26251802 -0.24270535 0.93720216
0.26514071 -0.24208499 0.93480664
0.26774997 -0.24146776 0.93242323
0.27127439 -0.24168082 0.93324596
0.27528796 -0.24231935 0.93571162
0.2793228 -0.24296126 0.93819034
0.28337911 -0.24360661 0.94068235
0.28745699 -0.24425538 0.94318753
0.29155669 -0.2449076 0.94570613
0.29567972 -0.24556451 0.94824272
0.29982418 -0.24622431 0.95079058
0.30399033 -0.24688718 0.95335019
0.30817908 -0.24755369 0.95592391
0.31238955 -0.24822305 0.95850867
0.31662372 -0.24889672 0.96111
0.32088134 -0.24957438 0.96372676
0.3251622 -0.25025573 0.96635783
0.32946852 -0.25094235 0.96900916
0.3337957 -0.2516306 0.97166681
0.33814695 -0.25232285 0.97433996
0.3425222 -0.25301892 0.97702777
0.34692165 -0.25371882 0.97973049
0.3513456 -0.25442266 0.98244834
0.35579404 -0.25513035 0.98518109
0.36026734 -0.25584203 0.98792917
0.36476567 -0.25655767 0.99069262
0.36928925 -0.25727734 0.99347162
0.23546331 -0.24562719 0.96156734
0.23792842 -0.24467815 0.95785213
0.24067277 -0.24403882 0.95534927
0.24340281 -0.24340281 0.95285946
0.24611866 -0.24277011 0.95038259
0.24882042 -0.24214068 0.94791853
0.25150821 -0.2415145 0.94546723
0.25418213 -0.24089156 0.94302857
0.25684229 -0.24027181 0.94060236
0.25948885 -0.2396553 0.93818891
0.26212201 -0.23904209 0.93578833
0.26474172 -0.23843198 0.93339992
0.26807716 -0.23847356 0.9335627
0.2720837 -0.23910385 0.93603015
0.27611145 -0.23973748 0.93851066
0.28016058 -0.24037446 0.94100422
0.28423128 -0.24101484 0.94351113
0.28832373 -0.24165861 0.94603139
0.29243955 -0.24230705 0.94856983
0.2965768 -0.24295841 0.95111972
0.30073568 -0.24361269 0.95368111
0.30491701 -0.24427052 0.95625633
0.3091203 -0.2449314 0.95884347
0.3133468 -0.24559613 0.96144575
0.31759697 -0.24626504 0.96406436
0.32187036 -0.24693757 0.96669716
0.32616851 -0.24761483 0.96934843
0.33048892 -0.24829479 0.97201025
0.33483261 -0.24897809 0.97468525
0.33920032 -0.24966522 0.97737515
0.34359217 -0.25035611 0.98007977
0.34800836 -0.2510508 0.98279941
0.35244918 -0.2517494 0.98553425
0.35691476 -0.2524519 0.98828429
0.36140531 -0.2531583 0.99104971
0.36592108 -0.2538687 0.99383068
0.23580804 -0.24259388 0.96297514
0.23814814 -0.24152613 0.95873666
0.24046773 -0.24046773 0.95453537
0.24302945 -0.23967732 0.95139784
0.24574211 -0.23905525 0.94892853
0.24844073 -0.2384364 0.94647205
0.2511254 -0.23782074 0.9440282
0.25379625 -0.23720826 0.94159693
0.25645337 -0.23659892 0.93917817
0.25909698 -0.23599279 0.93677211
0.26172715 -0.23538983 0.93437868
0.26487783 -0.23526415 0.93387979
0.26887724 -0.23588616 0.93634886
0.27289784 -0.23651145 0.93883097
0.27693981 -0.23714007 0.94132626
0.28100333 -0.23777205 0.9438349
0.28508857 -0.23840742 0.94635695
0.28919572 -0.23904616 0.94889247
0.29332674 -0.23968984 0.95144755
0.29747874 -0.24033594 0.95401222
0.30165273 -0.24098514 0.95658922
0.30585009 -0.24163847 0.95918262
0.31006756 -0.24229324 0.96178174
0.31431028 -0.24295336 0.96440208
0.31857622 -0.24361712 0.96703684
0.32286611 -0.24428496 0.96968782
0.32717982 -0.24495661 0.97235399
0.33151597 -0.24563101 0.97503096
0.33587602 -0.24630909 0.97772259
0.34026024 -0.24699095 0.98042923
0.34466881 -0.24767657 0.98315084
0.34910187 -0.248366 0.98588753
0.35355973 -0.24905932 0.98863965
0.35804215 -0.24975623 0.99140602
0.3625505 -0.25045758 0.99419004
0.23615377 -0.23955166 0.964387
0.23849578 -0.23849578 0.96013623
0.24081722 -0.23744914 0.95592266
0.24311838 -0.23641166 0.95174599
0.2453995 -0.2353832 0.94760555
0.24806218 -0.23474342 0.94502991
0.25074375 -0.23413819 0.94259346
0.25341153 -0.23353612 0.94016963
0.25606564 -0.23293711 0.93775815
0.25870627 -0.23234129 0.93535948
0.26167625 -0.23205253 0.93419701
0.26566857 -0.23266627 0.93666774
0.26968205 -0.23328325 0.93915159
0.27371687 -0.2339035 0.9416486
0.27777317 -0.23452705 0.94415891
0.28185123 -0.23515399 0.94668281
0.28595108 -0.23578423 0.94922006
0.29007456 -0.23641914 0.95177609
0.29421958 -0.23705691 0.95434362
0.29838619 -0.23769747 0.95692235
0.30257511 -0.23834129 0.95951426
0.30678612 -0.23898809 0.96211815
0.31102133 -0.23963939 0.96474016
0.31527978 -0.24029432 0.96737677
0.31956193 -0.24095312 0.97002894
0.32386839 -0.24161611 0.97269803
0.32819694 -0.24228153 0.97537684
0.33254939 -0.24295059 0.97807038
0.33692595 -0.24362338 0.98077887
0.34132683 -0.24429992 0.98350251
0.34575218 -0.2449802 0.98624116
0.35020182 -0.24566397 0.98899388
0.35467711 -0.24635208 0.99176407
0.35917747 -0.24704401 0.99454969
0.23650053 -0.23650053 0.96580309
0.23884442 -0.23545657 0.9615398
0.24116769 -0.23442174 0.9573139
0.24347068 -0.23339604 0.95312518
0.24575356 -0.23237921 0.94897276
0.24801664 -0.23137122 0.94485641
0.25036326 -0.23046684 0.94116312
0.25302798 -0.2298751 0.93874663
0.25567907 -0.22928639 0.93634248
0.25847253 -0.22883876 0.93451446
0.2624577 -0.22944416 0.9369868
0.26646405 -0.23005281 0.93947238
0.27049172 -0.23066473 0.94197124
0.27454084 -0.23127986 0.94448328
0.27861163 -0.23189829 0.94700879
0.2827042 -0.23252004 0.94954783
0.28681883 -0.23314512 0.95210052
0.29095778 -0.23377533 0.95467412
0.29511738 -0.23440751 0.95725578
0.29929927 -0.23504294 0.95985067
0.30350295 -0.23568106 0.96245658
0.30773005 -0.23632309 0.96507841
0.31198102 -0.23696919 0.96771693
0.31625551 -0.237619 0.97037059
0.32055461 -0.2382732 0.97304219
0.32487559 -0.23892966 0.97572297
0.32922038 -0.23958971 0.97841841
0.33358929 -0.24025343 0.98112887
0.33798245 -0.24092083 0.98385435
0.34240004 -0.24159192 0.98659486
0.34684196 -0.24226651 0.98934972
0.35130945 -0.24294534 0.99212193
0.35580206 -0.24362801 0.9949097
0.2344816 -0.2344816 0.97153729
0.23684834 -0.23344044 0.96722341
0.23919411 -0.23240846 0.96294755
0.24151923 -0.23138556 0.9587093
0.24382399 -0.23037162 0.95450824
0.24610862 -0.22936654 0.95034385
0.24837343 -0.2283702 0.94621569
0.25061864 -0.22738247 0.94212312
0.25284448 -0.22640324 0.93806583
0.2552937 -0.22564667 0.93493116
0.25924471 -0.22621991 0.93730623
0.26324388 -0.2268202 0.93979347
0.26726434 -0.2274237 0.94229394
0.27130625 -0.22803041 0.94480777
0.27536976 -0.22864035 0.94733495
0.2794551 -0.22925358 0.94987577
0.28356236 -0.22987008 0.95243019
0.28769356 -0.23049133 0.95500422
0.29184595 -0.231115 0.95758826
0.29602069 -0.23174192 0.96018583
0.30021727 -0.23237155 0.9627946
0.30443648 -0.23300447 0.96541697
0.30867991 -0.2336417 0.96805727
0.31294677 -0.23428255 0.97071254
0.31723848 -0.23492795 0.97338665
0.32155183 -0.23557541 0.97606927
0.32588899 -0.23622641 0.97876662
0.33025026 -0.23688108 0.98147911
0.3346357 -0.23753934 0.9842065
0.33904552 -0.23820122 0.98694891
0.34347975 -0.23886664 0.98970598
0.3479394 -0.23953617 0.99248004
0.35242414 -0.24020948 0.99526983
0.23482849 -0.23140034 0.97297454
0.23719715 -0.23037133 0.96864784
0.23954481 -0.22935142 0.9643594
0.24187179 -0.22834049 0.96010876
0.24417834 -0.22733845 0.95589542
0.24646474 -0.22634518 0.95171899
0.24873124 -0.22536053 0.94757879
0.25097811 -0.2243844 0.94347447
0.25320578 -0.22341685 0.93940622
0.2560297 -0.2229936 0.93762654
0.26002204 -0.22358583 0.9401167
0.26403475 -0.22418045 0.94261688
0.26806942 -0.22477871 0.94513243
0.27212566 -0.22538015 0.94766134
0.27620369 -0.22598484 0.9502039
0.28030369 -0.22659281 0.95276022
0.2844258 -0.22720404 0.95533025
0.28857252 -0.22782043 0.95792198
0.2927399 -0.22843865 0.96052146
0.29692969 -0.22906004 0.96313423
0.30114061 -0.2296835 0.96575576
0.3053765 -0.23031189 0.96839792
0.30963567 -0.23094372 0.97105461
0.31392002 -0.23158033 0.9737314
0.31822574 -0.23221877 0.97641587
0.32255527 -0.23286074 0.97911519
0.3269088 -0.23350628 0.98182946
0.33128518 -0.23415445 0.98455483
0.33568805 -0.2348077 0.98730159
0.3401151 -0.23546429 0.99006236
0.34456694 -0.23612455 0.99283856
0.34904382 -0.23678851 0.99563032
0.23517638 -0.22830993 0.97441602
0.23754698 -0.22729316 0.9700765
0.23989655 -0.2262854 0.96577543
0.24222538 -0.22528653 0.96151233
0.24453372 -0.22429644 0.95728666
0.2468219 -0.22331505 0.95309812
0.24909011 -0.22234218 0.94894594
0.25133899 -0.22137804 0.94483107
0.25356844 -0.22042224 0.94075173
0.25679731 -0.22034866 0.94043767
0.26080415 -0.22093599 0.94294441
0.26483181 -0.22152597 0.94546241
0.26887935 -0.22211774 0.94798803
0.27295011 -0.2227139 0.95053244
0.27704278 -0.22331326 0.95309049
0.28115746 -0.22391583 0.95566219
0.28529635 -0.22452317 0.95825434
0.28945607 -0.22513251 0.96085495
0.29363889 -0.2257455 0.96347117
0.29784319 -0.22636083 0.96609735
0.30207077 -0.22697973 0.96873879
0.3063224 -0.22760268 0.97139752
0.31059915 -0.22823033 0.97407627
0.3148973 -0.22885978 0.97676277
0.31921914 -0.22949269 0.97946399
0.32356459 -0.23012882 0.98217899
0.32793418 -0.23076849 0.98490906
0.33232874 -0.23141217 0.98765624
0.33674797 -0.23205949 0.99041897
0.34119201 -0.23271044 0.9931972
0.34566098 -0.23336504 0.99599099
0.35015523 -0.23402335 0.99880064
0.23552531 -0.22521034 0.97586173
0.23789784 -0.22420588 0.97150934
0.24024932 -0.22321036 0.96719563
0.24258 -0.22222364 0.96292001
0.24489015 -0.22124559 0.958682
0.24718025 -0.22027628 0.9544819
0.2494505 -0.21931554 0.95031893
0.25170106 -0.21836318 0.9461922
0.25393215 -0.21741903 0.94210112
0.25756952 -0.21768779 0.94326568
0.26159009 -0.21826944 0.94578606
0.26563248 -0.21885443 0.94832087
0.26969594 -0.21944204 0.95086706
0.27378166 -0.22003311 0.95342821
0.27788687 -0.22062534 0.95599443
0.28201646 -0.22122249 0.95858192
0.28617099 -0.22182484 0.96119201
0.29034626 -0.22242901 0.96380991
0.29454279 -0.22303529 0.96643698
0.29876268 -0.22364521 0.96907985
0.3030068 -0.22425926 0.9717406
0.30727598 -0.22487795 0.9744215
0.31156644 -0.22549836 0.97710979
0.31588048 -0.2261221 0.9798125
0.32021889 -0.22674958 0.98253149
0.32458022 -0.22737972 0.98526192
0.32896706 -0.22801422 0.98801124
0.33337849 -0.22865227 0.990776
0.33781463 -0.22929385 0.99355608
0.34227574 -0.22993909 0.99635196
0.34676206 -0.23058797 0.99916363
0.23587529 -0.22210155 0.97731179
0.23824976 -0.22110949 0.97294647
0.24060313 -0.22012627 0.96862
0.24293566 -0.21915175 0.96433181
0.24524796 -0.21818613 0.96008277
0.24753998 -0.21722896 0.95587099
0.24981201 -0.21628019 0.9516961
0.25206423 -0.21533963 0.94755739
0.25433308 -0.21443769 0.94358855
0.25834638 -0.21501085 0.94611067
0.26238123 -0.21558711 0.94864637
0.26643777 -0.2161665 0.95119584
0.27051595 -0.2167488 0.95375812
0.27461612 -0.21733423 0.95633417
0.27873874 -0.21792302 0.95892501
0.28970608 -0.22378492 0.98471916
0.29152131 -0.2225222 0.97916275
0.2927939 -0.22087961 0.97193491
0.29545251 -0.22030851 0.96942192
0.29968888 -0.2209135 0.97208405
0.30395046 -0.22152323 0.97476697
0.3082332 -0.22213453 0.97745693
0.31253761 -0.2227478 0.98015553
0.31686884 -0.22336656 0.98287821
0.32122388 -0.22398855 0.98561513
0.32560295 -0.2246138 0.98836643
0.33000654 -0.22524256 0.99113315
0.33443484 -0.22587484 0.99391538
0.33888808 -0.22651069 0.99671328
0.34336644 -0.22715011 0.99952692
0.23382843 -0.21997193 0.98318398
0.23622629 -0.21898349 0.97876608
0.23860271 -0.21800393 0.97438782
0.24095817 -0.21703325 0.97004932
0.2432929 -0.21607131 0.96574986
0.24560702 -0.21511787 0.96148837
0.24790078 -0.2141728 0.95726424
0.25017449 -0.21323597 0.95307708
0.25242838 -0.21230733 0.94892639
0.25510046 -0.21175006 0.94643563
0.25912794 -0.21231775 0.94897294
0.26317716 -0.21288852 0.95152408
0.26724815 -0.21346237 0.95408893
0.27134237 -0.21404026 0.95667189
0.2754558 -0.21461895 0.95925838
0.28810146 -0.22175081 0.99113488
0.29037392 -0.22082329 0.9869892
0.29251286 -0.21981736 0.9824931
0.29447627 -0.21870458 0.97751951
0.2963686 -0.21756539 0.97242773
0.30062255 -0.21816607 0.97511256
0.30489668 -0.21876767 0.97780144
0.30919614 -0.21937379 0.98051059
0.31351823 -0.21998239 0.98323077
0.31786519 -0.22059496 0.98596871
0.32223645 -0.22121096 0.98872197
0.32663214 -0.22183038 0.99149054
0.33105257 -0.22245333 0.9942748
0.33549792 -0.22307976 0.99707472
0.33996832 -0.22370973 0.99989045
0.23417845 -0.21683189 0.98465574
0.23657839 -0.21585619 0.98022497
0.23895711 -0.21488948 0.97583503
0.24131458 -0.21393137 0.97148412
0.24365115 -0.21298178 0.96717197
0.24596709 -0.2120406 0.96289796
0.24826263 -0.21110769 0.9586615
0.25053805 -0.21018293 0.95446211
0.25279364 -0.20926626 0.95029938
0.25587246 -0.20904614 0.94929981
0.25991428 -0.20960829 0.95185262
0.26397792 -0.21017349 0.95441926
0.26806352 -0.21074176 0.95699978
0.27217126 -0.2113131 0.95959431
0.28577977 -0.21915627 0.99521095
0.28829086 -0.21840216 0.99178648
0.29071343 -0.21759987 0.98814315
0.29303026 -0.21673836 0.984231
0.29523396 -0.21581429 0.98003471
0.29729182 -0.21480623 0.97545695
0.30155957 -0.2153997 0.97815198
0.30584952 -0.21599542 0.98085719
0.31016484 -0.21659556 0.9835825
0.31450403 -0.21719891 0.9863224
0.31886747 -0.21780565 0.98907769
0.32325536 -0.21841578 0.99184835
0.32766789 -0.21902934 0.99463457
0.33210525 -0.21964633 0.9974364
0.33656776 -0.22026686 1.0002543
0.23452976 -0.21368267 0.98613292
0.23693199 -0.21271998 0.98169011
0.23931265 -0.21176587 0.97728699
0.24167204 -0.2108203 0.97292322
0.24401048 -0.20988314 0.96859831
0.2463282 -0.20895426 0.9643116
0.24862556 -0.20803364 0.96006292
0.25090268 -0.20712101 0.95585126
0.25315994 -0.20621638 0.95167643
0.2566492 -0.20632583 0.95218152
0.26070541 -0.20688234 0.95474982
0.26478356 -0.2074419 0.95733213
0.26888385 -0.20800449 0.95992845
0.28295726 -0.21617231 0.99762243
0.28566238 -0.21556118 0.99480212
0.28828001 -0.21489964 0.99174917
0.29081815 -0.21419542 0.98849916
0.29327056 -0.21344544 0.9850381
0.29562974 -0.21264595 0.98134851
0.29821831 -0.21202804 0.97849691
0.30250168 -0.21261548 0.98120785
0.3068091 -0.21320632 0.98393458
0.31114045 -0.21380043 0.98667634
0.31549609 -0.21439789 0.98943359
0.3198761 -0.21499869 0.99220628
0.32428074 -0.21560287 0.99499452
0.3287102 -0.21621045 0.9977985
0.33316472 -0.21682148 1.0006183
0.23774607 -0.2099801 0.98506308
0.23966929 -0.20863299 0.97874343
0.24203061 -0.20770003 0.97436672
0.24437089 -0.20677537 0.97002894
0.24669042 -0.2058589 0.96572959
0.24898952 -0.20495056 0.96146834
0.25126836 -0.20405015 0.95724434
0.25352731 -0.20315765 0.95305741
0.25743064 -0.20358893 0.95508069
0.26150134 -0.20413975 0.95766473
0.26559412 -0.20469357 0.96026278
0.26970997 -0.20525099 0.96287775
0.28255108 -0.21235205 0.99619043
0.28535968 -0.21183142 0.99374801
0.2880905 -0.21126637 0.99109721
0.29073307 -0.21065091 0.98820996
0.29329985 -0.20999576 0.98513651
0.29578 -0.20929462 0.98184729
0.29915127 -0.20923299 0.98155814
0.30345091 -0.20981464 0.98428684
0.30777451 -0.21039952 0.98703068
0.31212229 -0.2109877 0.9897899
0.31649446 -0.21157916 0.99256462
0.32089111 -0.21217391 0.99535471
0.32531267 -0.21277207 0.99816078
0.32975918 -0.21337359 1.0009826
0.24182773 -0.20703237 0.98755789
0.2423902 -0.20457044 0.97581434
0.24473234 -0.20365837 0.97146368
0.24705368 -0.20275441 0.9671517
0.24935451 -0.20185842 0.96287775
0.2516351 -0.20097032 0.95864153
0.25415358 -0.20029323 0.95541173
0.25821686 -0.20083533 0.95799762
0.26230213 -0.20138036 0.9605974
0.2664085 -0.20192747 0.96320719
0.27053922 -0.20247903 0.96583819
0.28194094 -0.20839112 0.99403918
0.28487656 -0.20797737 0.99206555
0.28771496 -0.20750351 0.98980528
0.29047284 -0.20698363 0.98732537
0.29314274 -0.2064141 0.98460871
0.29579964 -0.20584887 0.98191249
0.3000907 -0.20642076 0.98464048
0.30440611 -0.20699616 0.98738515
0.30874604 -0.20757502 0.99014634
0.31311029 -0.20815712 0.99292302
0.3174991 -0.2087425 0.99571532
0.32191268 -0.2093312 0.99852341
0.32635114 -0.20992318 1.0013472
0.24593014 -0.20406969 0.99006546
0.24588725 -0.20118047 0.97604811
0.24741803 -0.19964077 0.96857804
0.24972063 -0.19875723 0.96429151
0.25200295 -0.1978815 0.96004283
0.25493008 -0.1975286 0.95833069
0.2590079 -0.19806486 0.96093237
0.26310784 -0.19860397 0.96354795
0.26723027 -0.19914612 0.96617824
0.27779528 -0.2044154 0.99174267
0.28106818 -0.20425451 0.99096209
0.284172 -0.20397623 0.98961198
0.2871483 -0.20361425 0.98785585
0.29002279 -0.20318963 0.98579574
0.29280996 -0.20271458 0.983491
0.29672673 -0.20302357 0.98499006
0.30103475 -0.20358996 0.98773801
0.30536735 -0.20415989 0.99050307
0.30972371 -0.20473263 0.99328172
0.31410459 -0.20530859 0.99607605
0.31851017 -0.20588779 0.99888617
0.32294068 -0.20647027 1.0017121
0.32739633 -0.20705606 1.0045542
0.25015786 -0.20402947 1.0070854
0.25005341 -0.2010919 0.99258566
0.24995188 -0.1982377 0.97849739
0.2500878 -0.19564693 0.96570939
0.25237185 -0.19478363 0.96144819
0.25571132 -0.19474702 0.96126747
0.25980344 -0.19527709 0.96388394
0.26391885 -0.19581075 0.96651804
0.26805615 -0.19634688 0.96916431
0.27221575 -0.1968856 0.97182345
0.27976811 -0.19983436 0.98637849
0.2831597 -0.19977525 0.98608667
0.28633752 -0.19956858 0.98506659
0.2893652 -0.19926347 0.98356056
0.29336211 -0.1996251 0.9853456
0.29766196 -0.20018202 0.98809451
0.3019866 -0.20074254 0.99086124
0.3063347 -0.20130567 0.99364084
0.3107076 -0.20187216 0.99643701
0.3151052 -0.20244189 0.99924916
0.31952769 -0.20301484 1.0020772
0.32397529 -0.20359103 1.0049213
0.25436315 -0.20100024 1.0096931
0.25419772 -0.19809891 0.99511874
0.25403699 -0.19528013 0.98095906
0.25388026 -0.19254008 0.9671948
0.25649706 -0.19194813 0.96422124
0.26060385 -0.19247212 0.96685344
0.26473311 -0.19299899 0.96950006
0.26888505 -0.19352873 0.97216117
0.27305987 -0.19406141 0.97483701
0.27726007 -0.19459869 0.9775359
0.28155851 -0.19519088 0.98051071
0.28572467 -0.19567811 0.98295826
0.2899932 -0.19622293 0.98569506
0.29428557 -0.19677082 0.98844725
0.298603 -0.19732244 0.99121827
0.30294406 -0.19787675 0.99400276
0.30730817 -0.19843328 0.9967984
0.31169778 -0.1989935 0.99961257
0.31611222 -0.19955687 1.0024426
0.32055172 -0.20012346 1.0052887
0.25858733 -0.19795308 1.012303
0.25835931 -0.19508764 0.99764961
0.25813776 -0.19230397 0.98341435
0.25792247 -0.18959865 0.9695797
0.26140976 -0.18965021 0.96984339
0.26555404 -0.19017096 0.9725064
0.26972115 -0.19069459 0.97518414
0.27391127 -0.19122109 0.9778766
0.27812594 -0.19175144 0.98058873
0.28236473 -0.19228518 0.98331821
0.286623 -0.1928191 0.98604864
0.29090744 -0.19335765 0.98880267
0.29521596 -0.19389924 0.99157232
0.29954863 -0.19444385 0.99435735
0.30390671 -0.19499215 0.99716133
0.3082878 -0.19554256 0.99997598
0.31269425 -0.19609639 1.0028082
0.31712568 -0.19665337 1.0056565
0.26254052 -0.19205984 1.0001873
0.26225862 -0.1893125 0.98588002
0.26222068 -0.18681081 0.97285199
0.2663801 -0.18732537 0.97553164
0.2705625 -0.18784276 0.97822601
0.27476805 -0.188363 0.98093528
0.27899858 -0.18888725 0.98366541
0.28325069 -0.18941304 0.98640358
0.28752697 -0.18994206 0.98915857
0.29182753 -0.19047426 0.99193007
0.29615226 -0.19100945 0.99471718
0.30050138 -0.19154765 0.99751997
0.30487508 -0.19208892 1.0003387
0.30927417 -0.19263363 1.0031754
0.31369713 -0.19318072 1.0060245
0.266743 -0.18901658 1.0027378
0.26640016 -0.186306 0.98835808
0.26721129 -0.18446198 0.97857553
0.27140906 -0.18497306 0.98128682
0.27563021 -0.18548699 0.9840132
0.27987653 -0.18600491 0.9867608
0.28414401 -0.18652399 0.98951453
0.28843668 -0.18704683 0.99228817
0.29275343 -0.18757255 0.99507719
0.29709455 -0.18810129 0.99788213
0.30146015 -0.18863295 1.0007026
0.30585054 -0.18916766 1.0035393
0.31026587 -0.18970542 1.0063921
0.27056256 -0.18328431 0.99084854
0.27226096 -0.18208537 0.98436689
0.27649847 -0.18259332 0.98711294
0.28075868 -0.18310349 0.98987091
0.28504336 -0.18361688 0.9926464
0.28935212 -0.18413317 0.9954375
0.29368523 -0.18465239 0.9982444
0.274746 -0.18024738 0.99335158
0.27737108 -0.17968063 0.99022824
0.28164759 -0.18018448 0.99300498
