# .PCD v0.7 - Point Cloud Data file format
VERSION 0.7
FIELDS x y z
SIZE 4 4 4
TYPE F F F
COUNT 1 1 1
WIDTH 1371
HEIGHT 1
VIEWPOINT 0 0 0 1 0 0 0
POINTS 1371
DATA ascii
0.064644203 -0.1464389 0.74886709
0.06737788 -0.14664598 0.74992603
0.070119299 -0.14685363 0.75098795
0.072868496 -0.14706188 0.7520529
0.075625502 -0.14727071 0.75312084
0.078390636 -0.14748068 0.75419462
0.081163451 -0.14769086 0.75526947
0.083943784 -0.14790095 0.75634378
0.086732984 -0.14811325 0.75742948
0.089529209 -0.1483245 0.75850981
0.093417354 -0.15028009 0.76851034
0.096168749 -0.15034834 0.76885933
0.098704912 -0.15008555 0.76751554
0.10112792 -0.14966932 0.76538694
0.10363318 -0.14939329 0.76397538
0.10647813 -0.14960852 0.76507604
0.10933152 -0.14982466 0.76618141
0.11219319 -0.15004149 0.76729023
0.11506318 -0.15025897 0.7684024
0.1179415 -0.15047708 0.76951778
0.12082818 -0.15069583 0.77063638
0.12372327 -0.15091519 0.7717582
0.1266268 -0.15113522 0.77288336
0.12953882 -0.15135588 0.77401179
0.13245934 -0.15157719 0.7751435
0.1353884 -0.15179911 0.77627844
0.13832608 -0.15202174 0.77741688
0.14127238 -0.15224499 0.77855855
0.031336583 -0.14850816 0.7733838
0.033817552 -0.14744453 0.76784474
0.036263231 -0.14639601 0.76238441
0.038674526 -0.14536287 0.75700414
0.041052025 -0.14434423 0.75169933
0.043396432 -0.14333972 0.74646825
0.045780528 -0.14257364 0.74247873
0.048464414 -0.14277354 0.74351972
0.051155824 -0.14297397 0.74456352
0.053854808 -0.14317498 0.7456103
0.056561392 -0.14337654 0.74665999
0.059275616 -0.14357871 0.74771279
0.061997488 -0.14378141 0.74876839
0.06472706 -0.14398469 0.74982703
0.067464374 -0.14418857 0.75088871
0.070209444 -0.144393 0.75195336
0.072962299 -0.14459801 0.753021
0.075723045 -0.14480372 0.75409222
0.078491889 -0.14501044 0.7551688
0.081268072 -0.14521672 0.75624305
0.08405304 -0.1454251 0.75732821
0.086845167 -0.14563267 0.75840914
0.089645728 -0.14584155 0.75949699
0.092454016 -0.14605056 0.76058537
0.095270768 -0.14626075 0.76168007
0.098095216 -0.14647093 0.76277459
0.10092794 -0.14668195 0.76387346
0.10376876 -0.14689343 0.76497483
0.10661765 -0.14710537 0.76607853
0.10947493 -0.14731811 0.7671864
0.11234058 -0.1475316 0.76829821
0.11521456 -0.14774573 0.76941335
0.11809689 -0.14796047 0.77053159
0.1209876 -0.14817582 0.77165312
0.12388675 -0.14839183 0.77277797
0.12679437 -0.14860845 0.77390611
0.12971047 -0.14882571 0.77503747
0.13263512 -0.14904359 0.77617216
0.13556835 -0.14926213 0.77731025
0.1385102 -0.1494813 0.77845162
0.028783333 -0.14665793 0.77802408
0.031297479 -0.14560132 0.77241868
0.033775654 -0.14455979 0.76689339
0.03621871 -0.14353341 0.76144838
0.038627382 -0.14252171 0.75608134
0.041002329 -0.14152417 0.75078934
0.043344263 -0.1405405 0.7455709
0.045838714 -0.1401355 0.74342239
0.04852609 -0.14033221 0.74446595
0.051221021 -0.14052947 0.74551243
0.053923547 -0.1407273 0.74656194
0.056633685 -0.14092568 0.74761432
0.059351474 -0.14112461 0.74866968
0.062076945 -0.14132412 0.74972802
0.064810142 -0.1415242 0.75078946
0.067551084 -0.14172482 0.75185382
0.070299804 -0.14192602 0.75292116
0.073056348 -0.14212781 0.75399166
0.075821064 -0.14233077 0.75506836
0.078593127 -0.1425333 0.7561428
0.081373803 -0.14273766 0.75722688
0.084162027 -0.14294185 0.7583102
0.08695782 -0.14314595 0.75939292
0.089762494 -0.14335205 0.76048625
0.092574388 -0.14355738 0.76157558
0.095394909 -0.14376415 0.76267254
0.098223321 -0.14397117 0.76377076
0.10105992 -0.14417882 0.76487231
0.10390481 -0.1443872 0.7659778
0.1067576 -0.14459574 0.76708412
0.10961872 -0.14480497 0.76819408
0.11248837 -0.14501512 0.76930892
0.11536633 -0.14522585 0.77042687
0.11825268 -0.14543721 0.77154809
0.12114745 -0.14564918 0.77267259
0.12405067 -0.14586177 0.77380043
0.12696238 -0.146075 0.77493155
0.12988259 -0.14628881 0.77606589
0.13281138 -0.14650328 0.77720368
0.13574877 -0.14671838 0.77834475
0.13869481 -0.14693411 0.77948916
0.028747199 -0.143736 0.7770474
0.031258468 -0.1427017 0.77145594
0.033733889 -0.14168233 0.76594514
0.036174297 -0.14067782 0.76051468
0.038580347 -0.13968746 0.75516069
0.04095275 -0.13871093 0.74988151
0.043292217 -0.13774796 0.74467564
0.045897041 -0.13769113 0.74436837
0.048587922 -0.13788465 0.74541456
0.051286388 -0.13807873 0.74646384
0.05399245 -0.13827334 0.74751592
0.056706157 -0.13846852 0.74857104
0.059427533 -0.13866425 0.74962914
0.062156614 -0.13886052 0.75069022
0.064893432 -0.13905735 0.75175428
0.067638017 -0.13925473 0.75282139
0.070390411 -0.1394527 0.75389159
0.073150948 -0.13965181 0.75496799
0.075918935 -0.13985066 0.75604302
0.07869529 -0.14005093 0.75712568
0.081479311 -0.14025126 0.75820869
0.084271178 -0.14045197 0.75929368
0.087071136 -0.14065337 0.76038247
0.089879051 -0.14085524 0.76147377
0.092695102 -0.14105776 0.76256865
0.095519379 -0.14126106 0.76366764
0.09835171 -0.14146478 0.76476908
0.10119225 -0.14166915 0.76587385
0.10404123 -0.1418744 0.76698345
0.10689792 -0.14207952 0.76809233
0.1097629 -0.14228524 0.7692045
0.11263651 -0.14249198 0.77032214
0.1155185 -0.14269933 0.77144307
0.11840889 -0.14290728 0.77256727
0.12130772 -0.14311585 0.77369481
0.12421501 -0.14332502 0.77482557
0.12713081 -0.14353478 0.77595961
0.13005517 -0.1437452 0.77709711
0.13298811 -0.14395621 0.77823788
0.13592967 -0.14416783 0.77938193
0.1388799 -0.14438008 0.78052938
0.028711153 -0.14082137 0.77607304
0.031219559 -0.13980933 0.77049565
0.033692278 -0.13881218 0.76500034
0.036129989 -0.13782921 0.75958318
0.038533427 -0.1368601 0.7542423
0.040903293 -0.13590449 0.74897587
0.043268681 -0.13505073 0.7442708
0.04595552 -0.13524054 0.7453168
0.048649922 -0.13543086 0.74636573
0.051351916 -0.13562173 0.74741757
0.054061536 -0.13581313 0.74847239
0.056778815 -0.13600507 0.7495302
0.059503786 -0.13619755 0.75059098
0.06223648 -0.13639058 0.7516548
0.064976938 -0.13658418 0.75272167
0.067725182 -0.1367783 0.75379151
0.070481546 -0.13697356 0.75486761
0.073245451 -0.13716875 0.7559433
0.076017424 -0.13736482 0.75702381
0.078797311 -0.13756141 0.75810724
0.081585087 -0.13775842 0.759193
0.084380478 -0.13795538 0.76027846
0.087184668 -0.13815416 0.76137394
0.089996189 -0.13835235 0.76246619
0.092816137 -0.13855162 0.76356435
0.095644034 -0.13875121 0.76466429
0.098480508 -0.13895196 0.76577061
0.10132492 -0.1391529 0.76687801
0.10417789 -0.13935484 0.76799095
0.10703861 -0.13955668 0.76910323
0.10990745 -0.13975886 0.77021748
0.11278507 -0.1399622 0.77133811
0.11567107 -0.14016612 0.77246195
0.11856551 -0.14037067 0.77358919
0.1214684 -0.1405758 0.77471966
0.12437978 -0.14078151 0.7758534
0.12729973 -0.14098786 0.77699059
0.13022821 -0.14119479 0.77813101
0.13316531 -0.14140235 0.77927482
0.13611105 -0.14161049 0.78042191
0.026133165 -0.1389184 0.7807458
0.0286752 -0.13791406 0.77510124
0.031180806 -0.13692442 0.76953924
0.033650771 -0.13594911 0.76405787
0.036085792 -0.13498759 0.758654
0.038486619 -0.13403961 0.75332612
0.040853959 -0.13310483 0.7480725
0.043323807 -0.1325971 0.74521905
0.046014152 -0.1327837 0.74626768
0.048712075 -0.1329708 0.74731922
0.051417615 -0.13315843 0.74837381
0.054130796 -0.1333466 0.74943131
0.056851659 -0.1335353 0.7504918
0.059580233 -0.13372453 0.75155532
0.062316559 -0.13391431 0.75262195
0.065060653 -0.13410461 0.75369149
0.0678128 -0.13429594 0.75476676
0.070572637 -0.13448748 0.75584322
0.073340259 -0.13467939 0.75692183
0.076116018 -0.13487224 0.75800568
0.078899592 -0.13506539 0.75909126
0.081691146 -0.13525911 0.76017994
0.08449053 -0.13545308 0.76127005
0.087298058 -0.13564776 0.76236421
0.090113685 -0.13584301 0.76346159
0.092937484 -0.13603893 0.76456267
0.095769085 -0.13623489 0.76566404
0.098609626 -0.1364325 0.76677459
0.10145795 -0.13663004 0.76788485
0.10431473 -0.13682841 0.7689997
0.10717957 -0.13702704 0.77011603
0.11005238 -0.13722581 0.77123314
0.11293401 -0.13742572 0.77235669
0.11582407 -0.13762625 0.77348363
0.11872255 -0.13782732 0.7746138
0.12162952 -0.13802901 0.77574724
0.12454501 -0.13823128 0.77688402
0.12746906 -0.13843414 0.7780242
0.1304017 -0.1386376 0.77916765
0.13334298 -0.13884166 0.78031451
0.13629293 -0.13904633 0.78146476
0.026100241 -0.135996 0.77976221
0.028639354 -0.1350141 0.77413231
0.031142164 -0.1340467 0.76858556
0.033609364 -0.13309307 0.76311773
0.036041707 -0.13215293 0.75772715
0.038439929 -0.13122596 0.7524122
0.040804736 -0.13031189 0.74717122
0.043379072 -0.13013721 0.74616963
0.046072923 -0.13032056 0.74722087
0.048774388 -0.13050444 0.74827522
0.051483478 -0.13068883 0.74933243
0.054200236 -0.13087374 0.75039268
0.056924697 -0.13105918 0.75145596
0.059656888 -0.13124515 0.75252223
0.062396836 -0.13143164 0.75359148
0.065144628 -0.13161874 0.7546643
0.067900442 -0.13180673 0.75574219
0.070663832 -0.13199471 0.75681996
0.073435456 -0.13218382 0.75790429
0.076214813 -0.13237309 0.75898951
0.079002142 -0.13256291 0.76007789
0.081797123 -0.1327527 0.7611661
0.084600814 -0.13294414 0.76226372
0.087411962 -0.13313514 0.76335889
0.090231463 -0.1333271 0.76445949
0.093059242 -0.13351978 0.76556432
0.095894933 -0.13371265 0.76667017
0.098739065 -0.13390639 0.76778108
0.10159134 -0.13410057 0.76889437
0.10445193 -0.13429534 0.77001113
0.10732083 -0.13449065 0.77113104
0.11019769 -0.13468607 0.77225149
0.11308336 -0.13488255 0.77337807
0.11597744 -0.13507961 0.77450794
0.11888 -0.13527724 0.77564108
0.12179106 -0.13547546 0.77677757
0.12471068 -0.13567425 0.77791744
0.12763886 -0.13587363 0.7790606
0.13057566 -0.13607359 0.7802071
0.13352114 -0.13627414 0.78135705
0.13647529 -0.13647529 0.78251034
0.026067404 -0.13308096 0.77878118
0.028603652 -0.13212164 0.77316725
0.03110362 -0.13117613 0.76763427
0.033568058 -0.13024406 0.76217985
0.03599773 -0.12932517 0.75680256
0.038393348 -0.12841913 0.75150049
0.040755637 -0.1275257 0.74627221
0.043434475 -0.12767103 0.74712265
0.046131857 -0.12785114 0.74817663
0.048836857 -0.12803176 0.7492336
0.051549513 -0.12821288 0.75029355
0.054269854 -0.12839454 0.75135654
0.056997914 -0.1285767 0.75242251
0.05973373 -0.12875937 0.75349152
0.062477332 -0.12894258 0.75456363
0.065228954 -0.1291267 0.7556411
0.067988113 -0.12931073 0.75671804
0.070755601 -0.1294961 0.75780278
0.073530748 -0.1296815 0.75888777
0.076313853 -0.12986743 0.75997585
0.079104953 -0.13005391 0.76106703
0.08190386 -0.13024057 0.76215941
0.084711023 -0.13042809 0.76325673
0.08752621 -0.13061604 0.76435661
0.09034957 -0.1308046 0.76546007
0.093181334 -0.13099405 0.76656872
0.096020959 -0.13118356 0.76767772
0.098868862 -0.13137369 0.76879036
0.10172506 -0.13156441 0.76990646
0.1045896 -0.13175572 0.77102602
0.10746246 -0.13194758 0.77214867
0.11034339 -0.13213962 0.77327251
0.1132331 -0.13233265 0.77440214
0.11613124 -0.13252623 0.77553499
0.11903787 -0.13272038 0.77667111
0.12195305 -0.13291512 0.77781069
0.12487677 -0.1331104 0.77895349
0.12780911 -0.13330626 0.78009969
0.13075009 -0.13350272 0.78124928
0.13369976 -0.13369976 0.78240234
0.0072176545 -0.13713545 0.81940264
0.010028098 -0.13609561 0.81318951
0.01279624 -0.13507141 0.80706984
0.015656604 -0.13521612 0.80793446
0.018743504 -0.13697176 0.81842464
0.02603469 -0.13017346 0.77780384
0.028568037 -0.12923636 0.77220458
0.031065168 -0.12831265 0.76668531
0.033526856 -0.12740205 0.76124436
0.035953853 -0.12650429 0.75588012
0.038346879 -0.1256191 0.75059092
0.040796719 -0.1250222 0.74702442
0.043490022 -0.12519854 0.74807811
0.046190932 -0.12537539 0.74913478
0.04889949 -0.12555274 0.75019449
0.051615719 -0.1257306 0.75125718
0.054339651 -0.12590896 0.75232285
0.057071324 -0.12608781 0.75339156
0.059810773 -0.12626718 0.75446337
0.062558211 -0.12644745 0.75554049
0.06531316 -0.12662755 0.75661659
0.068076469 -0.12680911 0.7577014
0.0708474 -0.12699063 0.75878602
0.073626295 -0.12717269 0.75987387
0.076413162 -0.12735526 0.76096481
0.079207741 -0.12753789 0.76205599
0.082010917 -0.12772192 0.76315558
0.084821671 -0.1279057 0.76425368
0.087640755 -0.12809034 0.7653569
0.090467989 -0.1282755 0.76646334
0.093303561 -0.12846142 0.76757425
0.096147098 -0.12864754 0.76868623
0.098998986 -0.12883429 0.76980221
0.10185914 -0.12902158 0.77092129
0.10472764 -0.12920943 0.77204365
0.10760447 -0.12939778 0.7731691
0.11048949 -0.12958644 0.77429634
0.11338323 -0.12977599 0.77542889
0.11628544 -0.12996608 0.77656472
0.11919617 -0.13015674 0.77770394
0.12211545 -0.13034795 0.7788465
0.12504332 -0.13053972 0.77999234
0.12797982 -0.13073207 0.78114164
0.13092498 -0.13092498 0.78229433
0.13387886 -0.13111846 0.78345042
0.0072081257 -0.13407114 0.81832081
0.010014957 -0.13305587 0.81212395
0.012779599 -0.13205586 0.80602032
0.015502996 -0.13107078 0.80000776
0.018186059 -0.13010027 0.79408413
0.020977609 -0.13006116 0.79384547
0.023434734 -0.12820178 0.78249645
0.026002079 -0.12727334 0.77682954
0.028532511 -0.12635826 0.77124429
0.031026812 -0.12545624 0.76573867
0.033485759 -0.12456702 0.76031119
0.035910085 -0.1236903 0.75496
0.038300529 -0.12282583 0.74968362
0.040848881 -0.12254664 0.74797958
0.043545708 -0.12271972 0.74903595
0.046250168 -0.1228933 0.75009543
0.048962284 -0.12306736 0.75115782
0.051682089 -0.12324191 0.75222319
0.054409627 -0.12341696 0.75329167
0.057144925 -0.12359252 0.75436318
0.059888195 -0.12376894 0.75544
0.062638961 -0.12394518 0.75651574
0.065398052 -0.12412283 0.75760001
0.068164788 -0.12430049 0.7586844
0.070939459 -0.12447867 0.75977194
0.073722094 -0.12465736 0.76086259
0.076512724 -0.12483654 0.76195627
0.079311155 -0.12501588 0.76305091
0.082117923 -0.12519617 0.76415133
0.084932663 -0.12537679 0.76525372
0.087755598 -0.125558 0.76635981
0.090586692 -0.12573974 0.76746905
0.093426086 -0.12592211 0.76858222
0.096273653 -0.12610492 0.76969802
0.099129461 -0.12628822 0.77081674
0.10199358 -0.12647204 0.77193874
0.10486605 -0.1266564 0.77306402
0.10774687 -0.12684125 0.77419227
0.11063596 -0.12702647 0.77532279
0.11353375 -0.12721251 0.77645832
0.11644004 -0.1273991 0.77759719
0.11935487 -0.12758625 0.77873945
0.12227829 -0.12777394 0.77988505
0.1252103 -0.12796217 0.78103399
0.12815098 -0.12815098 0.78218639
0.13110034 -0.12834033 0.78334212
0.13405843 -0.12853025 0.78450131
0.0071986211 -0.1310149 0.81724179
0.010001852 -0.13002408 0.81106126
0.012763002 -0.12904812 0.80497348
0.015483011 -0.12808673 0.79897648
0.018162791 -0.12713954 0.79306811
0.020803226 -0.12620623 0.78724641
0.023405202 -0.12528667 0.78151035
0.025969554 -0.12438049 0.77585781
0.028497074 -0.12348732 0.77028638
0.030988552 -0.12260688 0.76479441
0.033444755 -0.12173891 0.75938022
0.035866424 -0.12088314 0.75404209
0.038254283 -0.12003931 0.74877846
0.040901184 -0.12006476 0.74893725
0.043601539 -0.12023455 0.74999636
0.046309546 -0.12040482 0.75105846
0.049025234 -0.12057558 0.75212359
0.051748637 -0.12074682 0.75319177
0.054479785 -0.12091855 0.75426298
0.057218879 -0.12109112 0.75533944
0.059965491 -0.12126355 0.75641501
0.062720351 -0.12143727 0.75749868
0.065482877 -0.12161106 0.75858271
0.068253331 -0.12178536 0.75966996
0.071031742 -0.12196016 0.76076031
0.073818132 -0.12213545 0.76185375
0.076612413 -0.12231104 0.76294905
0.079414956 -0.12248747 0.76404959
0.082225308 -0.12266398 0.76515061
0.085043937 -0.12284125 0.76625633
0.087870747 -0.12301904 0.7673654
0.09070573 -0.12319734 0.76847756
0.093548805 -0.12337596 0.76959175
0.096400522 -0.1235556 0.77071232
0.099260271 -0.12373541 0.7718339
0.10212836 -0.12391575 0.77295887
0.10500484 -0.12409662 0.77408713
0.10788969 -0.124278 0.77521849
0.11078282 -0.12445971 0.77635193
0.11368468 -0.12464223 0.7774905
0.11659507 -0.12482531 0.77863246
0.11951402 -0.12500891 0.77977777
0.12244155 -0.12519304 0.78092635
0.12537774 -0.12537774 0.78207844
0.1283226 -0.12556298 0.78323388
0.13127618 -0.12574875 0.78439271
0.0071891425 -0.12796675 0.81616575
0.009988782 -0.12700023 0.81000137
0.012746449 -0.12604821 0.80392945
0.015463078 -0.12511036 0.79794788
0.01813958 -0.12418636 0.79205465
0.020776857 -0.12327601 0.78624851
0.023375746 -0.12237891 0.78052682
0.025937106 -0.12149487 0.77488846
0.028461723 -0.12062349 0.76933086
0.030950384 -0.11976453 0.76385242
0.033403855 -0.11891772 0.75845152
0.035822868 -0.11808279 0.75312638
0.038257349 -0.11741049 0.74883848
0.040953614 -0.1175765 0.7498973
0.043657515 -0.11774299 0.75095916
0.046369083 -0.11790995 0.75202405
0.049088351 -0.11807739 0.75309193
0.05181535 -0.11824529 0.75416279
0.054550149 -0.11841374 0.75523716
0.057292763 -0.1185827 0.75631475
0.060043368 -0.11875243 0.75739735
0.062801696 -0.11892237 0.75848114
0.065567933 -0.11909278 0.75956804
0.068342119 -0.11926369 0.76065814
0.071124271 -0.11943509 0.76175129
0.073914424 -0.11960698 0.7628476
0.07671237 -0.11977897 0.76394451
0.079518735 -0.11995199 0.76504809
0.082333021 -0.12012522 0.76615292
0.085155509 -0.12029906 0.76726162
0.087986186 -0.12047339 0.76837355
0.090825096 -0.12064826 0.76948881
0.093672067 -0.12082339 0.7706058
0.096527718 -0.12099953 0.77172923
0.099391438 -0.12117586 0.77285385
0.10226352 -0.12135271 0.77398175
0.105144 -0.12153009 0.77511305
0.10803305 -0.12170811 0.77624851
0.11093007 -0.12188613 0.77738386
0.11383602 -0.12206513 0.77852553
0.1167505 -0.12224464 0.77967048
0.11967357 -0.12242468 0.78081876
0.12260527 -0.12260527 0.78197056
0.12554564 -0.12278639 0.7831257
0.12849468 -0.12296803 0.78428423
0.13145247 -0.12315021 0.78544617
0.0043408046 -0.12588334 0.82133484
0.0071796887 -0.12492658 0.81509244
0.0099757463 -0.12398428 0.80894428
0.012729936 -0.12305605 0.80288804
0.015443198 -0.12214166 0.79692203
0.018116446 -0.12124084 0.79104453
0.020750552 -0.12035321 0.78525311
0.023346368 -0.11947847 0.77954584
0.025904739 -0.11861643 0.77392143
0.028426459 -0.11776676 0.76837766
0.030912312 -0.11692918 0.76291281
0.033363052 -0.11610342 0.75752509
0.03577942 -0.11528924 0.75221294
0.038306389 -0.11491917 0.74979836
0.041006185 -0.11508188 0.75085998
0.043713637 -0.11524504 0.75192451
0.046428774 -0.11540866 0.75299209
0.049151625 -0.11557274 0.75406265
0.051882245 -0.11573732 0.75513643
0.054620773 -0.11590262 0.75621492
0.057367101 -0.11606832 0.75729609
0.060121235 -0.11623438 0.75837958
0.062883265 -0.11640093 0.75946623
0.06565322 -0.11656795 0.76055598
0.068431132 -0.11673546 0.76164889
0.071217038 -0.11690343 0.76274484
0.074010968 -0.1170719 0.76384401
0.076812901 -0.11724074 0.76494563
0.079622835 -0.11740994 0.76604956
0.082441017 -0.11757981 0.76715791
0.08526738 -0.11775019 0.76826954
0.088101938 -0.11792105 0.76938438
0.090944767 -0.11809246 0.77050275
0.093795933 -0.11826444 0.7716248
0.09665525 -0.11843672 0.77274883
0.099522948 -0.11860954 0.77387643
0.10239903 -0.11878287 0.77500737
0.10528352 -0.11895671 0.77614158
0.10817673 -0.11913133 0.77728093
0.11107772 -0.1193057 0.7784186
0.11398775 -0.11948114 0.77956325
0.11690634 -0.11965708 0.78071123
0.11983355 -0.11983355 0.78186262
0.12276942 -0.12001056 0.78301752
0.12571396 -0.12018807 0.78417569
0.12866722 -0.12036611 0.78533733
0.13162926 -0.12054469 0.78650248
0.0043350603 -0.1228267 0.82024789
0.00717026 -0.12189442 0.814022
0.0099627431 -0.12097617 0.80788988
0.012713471 -0.12007168 0.8018496
0.015423383 -0.11918068 0.79589945
0.018093372 -0.11830281 0.79003698
0.020724317 -0.11743779 0.78426027
0.023317061 -0.11658531 0.77856731
0.025872454 -0.11574519 0.77295691
0.028391283 -0.1149171 0.76742685
0.030874334 -0.1141008 0.76197553
0.033322353 -0.11329599 0.75660098
0.035736077 -0.11250246 0.75130171
0.038355552 -0.11242145 0.75076067
0.041058887 -0.11258082 0.75182498
0.043769896 -0.11274064 0.75289226
0.046488617 -0.11290092 0.75396264
0.049215075 -0.11306166 0.75503606
0.051949427 -0.11322311 0.75611424
0.054691553 -0.11338493 0.75719488
0.057441484 -0.11354712 0.75827801
0.060199298 -0.11370979 0.75936431
0.062965028 -0.11387292 0.76045376
0.065738715 -0.11403655 0.76154643
0.068520375 -0.11420062 0.76264215
0.071310051 -0.11436517 0.76374102
0.074107528 -0.11452982 0.76484054
0.076913439 -0.11469548 0.76594687
0.079727262 -0.11486131 0.76705426
0.082549304 -0.11502772 0.76816559
0.085379541 -0.11519462 0.76928014
0.088218004 -0.115362 0.77039796
0.091064855 -0.11553004 0.77152014
0.093919784 -0.11569829 0.77264369
0.096783116 -0.11586711 0.77377111
0.099654801 -0.11603642 0.77490175
0.10253488 -0.11620621 0.77603561
0.10542343 -0.11637651 0.77717292
0.10832053 -0.11654741 0.77831423
0.11122578 -0.11671841 0.7794562
0.11413988 -0.11689024 0.78060371
0.11706261 -0.11706261 0.78175479
0.11999398 -0.1172355 0.78290933
0.12293401 -0.11740889 0.78406721
0.12588274 -0.11758278 0.78522849
0.12884024 -0.11775721 0.78639334
0.0043293308 -0.11977816 0.81916386
0.007160855 -0.11887019 0.81295431
0.0099497773 -0.11797594 0.80683845
0.012697058 -0.11709508 0.80081433
0.015403617 -0.11622729 0.7948795
0.018070355 -0.11537226 0.78903192
0.020698145 -0.11452974 0.78326988
0.023287831 -0.11369941 0.77759129
0.025840247 -0.11288108 0.77199471
0.028356196 -0.11207449 0.76647842
0.030836446 -0.11127935 0.76104045
0.033281747 -0.1104954 0.75567907
0.035705626 -0.10976174 0.75066149
0.038404841 -0.10991731 0.75172544
0.041111726 -0.11007333 0.75279248
0.043826304 -0.1102298 0.75386256
0.046548612 -0.11038671 0.75493568
0.04927877 -0.11054426 0.75601321
0.052016716 -0.11070224 0.75709361
0.054762457 -0.11086058 0.75817651
0.057516068 -0.11101939 0.75926256
0.060277577 -0.11117864 0.76035172
0.063047022 -0.11133835 0.76144397
0.065824434 -0.11149853 0.76253945
0.068609849 -0.11165916 0.76363802
0.071403302 -0.11182027 0.76473981
0.074204743 -0.1119817 0.76584387
0.07701423 -0.11214353 0.76695061
0.079831965 -0.11230598 0.76806164
0.082657874 -0.11246891 0.76917589
0.085492 -0.11263232 0.77029341
0.088334352 -0.11279617 0.77141404
0.09118516 -0.11296072 0.77253938
0.094044045 -0.11312544 0.7736659
0.096911334 -0.11329071 0.77479619
0.099787012 -0.11345646 0.77592975
0.10267112 -0.11362271 0.77706671
0.10556369 -0.11378943 0.77820694
0.1084648 -0.11395669 0.77935082
0.11137425 -0.11412423 0.78049666
0.11429244 -0.11429244 0.78164697
0.11721931 -0.11446121 0.78280121
0.12015483 -0.11463047 0.78395879
0.12309904 -0.11480023 0.78511977
0.12605199 -0.1149705 0.78628427
0.12901372 -0.11514127 0.78745216
0.0014522838 -0.11763499 0.8243711
0.0043236166 -0.11673765 0.81808263
0.007151478 -0.11585394 0.81188977
0.0099368514 -0.11498357 0.80579031
0.012680685 -0.11412617 0.79978174
0.015383902 -0.11328146 0.7938621
0.018047396 -0.11244916 0.78802949
0.020672038 -0.11162901 0.78228194
0.023258673 -0.11082074 0.77661771
0.025808122 -0.1100241 0.77103496
0.028321194 -0.10923889 0.76553231
0.030798651 -0.10846481 0.7601077
0.033241242 -0.10770163 0.75475937
0.035751499 -0.1072545 0.75162596
0.038454261 -0.10740673 0.75269276
0.041164704 -0.10755938 0.75376254
0.043882854 -0.10771246 0.75483531
0.046608843 -0.10786618 0.75591254
0.049342595 -0.10802028 0.7569924
0.052084144 -0.10817476 0.758075
0.054833546 -0.10832969 0.75916076
0.057590839 -0.10848507 0.76024961
0.060356054 -0.10864089 0.76134163
0.063129216 -0.10879716 0.76243669
0.065910377 -0.10895389 0.76353502
0.068699561 -0.10911106 0.76463652
0.071496584 -0.10926836 0.76573884
0.074302018 -0.1094266 0.76684779
0.077115364 -0.10958499 0.76795775
0.079936951 -0.10974395 0.7690717
0.082766734 -0.10990337 0.77018887
0.085604742 -0.11006324 0.77130926
0.088451035 -0.11022359 0.77243298
0.091305666 -0.11038446 0.77356035
0.094168603 -0.11054575 0.77469063
0.097039878 -0.11070746 0.77582389
0.099919572 -0.11086966 0.77696055
0.1028077 -0.11103232 0.77810043
0.10570434 -0.11119547 0.77924383
0.10860949 -0.1113591 0.78039044
0.11152321 -0.11152321 0.78154051
0.1144454 -0.11168768 0.78269309
0.11737641 -0.11185282 0.78385037
0.1203161 -0.11201844 0.78501099
0.12326451 -0.11218455 0.78617513
0.12622167 -0.11235116 0.78734273
0.12918764 -0.11251827 0.78851378
0.0014503549 -0.11457804 0.82327616
0.0043179202 -0.11370523 0.8170048
0.0071421294 -0.11284564 0.81082845
0.0099239582 -0.11199896 0.80474478
0.012664356 -0.11116491 0.79875183
0.015364237 -0.11034316 0.79284734
0.018024497 -0.10953348 0.78702956
0.020646 -0.10873561 0.78129661
0.023229588 -0.10794926 0.77564651
0.025776077 -0.10717422 0.77007759
0.02828628 -0.10641029 0.76458859
0.030760951 -0.10565718 0.75917727
0.033200841 -0.10491466 0.753842
0.035797499 -0.10474084 0.75259304
0.038503807 -0.10488968 0.75366253
0.041217811 -0.10503893 0.75473499
0.043939572 -0.10518868 0.75581092
0.046669189 -0.10533903 0.75689125
0.049406547 -0.10548966 0.75797355
0.052151747 -0.10564072 0.75905895
0.054904826 -0.10579222 0.76014757
0.057665806 -0.10594415 0.76123923
0.060434729 -0.10609652 0.76233405
0.063211635 -0.10624934 0.76343209
0.06599655 -0.1064026 0.76453328
0.068789504 -0.1065563 0.76563764
0.071590461 -0.10671031 0.76674426
0.074399494 -0.10686473 0.76785386
0.077216759 -0.10701972 0.76896751
0.080042206 -0.10717516 0.77008438
0.082875878 -0.10733105 0.77120453
0.08571779 -0.10748739 0.77232784
0.088568009 -0.1076442 0.77345455
0.091426373 -0.10780124 0.77458298
0.094293505 -0.10795923 0.77571815
0.097168773 -0.10811736 0.7768544
0.10005248 -0.10827596 0.77799398
0.10294466 -0.10843504 0.77913702
0.10584536 -0.10859459 0.78028339
0.1087546 -0.1087546 0.78143311
0.11167253 -0.10891518 0.78258693
0.11459876 -0.10907593 0.78374195
0.11753394 -0.10923743 0.78490233
0.1204778 -0.10939939 0.78606606
0.12343044 -0.10956185 0.78723341
0.12639183 -0.10972477 0.78840411
0.0014484319 -0.11152926 0.82218462
0.0043122396 -0.11068082 0.81593001
0.0071328054 -0.10984521 0.80976993
0.0099111004 -0.1090221 0.80370206
0.012648067 -0.10821124 0.79772449
0.015344623 -0.10741236 0.79183519
0.018001655 -0.10662518 0.7860322
0.020620028 -0.10584947 0.78031373
0.023200575 -0.10508496 0.77467775
0.025744112 -0.1043314 0.7691226
0.028251451 -0.10358866 0.76364714
0.030723341 -0.10285641 0.75824904
0.03316053 -0.10213444 0.75292677
0.035843614 -0.10222068 0.75356251
0.038553476 -0.10236613 0.75463474
0.041271064 -0.102512 0.75571012
0.043996494 -0.10265849 0.75679004
0.046729669 -0.10280527 0.7578721
0.049470671 -0.10295247 0.75895727
0.052219529 -0.1031001 0.76004553
0.054976288 -0.10324815 0.76113695
0.057740968 -0.10339662 0.76223147
0.060513616 -0.10354552 0.76332915
0.063294269 -0.10369486 0.76443011
0.06608294 -0.10384462 0.7655341
0.068879537 -0.10399459 0.76663971
0.071684442 -0.10414533 0.76775086
0.074497305 -0.10429623 0.76886332
0.077318422 -0.10444769 0.76997989
0.080147743 -0.1045996 0.77109975
0.082985297 -0.10475194 0.77222276
0.085831143 -0.10490473 0.77334917
0.088685296 -0.10505797 0.77447879
0.091547802 -0.10521165 0.77561176
0.094418727 -0.10536583 0.7767483
0.097298004 -0.10552037 0.77788758
0.10018574 -0.10567538 0.77903026
0.10308198 -0.10583083 0.78017628
0.10598675 -0.10598675 0.7813257
0.1089001 -0.10614314 0.78247857
0.11182211 -0.10630003 0.78363514
0.11475254 -0.10645717 0.78479362
0.11769188 -0.106615 0.7859571
0.12063996 -0.10677329 0.78712404
0.12359679 -0.10693206 0.78829443
0.12656245 -0.1070913 0.78946835
0.001457984 -0.1093488 0.82760674
0.0043141861 -0.10785465 0.81629825
0.0071235052 -0.10685258 0.80871409
0.0098982751 -0.10605295 0.80266207
0.012631822 -0.10526519 0.79669988
0.015325058 -0.10448904 0.79082561
0.017978871 -0.10372426 0.7850374
0.020594118 -0.10297059 0.77933323
0.023171635 -0.1022278 0.77371144
0.025712231 -0.10149565 0.76817012
0.028216708 -0.10077395 0.76270801
0.030685825 -0.10006247 0.75732315
0.03318413 -0.099552386 0.75346255
0.035889849 -0.099694021 0.75453454
0.03860328 -0.099836066 0.75560957
0.041324493 -0.099978611 0.75668842
0.04405351 -0.10012161 0.75777072
0.046790309 -0.10026495 0.75885558
0.049534958 -0.1004087 0.75994354
0.052287489 -0.10055286 0.76103467
0.055047929 -0.10069743 0.76212883
0.057816327 -0.10084243 0.76322627
0.060592711 -0.10098785 0.76432687
0.063377112 -0.10113369 0.76543063
0.06616956 -0.10127994 0.76653755
0.068970017 -0.10142649 0.76764673
0.071778588 -0.10157347 0.76875919
0.074595384 -0.10172097 0.76987553
0.077420354 -0.10186888 0.77099496
0.080253564 -0.10201724 0.77211779
0.083095022 -0.10216601 0.77324378
0.085944787 -0.10231522 0.77437311
0.088802911 -0.1024649 0.7755059
0.091669433 -0.10261504 0.7766422
0.094544291 -0.10276553 0.77778125
0.097427584 -0.10291646 0.77892357
0.10031936 -0.10306785 0.78006929
0.10321967 -0.10321967 0.78121841
0.10612853 -0.10337194 0.78237087
0.10904599 -0.10352468 0.78352684
0.11197208 -0.10367785 0.78468615
0.11490673 -0.10383138 0.78584814
0.11785026 -0.10398553 0.78701478
0.12080254 -0.10414012 0.78818482
0.12376361 -0.10429518 0.78935838
0.12673351 -0.1044507 0.79053545
0.0043538897 -0.10594465 0.8238107
0.0071577774 -0.10450355 0.8126049
0.0098864101 -0.10310113 0.80169994
0.012615617 -0.10232668 0.79567784
0.015305544 -0.10157315 0.78981858
0.017956145 -0.10083066 0.78404504
0.020568276 -0.10009895 0.7783553
0.023142764 -0.099377759 0.77274746
0.025680427 -0.098666899 0.76721996
0.028182048 -0.097966164 0.76177114
0.030648397 -0.097275354 0.75639945
0.03322693 -0.09702263 0.75443435
0.035936203 -0.097160846 0.75550908
0.038653217 -0.097299471 0.75658703
0.041378062 -0.097438663 0.75766933
0.044110663 -0.097578131 0.75875384
0.046851102 -0.097718015 0.75984156
0.049599413 -0.097858302 0.76093239
0.052355621 -0.097998984 0.76202631
0.055119764 -0.098140068 0.76312339
0.057891887 -0.09828157 0.76422369
0.060672015 -0.098423488 0.76532722
0.063460179 -0.098565802 0.76643384
0.066256404 -0.098708518 0.76754355
0.069060698 -0.098851591 0.76865608
0.071873069 -0.098994985 0.7697711
0.074693702 -0.099138916 0.7708903
0.077522554 -0.099283271 0.77201277
0.080359645 -0.099428043 0.77313846
0.083205037 -0.099573247 0.77426755
0.086058743 -0.099718861 0.77539986
0.088920861 -0.099864967 0.77653593
0.091791324 -0.10001144 0.77767491
0.094670184 -0.10015831 0.77881694
0.097557507 -0.10030561 0.7799623
0.10045334 -0.10045334 0.78111106
0.10335772 -0.10060151 0.78226322
0.10627069 -0.10075013 0.78341883
0.10919227 -0.10089918 0.78457785
0.11212248 -0.10104866 0.78574014
0.11506134 -0.10119852 0.78690553
0.11800906 -0.10134896 0.78807527
0.12096556 -0.10149984 0.78924847
0.12393087 -0.10165117 0.79042518
0.0043943315 -0.10399918 0.8314628
0.0072233514 -0.10257158 0.82004935
0.0099757547 -0.10118265 0.80894494
0.012654612 -0.099830829 0.79813725
0.015286081 -0.098664701 0.78881419
0.017933477 -0.097944371 0.78305525
0.020542497 -0.09723448 0.77737975
0.02311397 -0.096534818 0.77178597
0.0256487 -0.095845148 0.76627213
0.028147476 -0.095165275 0.76083666
0.030611062 -0.094495021 0.75547802
0.033269837 -0.094486333 0.75540859
0.035982709 -0.094621196 0.75648677
0.03870333 -0.094756424 0.75756794
0.04143174 -0.094892047 0.75865221
0.044167973 -0.095028065 0.75973964
0.046912059 -0.095164463 0.76083016
0.049664035 -0.095301256 0.76192379
0.052423935 -0.095438451 0.76302063
0.055191793 -0.095576026 0.76412058
0.05796764 -0.09571401 0.76522374
0.060751516 -0.09585239 0.76633006
0.063543454 -0.095991172 0.7674396
0.066343375 -0.0961302 0.76855111
0.069151506 -0.096269742 0.76966673
0.071967795 -0.096409693 0.77078563
0.074792288 -0.096550047 0.77190775
0.077625014 -0.096690811 0.77303314
0.080466025 -0.096832 0.77416193
0.083315343 -0.096973591 0.77529395
0.086172998 -0.097115599 0.7764293
0.089039162 -0.097258158 0.77756906
0.091913536 -0.097400911 0.77871031
0.094796419 -0.097544141 0.77985543
0.097687781 -0.097687781 0.78100383
0.10058767 -0.097831853 0.78215563
0.10349615 -0.097976357 0.78331095
0.10641322 -0.098121271 0.78446954
0.10933894 -0.098266646 0.78563178
0.11227349 -0.098412566 0.78679842
0.11521636 -0.098558575 0.78796571
0.11816829 -0.098705277 0.78913862
0.12112902 -0.098852418 0.79031497
0.12409861 -0.099000014 0.79149497
0.0072901356 -0.10060387 0.82763124
0.010066728 -0.099229172 0.81632209
0.01276846 -0.097891524 0.80531776
0.015398319 -0.096589454 0.79460609
0.017959137 -0.095321566 0.78417563
0.020516781 -0.094377197 0.77640665
0.023085246 -0.093698941 0.77082688
0.025617052 -0.093030348 0.76532662
0.028112985 -0.092371233 0.75990433
0.030604178 -0.091812536 0.75530809
0.033312861 -0.091943502 0.75638551
0.036029313 -0.092074916 0.75746661
0.038753536 -0.092206687 0.75855064
0.041485559 -0.092338823 0.75963771
0.044225432 -0.092471354 0.760728
0.046973173 -0.09260425 0.76182127
0.049728822 -0.092737533 0.76291776
0.052492425 -0.092871211 0.76401746
0.055264004 -0.09300527 0.76512033
0.058043595 -0.093139723 0.76622641
0.06083123 -0.093274549 0.76733559
0.063626952 -0.093409777 0.76844805
0.066430755 -0.093545355 0.76956338
0.069242626 -0.093681201 0.77068096
0.072062768 -0.093817569 0.77180278
0.074891135 -0.09395434 0.77292794
0.077727765 -0.094091505 0.77405638
0.080572687 -0.094229072 0.77518809
0.083425932 -0.094367042 0.77632308
0.086287551 -0.094505407 0.77746141
0.089157611 -0.094644234 0.77860343
0.092036076 -0.094783418 0.7797485
0.094922982 -0.094922982 0.7808966
0.097818397 -0.095062949 0.78204811
0.10072238 -0.095203348 0.78320307
0.10363494 -0.095344141 0.78436136
0.10655614 -0.095485367 0.78552318
0.10948599 -0.09562701 0.78668839
0.1124246 -0.0957691 0.78785735
0.11537179 -0.095911488 0.7890287
0.11832795 -0.096054457 0.79020482
0.12129293 -0.096197844 0.79138446
0.12426677 -0.096341655 0.79256755
0.010159375 -0.097239733 0.82383496
0.012884374 -0.095917001 0.81262851
0.015536234 -0.094629787 0.80172294
0.018117856 -0.093376644 0.7911061
0.020631999 -0.092156261 0.78076673
0.023081273 -0.090967365 0.7706942
0.025585484 -0.0902225 0.76438349
0.028078582 -0.089584053 0.75897443
0.030643744 -0.089266561 0.75628459
0.033356015 -0.089394122 0.75736535
0.036076039 -0.089522026 0.75844896
0.038803864 -0.089650311 0.75953579
0.04153952 -0.08977896 0.76062578
0.044283032 -0.089907974 0.76171881
0.047034442 -0.090037361 0.762815
0.049793787 -0.090167128 0.76391441
0.052561097 -0.090297267 0.76501697
0.055336405 -0.090427779 0.7661227
0.058119748 -0.090558678 0.7672317
0.060911153 -0.090689935 0.76834375
0.063710541 -0.090821415 0.76945764
0.066518202 -0.090953462 0.77057636
0.069333993 -0.091085836 0.77169788
0.072158001 -0.091218606 0.77282274
0.07499025 -0.091351755 0.77395082
0.077830777 -0.091485299 0.77508223
0.080679625 -0.091619231 0.77621692
0.083536826 -0.091753565 0.77735502
0.086402416 -0.091888286 0.77849638
0.089276291 -0.092023253 0.7796399
0.092158936 -0.092158936 0.78078938
0.095049888 -0.09229482 0.78194064
0.097949378 -0.092431098 0.78309524
0.10085744 -0.092567787 0.78425324
0.10377412 -0.09270487 0.7854147
0.10669944 -0.092842363 0.78657955
0.10963346 -0.092980281 0.78774798
0.11257621 -0.093118593 0.78891981
0.11552764 -0.093257256 0.79009461
0.11848804 -0.093396455 0.79127389
0.12145728 -0.093536064 0.79245675
0.010253745 -0.095213346 0.83148754
0.013002413 -0.093906313 0.82007337
0.015676638 -0.092634678 0.80896831
0.018279405 -0.091397025 0.79816002
0.02081354 -0.090192005 0.7876367
0.023281721 -0.089018345 0.77738726
0.025686491 -0.087874837 0.76740116
0.028044267 -0.086803682 0.75804687
0.03068343 -0.086714037 0.75726402
0.033399269 -0.086838104 0.75834745
0.036122892 -0.086962521 0.75943398
0.038854331 -0.087087296 0.76052362
0.041593619 -0.087212428 0.76161641
0.044340789 -0.087337919 0.7627123
0.04709588 -0.087463781 0.76381141
0.049858917 -0.087589987 0.76491356
0.052629944 -0.087716572 0.76601905
0.055408992 -0.087843522 0.76712769
0.058196098 -0.087970845 0.76823956
0.060991291 -0.088098533 0.76935464
0.063794605 -0.088226579 0.77047288
0.066605963 -0.088354848 0.77159303
0.069425598 -0.088483609 0.77271748
0.072253488 -0.088612765 0.77384537
0.075089626 -0.088742279 0.77497643
0.077934064 -0.088872172 0.77611077
0.080786854 -0.08900246 0.77724856
0.083648004 -0.089133121 0.77838957
0.08651758 -0.089264169 0.77953404
0.089395665 -0.089395665 0.78068233
0.092282131 -0.089527436 0.78183311
0.095177129 -0.089659616 0.78298742
0.098080687 -0.089792177 0.78414506
0.10099286 -0.089925148 0.78530627
0.10391365 -0.090058498 0.78647077
0.10684313 -0.090192251 0.78763884
0.10978132 -0.090326399 0.78881037
0.11272827 -0.090460956 0.78998542
0.11568394 -0.090595849 0.79116344
0.11864857 -0.090731256 0.79234594
0.12162208 -0.090867065 0.79353195
0.013122635 -0.091858439 0.82765585
0.015819605 -0.090603195 0.81634593
0.018443862 -0.089381792 0.80534095
0.020998305 -0.08819288 0.79462868
0.023485683 -0.087035179 0.78419763
0.025908606 -0.085907489 0.774037
0.028269505 -0.084808514 0.76413512
0.030723216 -0.084154896 0.75824594
0.033442639 -0.084275454 0.75933218
0.036169864 -0.084396355 0.76042151
0.038904928 -0.084517598 0.76151395
0.041647859 -0.084639192 0.76260954
0.044398695 -0.08476115 0.76370835
0.047157474 -0.084883451 0.76481032
0.049924221 -0.085006103 0.76591545
0.052698974 -0.085129112 0.76702374
0.055481777 -0.085252486 0.76813537
0.058272652 -0.085376211 0.76925015
0.06107153 -0.085500143 0.77036679
0.06387867 -0.085624598 0.77148813
0.066693954 -0.085749365 0.77261233
0.069517456 -0.085874505 0.77373987
0.072349213 -0.08600001 0.77487063
0.075189255 -0.08612588 0.77600473
0.078037627 -0.086252108 0.77714211
0.080894358 -0.086378723 0.77828288
0.083759487 -0.086505704 0.77942699
0.086633049 -0.086633049 0.78057444
0.089515142 -0.086760826 0.7817257
0.092405654 -0.086888902 0.78287965
0.09530472 -0.087017357 0.78403705
0.098212361 -0.087146178 0.78519779
0.10112864 -0.087275401 0.78636205
0.10405357 -0.087404996 0.78752977
0.1069872 -0.087534979 0.78870094
0.10992958 -0.087665357 0.78987563
0.11288073 -0.087796122 0.79105383
0.11584064 -0.087927237 0.7922352
0.11880953 -0.088058829 0.79342085
0.12178732 -0.088190816 0.79461008
0.0132451 -0.089772344 0.83537984
0.015965203 -0.088534303 0.82385921
0.018611303 -0.087329961 0.81265217
0.021186382 -0.086157948 0.80174595
0.023693252 -0.085016958 0.79112846
0.026134569 -0.083905719 0.78078777
0.028512826 -0.082822971 0.7707122
0.030830488 -0.081767812 0.7608934
0.033486117 -0.081706129 0.76031935
0.036216956 -0.081823498 0.76141155
0.038955655 -0.08194121 0.7625069
0.041702241 -0.082059249 0.76360536
0.044456754 -0.082177639 0.76470703
0.047219228 -0.082296364 0.76581186
0.049989693 -0.082415439 0.76691991
0.052768186 -0.082534857 0.76803112
0.055554744 -0.082654618 0.76914561
0.058349401 -0.082774736 0.77026331
0.061152209 -0.082895219 0.77138448
0.063963048 -0.083015874 0.77250725
0.066782176 -0.083136998 0.77363437
0.069609545 -0.08325848 0.77476484
0.072445199 -0.083380319 0.77589864
0.075289153 -0.083502516 0.77703571
0.078141458 -0.083625071 0.77817619
0.081002153 -0.08374799 0.77932
0.083871275 -0.083871275 0.78046721
0.086748838 -0.08399491 0.7816177
0.089634933 -0.08411894 0.78277189
0.092529513 -0.084243283 0.78392899
0.095432647 -0.08436799 0.78508943
0.098344386 -0.084493063 0.78625333
0.10126479 -0.084618524 0.78742075
0.10419386 -0.084744342 0.78859156
0.10713167 -0.08487054 0.78976595
0.11007824 -0.084997118 0.7909438
0.11303362 -0.085124083 0.79212528
0.11599778 -0.085251376 0.79330981
0.11897093 -0.085379139 0.79449868
0.121953 -0.085507281 0.79569113
0.016113507 -0.086426988 0.83151221
0.018781815 -0.085240543 0.82009745
0.021377852 -0.084086217 0.80899173
0.023904506 -0.082962699 0.79818237
0.026364459 -0.081868581 0.78765589
0.028760374 -0.080802955 0.77740347
0.031094715 -0.079764701 0.76741451
0.033529714 -0.079130121 0.76130921
0.036264177 -0.079243943 0.76240426
0.039006516 -0.079358086 0.76350242
0.041756764 -0.079472557 0.76460373
0.044514962 -0.079587355 0.76570827
0.047281142 -0.079702497 0.76681602
0.050055332 -0.079817966 0.76792693
0.052837584 -0.079933777 0.76904118
0.055627912 -0.080049925 0.77015859
0.058426347 -0.080166385 0.77127904
0.061232883 -0.080283113 0.77240211
0.064047642 -0.080400236 0.77352893
0.066870637 -0.080517709 0.77465916
0.069701888 -0.080635518 0.7757926
0.072541438 -0.080753677 0.77692938
0.075389326 -0.080872186 0.77806956
0.078245573 -0.080991037 0.77921301
0.081110239 -0.081110239 0.78035986
0.083983339 -0.081229791 0.78151006
0.086865008 -0.081349768 0.78266436
0.089755058 -0.081469975 0.78382093
0.092653692 -0.081590563 0.78498107
0.095560923 -0.081711516 0.78614473
0.098476775 -0.081832811 0.78731173
0.1014013 -0.081954472 0.78848225
0.10433454 -0.082076505 0.78965628
0.10727652 -0.082198888 0.79083377
0.1102273 -0.082321659 0.7920149
0.1131869 -0.08244478 0.79319948
0.11615533 -0.082568251 0.79438734
0.11913276 -0.082692154 0.79557943
0.016264591 -0.084280148 0.83930868
0.018955478 -0.083112478 0.82768035
0.021572819 -0.081976712 0.81636977
0.024119508 -0.080871291 0.80536133
0.026598431 -0.079795294 0.79464597
0.029012257 -0.078747556 0.78421199
0.031363513 -0.077726968 0.77404845
0.033654604 -0.076732501 0.76414496
0.036311515 -0.076657645 0.76339948
0.039057508 -0.076768205 0.76450056
0.041811436 -0.076879092 0.76560479
0.044573326 -0.076990291 0.76671219
0.047343224 -0.077101819 0.76782286
0.050121155 -0.077213675 0.76893675
0.052907161 -0.077325851 0.77005386
0.055701271 -0.077438354 0.77117425
0.058503527 -0.077551186 0.77229792
0.06131386 -0.077664219 0.77342355
0.064132474 -0.077777676 0.77455342
0.066959329 -0.077891462 0.77568656
0.069794476 -0.07800559 0.7768231
0.072637931 -0.078120038 0.77796286
0.075489759 -0.078234836 0.77910608
0.078349963 -0.078349963 0.78025258
0.081218608 -0.078465432 0.78140247
0.084095724 -0.078581251 0.78255588
0.086981356 -0.078697413 0.78371269
0.089875504 -0.07881391 0.78487277
0.092778213 -0.078930721 0.78603607
0.095689535 -0.079047874 0.78720278
0.098609507 -0.079165377 0.78837293
0.10153819 -0.079283245 0.78954667
0.1044756 -0.079401448 0.79072386
0.10742177 -0.079520009 0.79190457
0.11037676 -0.079638928 0.79308879
0.11334062 -0.079758212 0.79427671
0.11631333 -0.079877831 0.79546791
0.11929505 -0.07999786 0.79666322
0.019132381 -0.080944695 0.83540475
0.02177131 -0.079828136 0.82388115
0.024338411 -0.078741923 0.81267065
0.026836593 -0.077684872 0.80176121
0.029268589 -0.076655827 0.79114074
0.031636998 -0.075653695 0.78079802
0.033944283 -0.074677423 0.77072221
0.036358979 -0.07406459 0.76439738
0.039108638 -0.074171551 0.76550132
0.041866247 -0.074278824 0.76660842
0.044631843 -0.074386403 0.76771873
0.047405463 -0.074494295 0.76883227
0.050187144 -0.074602515 0.76994914
0.052976917 -0.07471104 0.77106917
0.055774819 -0.074819878 0.77219248
0.05858082 -0.074928954 0.77331823
0.061395053 -0.075038396 0.77444774
0.064217523 -0.075148165 0.77558064
0.067048259 -0.075258248 0.77671677
0.069887303 -0.075368658 0.77785629
0.072734691 -0.075479396 0.77899915
0.075590454 -0.075590454 0.78014535
0.078454643 -0.075701848 0.781295
0.081327274 -0.075813562 0.78244799
0.084208407 -0.075925618 0.78360444
0.087098077 -0.076038003 0.78476435
0.089996278 -0.076150693 0.78592741
0.092903063 -0.076263711 0.78709382
0.095818505 -0.076377064 0.78826374
0.098742612 -0.076490752 0.78943706
0.10167544 -0.076604776 0.79061389
0.10461704 -0.076719157 0.79179436
0.10756741 -0.076833867 0.79297823
0.11052664 -0.076948926 0.79416573
0.11349475 -0.077064335 0.79535681
0.11647176 -0.07718008 0.79655141
0.11945777 -0.077296205 0.79774988
0.019312572 -0.078735866 0.84327263
0.021973489 -0.077639662 0.83153212
0.024561329 -0.076573558 0.82011396
0.027079059 -0.075536318 0.80900502
0.029529493 -0.074526817 0.7981931
0.031915296 -0.073543943 0.78766638
0.034238987 -0.072586656 0.77741367
0.036502961 -0.071653962 0.7674244
0.039159894 -0.071568087 0.76650465
0.041921198 -0.071671724 0.76761466
0.044690516 -0.071775675 0.76872796
0.047467869 -0.071879916 0.76984441
0.050253309 -0.07198447 0.77096421
0.053046864 -0.072089329 0.77208722
0.055848561 -0.072194479 0.77321345
0.05865838 -0.072299868 0.77434212
0.061476462 -0.072405614 0.77547467
0.064302795 -0.072511666 0.77661049
0.067137428 -0.07261803 0.77774972
0.069980383 -0.072724715 0.77889228
0.072831698 -0.072831698 0.78003812
0.075691432 -0.072939016 0.78118747
0.078559585 -0.073046632 0.78234011
0.081436232 -0.073154584 0.78349626
0.08432138 -0.073262841 0.78465569
0.087215111 -0.07337144 0.78581887
0.090117373 -0.073480316 0.78698492
0.093028262 -0.073589519 0.78815448
0.09594781 -0.073699042 0.7893275
0.098876067 -0.073808894 0.79050404
0.10181307 -0.07391908 0.79168415
0.10475884 -0.074029587 0.79286766
0.10771346 -0.074140437 0.79405487
0.11067692 -0.074251607 0.79524553
0.1136493 -0.07436312 0.79643989
0.1166306 -0.074474961 0.7976377
0.024788363 -0.074365087 0.82769471
0.027325947 -0.073348597 0.81638098
0.029795092 -0.07235951 0.8053723
0.03219853 -0.071396746 0.79465657
0.034538858 -0.070459269 0.78422236
0.036818519 -0.069546089 0.77405852
0.039211292 -0.068957791 0.76751065
0.041976299 -0.069057785 0.76862359
0.044749338 -0.06915807 0.76973981
0.047530446 -0.069258653 0.7708593
0.050319649 -0.069359519 0.77198195
0.053116988 -0.069460675 0.77310789
0.05592246 -0.069562085 0.77423656
0.058736153 -0.069663808 0.77536875
0.061558083 -0.069765829 0.77650422
0.064388305 -0.069868155 0.7776432
0.067226827 -0.069970779 0.77878541
0.070073709 -0.070073709 0.77993101
0.072928973 -0.070176937 0.78107995
0.07579267 -0.070280477 0.78223234
0.078664817 -0.070384316 0.78338808
0.081545472 -0.07048846 0.78454727
0.084434673 -0.070592918 0.78570992
0.087332442 -0.070697688 0.78687602
0.090238795 -0.070802741 0.78804529
0.09315379 -0.070908107 0.78921801
0.096077479 -0.071013786 0.79039425
0.099009886 -0.071119778 0.79157394
0.10195106 -0.07122609 0.79275715
0.10490106 -0.071332723 0.793944
0.10785989 -0.071439661 0.79513431
0.11082762 -0.071546942 0.79632831
0.11380427 -0.071654536 0.79752588
0.11678987 -0.07176245 0.79872698
0.030065512 -0.070152856 0.81268185
0.032486841 -0.069211096 0.80177206
0.034844022 -0.068294287 0.79115129
0.037139572 -0.067401446 0.78080827
0.039375875 -0.066531651 0.77073216
0.042031541 -0.066436954 0.76963514
0.044808317 -0.066533558 0.77075428
0.047593184 -0.066630453 0.77187675
0.050386164 -0.066727623 0.77300239
0.053187296 -0.066825062 0.77413118
0.055996586 -0.066922754 0.77526283
0.058814131 -0.067020752 0.77639812
0.061639927 -0.067119032 0.77753663
0.064474024 -0.067217603 0.77867854
0.067316473 -0.067316473 0.77982384
0.070167281 -0.067415625 0.78097248
0.073026508 -0.067515075 0.78212458
0.075894177 -0.067614816 0.78328001
0.078770339 -0.067714855 0.78443891
0.081655011 -0.067815177 0.78560114
0.084548257 -0.067915812 0.78676689
0.087450095 -0.068016738 0.78793609
0.090360537 -0.068117939 0.78910846
0.09327966 -0.068219453 0.7902844
0.096207492 -0.068321258 0.79146379
0.099144064 -0.068423368 0.79264665
0.10208945 -0.068525791 0.7938332
0.10504365 -0.06862852 0.7950232
0.10800672 -0.068731554 0.79621679
0.11097871 -0.068834893 0.79741395
0.11395965 -0.068938553 0.7986148
0.03278036 -0.06698595 0.80901605
0.035154633 -0.06609071 0.79820383
0.03746628 -0.065219082 0.78767687
0.039717745 -0.064370133 0.7774238
0.042086933 -0.063809223 0.77064943
0.044867456 -0.063902132 0.77177155
0.047656085 -0.063995317 0.77289695
0.050452858 -0.064088762 0.77402556
0.053257775 -0.064182445 0.77515697
0.056070916 -0.06427642 0.77629191
0.058892306 -0.064370662 0.77743012
0.061721988 -0.064465187 0.77857178
0.064559989 -0.064559989 0.77971673
0.067406349 -0.064655073 0.78086507
0.070261113 -0.064750433 0.78201681
0.073124297 -0.064846076 0.78317189
0.075995967 -0.064942002 0.78433049
0.07887613 -0.065038212 0.78549242
0.081764847 -0.065134712 0.78665787
0.084662147 -0.065231487 0.78782672
0.087568067 -0.065328553 0.78899902
0.090482622 -0.065425895 0.7901746
0.093405865 -0.06552352 0.79135364
0.096337855 -0.065621436 0.79253626
0.099278614 -0.065719649 0.79372239
0.10222819 -0.065818153 0.79491204
0.10518663 -0.065916955 0.79610538
0.10815396 -0.066016056 0.79730219
0.037798781 -0.062997974 0.79466724
0.040065605 -0.062170766 0.78423274
0.042273667 -0.061365001 0.77406865
0.044926744 -0.061263744 0.77279139
0.047719151 -0.061353195 0.77391976
0.050519705 -0.061442886 0.77505112
0.053328454 -0.061532833 0.77618575
0.056145441 -0.061623044 0.77732366
0.058970705 -0.061713528 0.77846503
0.061804265 -0.061804265 0.77960962
0.064646177 -0.061895277 0.78075767
0.067496471 -0.061986554 0.78190905
0.070355192 -0.062078111 0.78306395
0.073222354 -0.062169924 0.78422213
0.076098025 -0.062262021 0.78538382
0.078982212 -0.062354378 0.78654885
