# .PCD v0.7 - Point Cloud Data file format
VERSION 0.7
FIELDS x y z
SIZE 4 4 4
TYPE F F F
COUNT 1 1 1
WIDTH 1391
HEIGHT 1
VIEWPOINT 0 0 0 1 0 0 0
POINTS 1391
DATA ascii
0.38763186 -0.042217333 0.72618639
0.3895002 -0.042142645 0.72490168
0.3913618 -0.042068206 0.72362125
0.39727685 -0.042427626 0.72980368
0.40353215 -0.042818524 0.73652756
0.40990376 -0.04321669 0.74337649
0.41641378 -0.043624301 0.75038785
0.32311431 -0.041910224 0.76741368
0.32520911 -0.041831877 0.76597911
0.32729611 -0.041753825 0.76454991
0.32937533 -0.041676063 0.76312602
0.33144686 -0.041598596 0.76170748
0.3335107 -0.041521411 0.7602942
0.33556685 -0.04144451 0.7588861
0.33761543 -0.0413679 0.75748324
0.33965641 -0.041291565 0.75608552
0.34168991 -0.041215517 0.75469297
0.34371594 -0.041139744 0.75330555
0.34573454 -0.041064255 0.75192326
0.34774572 -0.040989038 0.75054598
0.34974957 -0.0409141 0.74917376
0.35174608 -0.040839434 0.74780655
0.3537353 -0.040765036 0.74644428
0.3557173 -0.04069091 0.74508697
0.35769215 -0.040617056 0.74373466
0.35965982 -0.040543471 0.74238724
0.36162034 -0.040470146 0.74104458
0.36357382 -0.040397089 0.73970687
0.36552024 -0.040324297 0.73837394
0.36745965 -0.040251765 0.73704582
0.36939216 -0.040179498 0.73572254
0.37131765 -0.040107485 0.73440391
0.3732363 -0.040035728 0.73308998
0.37514806 -0.039964229 0.73178077
0.37705305 -0.039892986 0.73047626
0.37895116 -0.039821986 0.72917622
0.38084254 -0.039751239 0.72788078
0.38272721 -0.039680745 0.72658998
0.38460514 -0.039610498 0.72530365
0.38647646 -0.039540496 0.72402185
0.38834119 -0.039470743 0.72274464
0.39202142 -0.039585225 0.72484088
0.39818567 -0.039947432 0.73147321
0.40446377 -0.040316325 0.73822796
0.41085893 -0.040692098 0.74510872
0.41737443 -0.041074947 0.752119
0.31999916 -0.039156016 0.76642871
0.32209712 -0.039082915 0.76499784
0.32418728 -0.039010089 0.76357234
0.32626963 -0.038937528 0.76215208
0.32834426 -0.038865238 0.76073712
0.3304112 -0.038793217 0.75932741
0.33247051 -0.038721465 0.75792289
0.33452219 -0.038649973 0.75652355
0.33656633 -0.038578749 0.75512946
0.33860293 -0.038507786 0.75374043
0.34063208 -0.038437083 0.75235653
0.34265375 -0.038366638 0.75097764
0.34466806 -0.03829645 0.74960381
0.34667501 -0.038226523 0.74823505
0.34867465 -0.038156848 0.74687129
0.350667 -0.038087428 0.74551243
0.3526521 -0.038018256 0.74415851
0.35463002 -0.037949339 0.74280953
0.35660076 -0.037880667 0.74146539
0.35856441 -0.037812248 0.74012613
0.36052099 -0.037744075 0.73879176
0.36247048 -0.037676144 0.7374621
0.36441299 -0.03760846 0.73613727
0.36634851 -0.037541013 0.73481709
0.36827704 -0.037473805 0.73350155
0.37019864 -0.037406832 0.73219067
0.37211344 -0.037340105 0.73088455
0.37402141 -0.037273612 0.72958302
0.37592253 -0.03720735 0.72828609
0.37781698 -0.037141331 0.7269938
0.37970468 -0.037075542 0.7257061
0.38158572 -0.037009988 0.72442293
0.38346007 -0.036944658 0.72314423
0.38532788 -0.036879566 0.72187012
0.38718915 -0.036814705 0.72060055
0.39291212 -0.037115477 0.72648776
0.39909866 -0.037455861 0.73315036
0.40539977 -0.037802551 0.73993635
0.41181859 -0.038155716 0.74684912
0.41835833 -0.038515531 0.753892
0.31899309 -0.036340985 0.76401907
0.32108635 -0.036273353 0.7625972
0.32317182 -0.03620597 0.76118058
0.32524955 -0.03613884 0.7597692
0.32731959 -0.036071956 0.75836307
0.329382 -0.036005322 0.75696218
0.33143681 -0.03593893 0.75556642
0.33348402 -0.035872784 0.75417578
0.33552372 -0.035806879 0.75279021
0.33755594 -0.035741217 0.75140977
0.33958074 -0.035675801 0.75003445
0.34159815 -0.035610616 0.74866408
0.34360817 -0.035545673 0.74729872
0.34561086 -0.035480965 0.7459383
0.3476063 -0.035416491 0.74458283
0.3495945 -0.035352252 0.74323231
0.35157552 -0.035288248 0.74188673
0.35354933 -0.035224471 0.74054593
0.35551596 -0.035160918 0.73920977
0.35747549 -0.035097592 0.73787844
0.35942796 -0.035034493 0.73655188
0.36137345 -0.034971625 0.73523015
0.36331198 -0.03490898 0.73391312
0.36524355 -0.034846559 0.73260081
0.36716825 -0.034784358 0.73129314
0.36908609 -0.034722384 0.72999024
0.3709971 -0.03466063 0.72869188
0.37290129 -0.034599088 0.7273981
0.37479877 -0.03453777 0.72610897
0.37668952 -0.034476668 0.72482437
0.3785736 -0.034415781 0.7235443
0.38045102 -0.034355108 0.72226876
0.38232186 -0.034294654 0.72099775
0.38418612 -0.034234408 0.71973115
0.38771287 -0.034322124 0.72157526
0.39380684 -0.034634478 0.72814208
0.40001586 -0.034952842 0.73483527
0.40634006 -0.035277113 0.74165261
0.41278276 -0.035607457 0.74859768
0.41934669 -0.035944004 0.75567305
0.31589699 -0.033606064 0.76304281
0.31799331 -0.033543598 0.76162452
0.32008192 -0.033481371 0.76021159
0.32216272 -0.033419367 0.75880378
0.32423583 -0.033357598 0.75740123
0.32630134 -0.033296052 0.75600386
0.32835916 -0.033234734 0.75461155
0.33040947 -0.033173643 0.75322443
0.3324523 -0.033112779 0.7518425
0.33448759 -0.033052132 0.75046551
0.33651543 -0.032991707 0.74909353
0.33853588 -0.032931507 0.74772662
0.34054896 -0.032871522 0.74636465
0.34255469 -0.03281175 0.74500751
0.34455311 -0.032752197 0.74365532
0.34654424 -0.032692853 0.7423079
0.34852821 -0.032633729 0.74096543
0.35050502 -0.032574814 0.73962778
0.35247469 -0.032516114 0.73829496
0.35443726 -0.032457624 0.73696691
0.35639283 -0.032399349 0.73564368
0.35834134 -0.032341275 0.73432517
0.36028293 -0.032283418 0.73301142
0.36221752 -0.032225758 0.73170227
0.36414525 -0.032168306 0.73039782
0.36606613 -0.032111064 0.72909808
0.36798015 -0.032054022 0.72780287
0.36988741 -0.031997181 0.72651231
0.37178791 -0.031940542 0.72522628
0.37368169 -0.031884104 0.72394484
0.37556881 -0.031827863 0.72266787
0.37744924 -0.031771824 0.72139543
0.37932307 -0.031715978 0.7201274
0.38119036 -0.03166033 0.7188639
0.3830511 -0.031604875 0.71760482
0.38858926 -0.031851579 0.72320634
0.39470568 -0.032142155 0.72980404
0.40093726 -0.032438289 0.73652792
0.40728477 -0.032739934 0.74337685
0.41375139 -0.033047237 0.75035435
0.42033973 -0.033360295 0.7574625
0.31490824 -0.030820806 0.76065445
0.31699982 -0.030763695 0.75924498
0.31908372 -0.030706801 0.75784081
0.32115987 -0.030650113 0.75644177
0.32322845 -0.030593637 0.75504798
0.32528937 -0.030537369 0.75365925
0.32734272 -0.030481307 0.75227565
0.3293885 -0.030425444 0.75089699
0.33142674 -0.030369781 0.74952322
0.33345762 -0.030314328 0.74815464
0.33548099 -0.030259071 0.74679089
0.33749706 -0.030204015 0.74543214
0.33950576 -0.030149162 0.74407834
0.34150723 -0.030094508 0.74272949
0.34350142 -0.03004005 0.74138546
0.3454884 -0.029985787 0.74004626
0.34746826 -0.029931722 0.73871195
0.34944096 -0.029877853 0.73738247
0.35140657 -0.029824175 0.7360577
0.35336515 -0.029770689 0.73473769
0.35531673 -0.029717399 0.73342246
0.3572613 -0.029664295 0.73211187
0.3591989 -0.029611379 0.73080593
0.36112967 -0.029558655 0.7295047
0.36305356 -0.029506119 0.72820812
0.36497059 -0.029453767 0.72691607
0.36688083 -0.0294016 0.72562861
0.36878437 -0.02934962 0.72434574
0.37068117 -0.029297823 0.7230674
0.37257126 -0.029246207 0.72179353
0.37445471 -0.029194774 0.72052413
0.37633154 -0.02914352 0.7192592
0.37820184 -0.02909245 0.7179988
0.38006556 -0.029041555 0.71674269
0.38344294 -0.029106231 0.71833891
0.38946968 -0.029369844 0.72484487
0.3956086 -0.029638428 0.73147351
0.40186295 -0.029912127 0.73822838
0.40823382 -0.030190926 0.74510908
0.41472465 -0.030474974 0.75211936
0.42133749 -0.030764323 0.75926048
0.31183094 -0.028104933 0.75968671
0.31392559 -0.028052926 0.75828093
0.3160125 -0.028001109 0.75688028
0.31809166 -0.027949477 0.75548464
0.32016313 -0.02789803 0.75409406
0.32222703 -0.02784678 0.75270873
0.3242833 -0.027795712 0.75132835
0.32633206 -0.027744832 0.74995303
0.32837337 -0.02769414 0.74858278
0.3304072 -0.02764363 0.74721754
0.33243364 -0.027593307 0.74585724
0.33445272 -0.027543165 0.74450189
0.33646443 -0.027493203 0.74315143
0.33846894 -0.027443428 0.74180597
0.34046614 -0.027393827 0.74046522
0.34245616 -0.027344408 0.73912942
0.34443897 -0.027295163 0.73779833
0.34641474 -0.027246103 0.73647219
0.34838334 -0.027197214 0.73515069
0.3503449 -0.027148498 0.73383391
0.35229948 -0.02709996 0.73252189
0.35424706 -0.027051592 0.73121452
0.3561877 -0.0270034 0.72991186
0.35812142 -0.026955375 0.72861373
0.36004832 -0.026907528 0.72732037
0.36196837 -0.026859844 0.72603148
0.36388159 -0.026812328 0.72474712
0.36578807 -0.026764981 0.72346729
0.36768788 -0.026717804 0.72219211
0.36958098 -0.026670791 0.72092134
0.37146738 -0.026623942 0.71965498
0.37334719 -0.026577258 0.71839309
0.37522045 -0.026530739 0.71713567
0.37708715 -0.026484381 0.7158826
0.37894735 -0.026438188 0.71463394
0.3843058 -0.026635056 0.71995538
0.39035413 -0.026876841 0.72649091
0.3965157 -0.027123224 0.73315072
0.4027929 -0.027374273 0.73993671
0.40918735 -0.027630014 0.74684948
0.41570127 -0.027890502 0.75389051
0.42233995 -0.028155997 0.76106697
0.31124353 -0.025380375 0.75825572
0.31317556 -0.025320577 0.75646919
0.31509843 -0.025261058 0.754691
0.31710532 -0.025209211 0.75314206
0.31917226 -0.025162958 0.75176024
0.32123154 -0.02511687 0.75038332
0.32328331 -0.02507095 0.74901146
0.32532761 -0.025025202 0.74764466
0.32736444 -0.024979617 0.74628282
0.32939389 -0.024934199 0.74492592
0.33141598 -0.024888946 0.74357396
0.33343071 -0.024843857 0.7422269
0.33543819 -0.024798932 0.74088472
0.3374384 -0.024754168 0.73954737
0.33943138 -0.024709564 0.73821479
0.34141719 -0.024665121 0.73688704
0.34339592 -0.02462084 0.73556411
0.34536755 -0.024576716 0.7342459
0.34733212 -0.02453275 0.73293239
0.34928966 -0.024488943 0.73162359
0.35124022 -0.02444529 0.73031944
0.35318384 -0.024401791 0.72901988
0.35512054 -0.024358448 0.72772497
0.35705039 -0.02431526 0.72643471
0.35897341 -0.024272224 0.72514898
0.36088961 -0.024229338 0.72386771
0.36279908 -0.024186606 0.72259104
0.36470187 -0.024144026 0.72131896
0.36659786 -0.024101591 0.72005117
0.36848727 -0.024059307 0.71878791
0.37037003 -0.02401717 0.71752906
0.37224627 -0.023975184 0.71627468
0.37411594 -0.023933342 0.71502465
0.37597904 -0.023891645 0.71377891
0.37921116 -0.023936918 0.71513146
0.38517261 -0.024152739 0.72157925
0.39124253 -0.024372486 0.72814435
0.39742696 -0.024596456 0.73483562
0.40372714 -0.024824647 0.74165297
0.41014534 -0.025057111 0.74859798
0.41668445 -0.025293944 0.75567353
0.42334723 -0.02553523 0.76288211
0.31127533 -0.022711076 0.75833315
0.31320739 -0.022657555 0.75654608
0.31513041 -0.022604292 0.7547676
0.31704441 -0.022551278 0.7529974
0.31894949 -0.022498511 0.75123554
0.32084566 -0.022445993 0.74948192
0.32273301 -0.02239372 0.74773651
0.32461154 -0.022341685 0.74599904
0.32648143 -0.022289896 0.74426979
0.32838678 -0.022241337 0.74264836
0.33040449 -0.022201093 0.74130458
0.33241493 -0.022160996 0.73996574
0.33441815 -0.022121044 0.73863173
0.3364141 -0.022081235 0.73730248
0.3384029 -0.022041569 0.73597801
0.3403846 -0.022002047 0.73465836
0.34235919 -0.021962665 0.73334336
0.34432667 -0.021923421 0.73203301
0.34628722 -0.021884322 0.73072749
0.34824073 -0.021845359 0.7294265
0.3501873 -0.021806536 0.72813016
0.35212696 -0.021767847 0.72683835
0.35405979 -0.021729302 0.72555125
0.35598573 -0.021690888 0.72426862
0.35790491 -0.021652611 0.72299051
0.35981733 -0.021614468 0.72171694
0.36172301 -0.02157646 0.72044784
0.36362198 -0.021538585 0.71918315
0.36551434 -0.021500843 0.71792293
0.36740005 -0.021463232 0.71666712
0.36927924 -0.021425758 0.71541578
0.37115178 -0.021388408 0.71416867
0.37301782 -0.021351188 0.71292591
0.37487745 -0.021314101 0.71168756
0.38006076 -0.021465225 0.71673363
0.38604331 -0.021659195 0.72321039
0.39213523 -0.021856718 0.72980577
0.39834237 -0.022058047 0.73652822
0.40466577 -0.022263166 0.74337721
0.41110781 -0.022472132 0.75035471
0.41767117 -0.022685016 0.75746298
0.42435932 -0.02290193 0.7647059
0.43117657 -0.023123035 0.77208865
0.30936584 -0.020088689 0.76020658
0.31130713 -0.020041231 0.75841063
0.31323931 -0.019993998 0.75662321
0.31516239 -0.019946985 0.75484413
0.3170765 -0.019900199 0.75307357
0.31898171 -0.019853633 0.75131142
0.32087797 -0.019807281 0.74955738
0.32276544 -0.019761149 0.74781162
0.32464412 -0.019715229 0.7460739
0.32651407 -0.019669522 0.74434417
0.3283754 -0.019624026 0.74262255
0.33022812 -0.019578742 0.74090886
0.33207235 -0.019533666 0.7392031
0.33390802 -0.019488795 0.73750502
0.33573535 -0.019444132 0.73581487
0.33755431 -0.019399673 0.73413241
0.33936495 -0.019355416 0.73245764
0.34132862 -0.019320488 0.7311359
0.34329212 -0.019286074 0.72983354
0.34524855 -0.019251779 0.72853571
0.34719807 -0.019217605 0.72724253
0.34914067 -0.019183554 0.72595394
0.35107642 -0.019149624 0.72466993
0.35300532 -0.019115811 0.7233904
0.35492742 -0.01908212 0.7221154
0.35684276 -0.019048546 0.72084486
0.35875139 -0.019015091 0.71957886
0.36065331 -0.018981753 0.71831727
0.36254853 -0.018948529 0.71706003
0.36443722 -0.018915426 0.71580732
0.36631927 -0.018882437 0.7145589
0.36819473 -0.018849559 0.71331477
0.37006369 -0.018816799 0.712075
0.37192622 -0.018784152 0.71083957
0.37501705 -0.018813565 0.71195263
0.38091409 -0.018982429 0.7183429
0.38691795 -0.019154353 0.72484893
0.39303154 -0.019329419 0.73147386
0.39926204 -0.019507917 0.73822868
0.40560874 -0.019689744 0.7451095
0.41207483 -0.019874992 0.75211972
0.41866258 -0.020063702 0.75926095
0.42537624 -0.020256011 0.76653844
0.4322198 -0.020452041 0.77395672
0.30939749 -0.017411979 0.76028436
0.31133893 -0.017370842 0.75848812
0.31327125 -0.017329898 0.75670034
0.31519443 -0.017289147 0.7549209
0.31710863 -0.017248586 0.75314987
0.31901389 -0.017208219 0.75138724
0.3209103 -0.017168041 0.74963289
0.32279786 -0.01712805 0.74788672
0.32467666 -0.017088246 0.74614871
0.32654673 -0.017048625 0.74441868
0.32840815 -0.017009187 0.74269664
0.33026099 -0.016969932 0.74098259
0.33210531 -0.016930858 0.73927647
0.33394113 -0.016891964 0.73757815
0.33576852 -0.016853247 0.73588759
0.33758759 -0.016814709 0.73420483
0.33939835 -0.016776344 0.7325297
0.34120089 -0.016738156 0.73086226
0.3429952 -0.016700141 0.72920233
0.3447814 -0.016662298 0.72754991
0.34655949 -0.016624626 0.725905
0.3483296 -0.016587123 0.72426748
0.35009173 -0.01654979 0.72263736
0.35195714 -0.016517844 0.72124243
0.35387537 -0.016488817 0.71997494
0.35578689 -0.016459892 0.71871197
0.35769171 -0.016431069 0.71745342
0.35958987 -0.016402345 0.71619922
0.36148143 -0.016373724 0.71494949
0.36336637 -0.016345201 0.71370405
0.36524475 -0.016316775 0.7124629
0.3671166 -0.01628845 0.71122605
0.36898202 -0.016260223 0.7099936
0.37084091 -0.016232094 0.70876533
0.37585345 -0.016341455 0.71354049
0.3817713 -0.016488461 0.71995944
0.38779655 -0.016638136 0.72649491
0.39393273 -0.016790574 0.73315108
0.400186 -0.016945988 0.73993707
0.40655616 -0.017104303 0.74684989
0.41304654 -0.01726561 0.75389326
0.41965869 -0.017429914 0.76106745
0.42639807 -0.017597381 0.76837981
0.43326813 -0.017768094 0.7758339
0.30942917 -0.014734722 0.76036221
0.31137073 -0.014699905 0.75856555
0.31330314 -0.014665253 0.75677741
0.31522647 -0.014630764 0.75499761
0.31714076 -0.014596437 0.75322622
0.31904614 -0.014562272 0.75146317
0.32094261 -0.014528267 0.74970841
0.32283029 -0.014494422 0.74796188
0.32470921 -0.014460734 0.74622351
0.32657942 -0.014427204 0.74449319
0.32844093 -0.014393826 0.74277079
0.33029386 -0.014360603 0.74105638
0.33213827 -0.014327534 0.7393499
0.33397424 -0.014294617 0.73765129
0.33580175 -0.014261851 0.73596042
0.33762088 -0.014229233 0.73427725
0.33943176 -0.014196766 0.73260182
0.34123439 -0.014164446 0.73093402
0.34302881 -0.014132273 0.7292738
0.34481508 -0.014100245 0.72762102
0.34659332 -0.014068363 0.72597581
0.34836349 -0.014036624 0.72433794
0.3501257 -0.014005029 0.72270751
0.35188001 -0.013973575 0.72108442
0.35362646 -0.013942261 0.71946853
0.3553651 -0.013911089 0.71785992
0.35709596 -0.013880055 0.71625847
0.35881913 -0.01384916 0.71466416
0.36053464 -0.013818401 0.71307689
0.3623018 -0.013790034 0.71161306
0.36417654 -0.013766123 0.71037918
0.36604482 -0.013742297 0.70914966
0.3679066 -0.013718551 0.70792431
0.37086001 -0.013735556 0.70880181
0.37669361 -0.013858293 0.71513546
0.38263234 -0.013983241 0.72158325
0.38867918 -0.014110465 0.7281484
0.39483804 -0.014240061 0.73483598
0.40111423 -0.014372171 0.74165332
0.40750799 -0.014506756 0.7485984
0.41402218 -0.014643871 0.755674
0.42065957 -0.014783563 0.76288259
0.42742479 -0.014925946 0.77023
0.43432155 -0.015071095 0.77772021
0.30946088 -0.012056917 0.76044011
0.31140256 -0.012028425 0.75864309
0.31333509 -0.012000067 0.75685453
0.31525853 -0.011971843 0.75507444
0.31717294 -0.011943751 0.75330263
0.31907839 -0.011915791 0.75153917
0.32097495 -0.011887961 0.74978393
0.32286274 -0.011860264 0.74803704
0.32474178 -0.011832696 0.74629831
0.32661209 -0.011805256 0.74456763
0.32847375 -0.011777943 0.742845
0.33032677 -0.011750754 0.74113017
0.33217129 -0.011723693 0.73942339
0.33400732 -0.011696755 0.73772436
0.33583495 -0.011669941 0.7360332
0.33765423 -0.011643249 0.73434973
0.33946517 -0.011616679 0.73267394
0.34126788 -0.01159023 0.73100579
0.34306243 -0.011563903 0.72934526
0.34484884 -0.011537693 0.72769225
0.34662712 -0.011511602 0.72604662
0.3483974 -0.011485628 0.72440845
0.35015973 -0.011459772 0.72277772
0.35191411 -0.011434033 0.72115427
0.35366064 -0.011408408 0.71953809
0.35539934 -0.011382897 0.71792912
0.35713035 -0.011357502 0.71632743
0.35885361 -0.011332219 0.71473283
0.36056921 -0.011307049 0.71314526
0.36227718 -0.011281989 0.71156472
0.36397764 -0.01125704 0.70999122
0.36567056 -0.011232202 0.70842463
0.36735609 -0.011207473 0.70686501
0.37168348 -0.011263136 0.71037567
0.37753749 -0.011364005 0.71673757
0.3834973 -0.011466696 0.72321439
0.38956583 -0.011571262 0.72980946
0.39574754 -0.011677796 0.73652864
0.4020468 -0.011786388 0.74337763
0.40846422 -0.011897016 0.75035506
0.41500258 -0.012009721 0.75746346
0.42166522 -0.012124559 0.76470637
0.42845646 -0.012241613 0.77208906
0.43538004 -0.012360947 0.77961558
0.30949256 -0.0093785627 0.76051801
0.31143439 -0.0093563981 0.75872064
0.31336704 -0.009334337 0.75693172
0.3152906 -0.0093123801 0.75515121
0.31720513 -0.0092905266 0.75337911
0.31911072 -0.0092687756 0.75161529
0.32100737 -0.0092471251 0.74985963
0.3228952 -0.0092255771 0.74811226
0.32477435 -0.0092041316 0.74637318
0.32664475 -0.0091827847 0.74464214
0.32850653 -0.0091615366 0.74291915
0.33035967 -0.0091403862 0.74120402
0.33220428 -0.0091193337 0.73949683
0.33404043 -0.009098378 0.7377975
0.33586818 -0.0090775182 0.73610598
0.33768755 -0.0090567544 0.73442221
0.33949861 -0.0090360846 0.73274606
0.34130141 -0.0090155089 0.73107761
0.34309605 -0.0089950273 0.72941673
0.34488255 -0.0089746388 0.72776335
0.34666094 -0.0089543425 0.72611749
0.34843129 -0.0089341355 0.72447896
0.35019371 -0.0089140218 0.72284788
0.35194823 -0.0088939983 0.72122419
0.35369486 -0.0088740643 0.71960771
0.35543364 -0.0088542188 0.71799839
0.35716471 -0.0088344626 0.71639633
0.35888806 -0.0088147949 0.71480143
0.36060378 -0.0087952139 0.71321362
0.36231181 -0.0087757185 0.71163273
0.36401239 -0.0087563116 0.71005899
0.36570543 -0.0087369895 0.70849216
0.36739102 -0.008717753 0.70693225
0.37251061 -0.0087797111 0.7119565
0.37838519 -0.0088585159 0.71834683
0.38436621 -0.0089387493 0.72485304
0.3904565 -0.0090204468 0.73147804
0.39666122 -0.0091036996 0.7382291
0.40298361 -0.0091885515 0.7451098
0.40942505 -0.0092750005 0.75212008
0.41598767 -0.0093630664 0.75926143
0.4226757 -0.0094528114 0.76653892
0.42949313 -0.0095442925 0.77395719
0.30952427 -0.0066996594 0.76059592
0.31146622 -0.0066838241 0.75879818
0.31339899 -0.0066680638 0.75700891
0.31532267 -0.0066523771 0.75522804
0.31723735 -0.0066367644 0.75345558
0.31914303 -0.0066212248 0.7516914
0.3210398 -0.0066057569 0.74993539
0.32292774 -0.0065903622 0.74818766
0.3248069 -0.0065750382 0.74644798
0.32667744 -0.0065597878 0.74471664
0.32853931 -0.0065446082 0.7429933
0.3303926 -0.0065294979 0.74127787
0.3322373 -0.0065144571 0.73957032
0.33407354 -0.0064994856 0.73787063
0.33590141 -0.006484583 0.73617882
0.33772087 -0.0064697484 0.73449469
0.33953205 -0.0064549819 0.73281825
0.34133494 -0.0064402823 0.73114944
0.34312966 -0.0064256494 0.72948819
0.34491625 -0.006411083 0.72783452
0.3466948 -0.0063965828 0.72618836
0.3484652 -0.0063821469 0.72454947
0.35022771 -0.006367777 0.72291809
0.35198233 -0.0063534714 0.72129405
0.35372904 -0.0063392301 0.71967727
0.35546795 -0.0063250526 0.71806771
0.35719907 -0.0063109379 0.71646529
0.35892254 -0.0062968866 0.7148701
0.36063832 -0.0062828972 0.71328193
0.36234653 -0.0062689711 0.71170092
0.3640472 -0.0062551061 0.71012688
0.3657403 -0.006241302 0.70855969
0.36754915 -0.006229647 0.70723653
0.37334141 -0.0062852092 0.71354437
0.3792367 -0.0063417507 0.71996343
0.38523901 -0.006399319 0.72649902
0.39135101 -0.0064579374 0.73315382
0.3975791 -0.0065176901 0.73993737
0.40392488 -0.0065785814 0.74685019
0.41038927 -0.0066406033 0.75389141
0.41697744 -0.0067038173 0.76106793
0.42369103 -0.0067682276 0.76838028
0.43053484 -0.0068338867 0.77583438
0.30760467 -0.0040297555 0.76248044
0.30955598 -0.0040202076 0.76067382
0.31149805 -0.0040107043 0.75887573
0.31343094 -0.0040012463 0.7570861
0.31535473 -0.003991832 0.75530487
0.31726953 -0.0039824629 0.75353205
0.31917533 -0.0039731371 0.75176752
0.32107222 -0.0039638546 0.75001115
0.32296029 -0.0039546159 0.74826306
0.32483956 -0.00394542 0.74652308
0.32671013 -0.0039362665 0.74479115
0.32857209 -0.0039271568 0.74306744
0.33042547 -0.0039180885 0.74135166
0.33227035 -0.0039090631 0.73964387
0.33410668 -0.0039000781 0.73794383
0.33593461 -0.0038911344 0.73625159
0.33775419 -0.0038822321 0.73456717
0.33956549 -0.0038733706 0.73289043
0.3413685 -0.0038645489 0.73122126
0.34316331 -0.0038557674 0.72955972
0.34494999 -0.0038470258 0.72790569
0.34672859 -0.003838324 0.72625917
0.34849918 -0.0038296613 0.7246201
0.35026175 -0.0038210372 0.72298831
0.35201645 -0.0038124525 0.72136396
0.35376328 -0.003803906 0.71974689
0.35550228 -0.0037953979 0.71813703
0.35723352 -0.0037869278 0.71653438
0.35895708 -0.0037784956 0.71493888
0.36067292 -0.0037701004 0.71335042
0.36238125 -0.003761743 0.7117691
0.36408195 -0.0037534223 0.71019471
0.36577517 -0.0037451384 0.70862728
0.3683632 -0.0037460662 0.70880288
0.37417597 -0.0037795552 0.71513939
0.38009205 -0.0038136328 0.7215873
0.38611582 -0.0038483304 0.72815251
0.39225152 -0.0038836785 0.73484081
0.39850131 -0.0039196848 0.74165368
0.40487054 -0.0039563896 0.74859869
0.41135991 -0.0039937855 0.75567448
0.41797191 -0.0040318836 0.76288307
0.42471123 -0.0040707146 0.77023041
0.43158033 -0.0041102888 0.77771837
0.30763626 -0.0013433899 0.76255876
0.30958769 -0.0013402065 0.76075178
0.31152987 -0.0013370381 0.75895327
0.31346291 -0.0013338847 0.75716329
0.31538683 -0.0013307461 0.7553817
0.31730172 -0.0013276222 0.75360847
0.31920764 -0.001324513 0.75184357
0.32110465 -0.0013214183 0.7500869
0.3229928 -0.001318338 0.7483384
0.3248722 -0.0013152721 0.74659806
0.32674292 -0.0013122206 0.74486589
0.32860491 -0.001309183 0.74314165
0.3304584 -0.0013061597 0.74142551
0.33230335 -0.0013031504 0.73971736
0.33413979 -0.0013001548 0.73801696
0.33596784 -0.0012971731 0.73632443
0.33778754 -0.0012942052 0.7346397
0.33959892 -0.0012912507 0.73296261
0.34140205 -0.0012883096 0.73129314
0.34319696 -0.0012853818 0.72963125
0.34498373 -0.0012824674 0.72797692
0.34676242 -0.0012795662 0.72633004
0.34853309 -0.0012766781 0.72469062
0.35029578 -0.0012738028 0.72305858
0.35205057 -0.0012709406 0.72143388
0.3537975 -0.0012680914 0.71981651
0.35553658 -0.0012652548 0.71820635
0.35726798 -0.0012624309 0.71660346
0.35899159 -0.0012596197 0.71500766
0.36070758 -0.0012568209 0.71341896
0.36241597 -0.0012540345 0.71183729
0.36411676 -0.0012512604 0.7102626
0.36581007 -0.0012484986 0.70869488
0.36918089 -0.0012514606 0.71037626
0.37501422 -0.0012626741 0.7167415
0.38095126 -0.0012740844 0.72321844
0.3869966 -0.0012857029 0.72981352
0.39315262 -0.0012975334 0.73652893
0.39942774 -0.0013095991 0.74337792
0.40582067 -0.0013218914 0.75035548
0.41233402 -0.0013344144 0.75746393
0.41897118 -0.0013471742 0.76470691
0.42573637 -0.0013601801 0.77208954
0.43263283 -0.0013734376 0.77961498
0.30766788 0.0013435279 0.76263714
0.30961943 0.0013403438 0.76082975
0.31156173 0.0013371748 0.75903088
0.31349486 0.0013340206 0.75724047
0.3154189 0.0013308815 0.75545853
0.31733394 0.001327757 0.753685
0.31923994 0.0013246471 0.75191969
0.32113707 0.0013215517 0.75016266
0.32302538 0.0013184709 0.74841386
0.32490489 0.0013154044 0.74667317
0.32677564 0.001312352 0.74494052
0.32863778 0.0013093139 0.74321598
0.33049133 0.0013062898 0.74149942
0.3323364 0.00130328 0.73979092
0.33417296 0.0013002839 0.73809022
0.3360011 0.0012973016 0.73639733
0.33782089 0.0012943329 0.73471218
0.33963236 0.0012913778 0.73303479
0.34143558 0.0012884361 0.73136497
0.34323063 0.0012855079 0.72970283
0.34501746 0.0012825928 0.72804809
0.3467963 0.0012796911 0.72640097
0.34856704 0.0012768024 0.72476119
0.35032988 0.0012739268 0.72312891
0.35208473 0.001271064 0.72150391
0.35383177 0.0012682142 0.71988624
0.35557097 0.001265377 0.71827579
0.35730243 0.0012625528 0.7166726
0.35902613 0.0012597408 0.71507645
0.36074221 0.0012569416 0.71348745
0.36245069 0.0012541546 0.71190548
0.36415157 0.00125138 0.71033049
0.36584496 0.0012486175 0.70876247
0.37000221 0.0012542448 0.71195668
0.37585625 0.0012655093 0.71835083
0.38181439 0.0012769712 0.72485703
0.3878814 0.0012886425 0.73148215
0.39406031 0.0013005291 0.73822939
0.40035853 0.001312651 0.74511021
0.40677527 0.0013250009 0.75212049
0.41331276 0.0013375818 0.75926191
0.41997516 0.0013504025 0.76653939
0.42676648 0.0013634713 0.77395773
0.43369046 0.0013767951 0.78152084
0.31159359 0.0040119346 0.75910848
0.31352684 0.0040024701 0.75731772
0.315451 0.0039930507 0.75553542
0.31736612 0.003983675 0.75376147
0.31927228 0.0039743441 0.75199586
0.32116953 0.003965056 0.75023848
0.32305795 0.0039558117 0.74848932
0.32493755 0.0039466103 0.74674827
0.32680845 0.0039374512 0.74501532
0.32867068 0.0039283349 0.74329036
0.3305243 0.0039192606 0.74157339
0.33236942 0.0039102286 0.73986441
0.3342061 0.0039012386 0.73816341
0.33603436 0.0038922899 0.73647022
0.33785424 0.0038833821 0.73478472
0.3396658 0.003874515 0.73310697
0.34146914 0.0038656883 0.73143685
0.34326428 0.0038569018 0.72977436
0.34505126 0.0038481553 0.72811937
0.34683016 0.0038394483 0.7264719
0.34860107 0.003830781 0.72483194
0.35036394 0.003822152 0.72319925
0.35211894 0.0038135624 0.72157401
0.35386607 0.0038050115 0.71995604
0.35560533 0.0037964983 0.71834522
0.35733688 0.0037880235 0.71674168
0.35906067 0.0037795862 0.71514523
0.36077687 0.0037711868 0.71355599
0.36248538 0.0037628238 0.71197361
0.36418638 0.0037544987 0.71039838
0.36587986 0.0037462104 0.70883012
0.37082717 0.0037711239 0.71354407
0.3767021 0.0038050716 0.71996742
0.38268143 0.0038396129 0.72650307
0.38877031 0.0038747871 0.73315847
0.39497223 0.003910616 0.73993778
0.40129367 0.0039471509 0.74685061
0.40773469 0.0039843782 0.75389445
0.41429615 0.0040222928 0.7610684
0.420984 0.004060939 0.7683807
0.42779911 0.0041003106 0.77583039
0.32309052 0.0065936842 0.74856478
0.32497028 0.0065783453 0.74682343
0.32684124 0.0065630772 0.74509007
0.32870361 0.0065478804 0.74336481
0.33055732 0.0065327534 0.74164748
0.3324025 0.0065176962 0.73993808
0.33423924 0.0065027089 0.73823661
0.33606762 0.0064877919 0.73654312
0.33788759 0.0064729424 0.73485726
0.33969927 0.0064581614 0.73317921
0.3415027 0.006443447 0.73150873
0.34329796 0.006428801 0.729846
0.34508502 0.0064142197 0.72819066
0.34686407 0.006399706 0.72654295
0.34863505 0.0063852575 0.72490263
0.35039803 0.0063708737 0.72326964
0.35215315 0.006356555 0.7216441
0.35390031 0.0063422997 0.72002572
0.3556397 0.0063281087 0.71841466
0.35737139 0.006313982 0.71681088
0.35909525 0.0062999167 0.71521407
0.3608115 0.0062859147 0.71362448
0.3625201 0.0062719742 0.71204185
0.36422122 0.0062580961 0.71046633
0.36591473 0.0062442785 0.70889765
0.37165582 0.0062992512 0.71513855
0.3775517 0.0063560894 0.72159123
0.38355243 0.0064139203 0.72815663
0.38966328 0.006472812 0.73484248
0.39588836 0.0065328111 0.74165404
0.40223315 0.0065939859 0.74859905
0.40869626 0.006656291 0.7556724
0.41528425 0.00671981 0.76288354
0.4219977 0.006784529 0.77023095
0.4288398 0.0068504764 0.77771777
0.33243567 0.0091256844 0.74001187
0.33427247 0.009104697 0.73830998
0.33610088 0.0090838075 0.73661602
0.33792099 0.0090630148 0.73492992
0.3397328 0.009042318 0.73325157
0.34153634 0.0090217143 0.73158079
0.34333169 0.0090012057 0.72991771
0.34511888 0.0089807883 0.72826207
0.34689799 0.008960465 0.726614
0.34866908 0.0089402329 0.72497338
0.35043216 0.0089200912 0.72334003
0.35218737 0.0089000417 0.7217142
0.35393462 0.0088800797 0.72009552
0.35567412 0.008860209 0.71848416
0.35740581 0.0088404268 0.71687996
0.35912985 0.0088207331 0.71528298
0.36084616 0.0088011259 0.71369302
0.36255485 0.0087816054 0.7121101
0.36425602 0.0087621724 0.71053427
0.36667764 0.0087602166 0.71037567
0.3724885 0.0088387104 0.71674079
0.37840521 0.0089186411 0.72322249
0.38442737 0.0089999717 0.72981769
0.39056236 0.0090828454 0.73653799
0.39680874 0.009167199 0.74337828
0.40317705 0.0092532439 0.75035578
0.40966547 0.0093409065 0.75746441
0.41627708 0.009430225 0.76470739
0.42301631 0.0095212674 0.77209008
0.42988563 0.009614055 0.77961439
0.33613417 0.011680339 0.73668897
0.3379544 0.0116536 0.73500258
0.33976629 0.011626984 0.73332387
0.34156993 0.011600489 0.7316528
0.34336543 0.011574116 0.72998941
0.34515271 0.01154786 0.72833347
0.3469319 0.011521724 0.72668505
0.34870309 0.011495706 0.72504407
0.35046628 0.011469806 0.72341049
0.35222155 0.011444022 0.72178429
0.35396892 0.011418353 0.72016531
0.35570851 0.011392799 0.71855366
0.35744029 0.011367359 0.71694911
0.35916439 0.011342034 0.71535182
0.36088082 0.01131682 0.71376157
0.3625896 0.011291718 0.71217835
0.36429086 0.011266728 0.71060222
0.36749336 0.011288192 0.71195596
0.37332574 0.011389598 0.71835178
0.37926257 0.011492805 0.72486109
0.3853063 0.011597848 0.73148626
0.39146224 0.011704851 0.738235
0.39773339 0.011813863 0.74511051
0.40412542 0.011925013 0.75212079
0.41063786 0.012038244 0.75926238
0.41727459 0.012153628 0.76653981
0.42403826 0.012271203 0.77395535
0.43093652 0.012391146 0.78152025
0.33616745 0.014277383 0.73676193
0.33798784 0.014244698 0.73507529
0.33979982 0.01421216 0.73339623
0.34160358 0.014179772 0.73172486
0.34339914 0.014147529 0.73006105
0.34518653 0.014115434 0.72840482
0.34696585 0.014083485 0.72675616
0.34873712 0.014051679 0.72511482
0.3505004 0.014020016 0.72348094
0.35225573 0.013988495 0.72185433
0.35400322 0.013957117 0.72023511
0.35574293 0.013925879 0.71862316
0.35747477 0.01389478 0.71701831
0.35919896 0.01386382 0.71542066
0.36091548 0.013832998 0.71383011
0.36262438 0.013802312 0.71224666
0.36432567 0.013771761 0.71067011
0.36831275 0.013827441 0.71354342
0.37416375 0.013951868 0.71996427
0.38012379 0.014078659 0.72650713
0.38618928 0.014207632 0.73316258
0.392369 0.014339067 0.73994505
0.39866239 0.014472893 0.74685091
0.4050791 0.01460941 0.7538957
0.41161489 0.014748416 0.76106888
0.41827697 0.014890119 0.76838118
0.42506522 0.015034461 0.77582979
0.43199262 0.01518185 0.78343552
0.33620077 0.016874943 0.73683494
0.33802128 0.016836308 0.73514801
0.33983338 0.016797848 0.73346865
0.34163722 0.016759561 0.73179692
0.34343287 0.016721452 0.73013282
0.34522039 0.016683513 0.72847629
0.34699976 0.016645744 0.72682714
0.34877115 0.016608149 0.72518557
0.35053453 0.016570725 0.72355139
0.35228997 0.016533464 0.72192448
0.35403758 0.016496373 0.72030497
0.35577729 0.016459448 0.7186926
0.35750929 0.016422689 0.71708751
0.35923356 0.016386092 0.71548957
0.36095017 0.016349658 0.71389872
0.36265913 0.016313387 0.7123149
0.36436054 0.016277274 0.71073812
0.36913583 0.016378039 0.71513796
0.37500834 0.016525792 0.72158945
0.38098899 0.016676284 0.72816068
0.38707632 0.016829405 0.73484659
0.39327544 0.016985318 0.7416544
0.39959577 0.017144373 0.74859947
0.40603295 0.017306322 0.75567091
0.41259658 0.017471517 0.76288402
0.41928416 0.017639786 0.77023143
0.42609933 0.017811226 0.77771723
0.33623409 0.019473016 0.73690796
0.33805472 0.019428432 0.73522073
0.33986694 0.019384045 0.73354107
0.34167087 0.019339861 0.73186898
0.34346661 0.019295877 0.73020452
0.34525424 0.019252095 0.72854769
0.34703371 0.019208508 0.72689825
0.34880519 0.019165121 0.72525638
0.35056865 0.019121926 0.72362179
0.35232422 0.019078929 0.72199464
0.35407189 0.019036122 0.72037476
0.35581172 0.018993508 0.7187621
0.3575438 0.018951084 0.71715671
0.35926813 0.018908849 0.71555841
0.36098483 0.018866803 0.71396732
0.36269391 0.018824942 0.71238321
0.36439541 0.018783268 0.71080613
0.36996251 0.018940059 0.71673954
0.37585774 0.019111412 0.72322387
0.38185808 0.019285761 0.72982174
0.38796744 0.01946325 0.73653835
0.39418975 0.019644007 0.74337864
0.4005335 0.01982839 0.7503562
0.40699688 0.02001624 0.75746489
0.41358295 0.020207636 0.7647078
0.42029569 0.020402703 0.7720896
0.42713842 0.020601531 0.77961379
0.33443835 0.022122381 0.73867637
0.33626741 0.022071606 0.73698097
0.33808812 0.022021065 0.73529339
0.33990049 0.021970754 0.73361349
0.34170452 0.021920666 0.73194104
0.34350038 0.021870811 0.73027635
0.3452881 0.02182118 0.72861916
0.34706768 0.021771774 0.72696942
0.34883922 0.021722589 0.72532713
0.35060278 0.021673625 0.72369224
0.35235843 0.021624885 0.72206479
0.35410622 0.021576364 0.72044462
0.35584614 0.021528058 0.71883166
0.35757831 0.02147997 0.71722597
0.35930276 0.021432094 0.71562737
0.36101952 0.021384433 0.71403593
0.36272866 0.02133698 0.71245146
0.36498454 0.02132212 0.71195531
0.37079296 0.021513585 0.71834838
0.37671125 0.021708783 0.72486615
0.38273117 0.021907171 0.73149043
0.3888627 0.02210925 0.73823792
0.39510831 0.022315087 0.74511093
0.40147561 0.022525035 0.75212115
0.40796295 0.022738919 0.75926286
0.41457406 0.02295687 0.76654035
0.42130893 0.023178808 0.77395099
0.4281826 0.023405481 0.78151965
0.33447155 0.024727469 0.73874974
0.33630076 0.024670711 0.73705405
0.33812153 0.024614211 0.73536605
0.33993402 0.02455797 0.73368585
0.34173819 0.024501983 0.73201317
0.34353414 0.024446251 0.73034811
0.34532189 0.024390766 0.72869051
0.34710163 0.024335539 0.72704053
0.34887332 0.024280559 0.725398
0.35063693 0.024225825 0.72376275
0.3523927 0.024171341 0.72213501
0.35414052 0.024117095 0.72051442
0.35588056 0.024063099 0.71890122
0.35761282 0.024009341 0.71729517
0.35933736 0.023955824 0.71569628
0.36105421 0.023902545 0.71410453
0.36276343 0.023849498 0.71251976
0.36579835 0.023883741 0.71354276
0.37162715 0.024098689 0.7199645
0.37756488 0.024317738 0.72650874
0.38360825 0.024540596 0.73316675
0.3897624 0.024767511 0.73994601
0.39603117 0.024998644 0.74685127
0.4024229 0.02523444 0.75389582
0.40893364 0.025474556 0.76106942
0.41557047 0.025719345 0.76838267
0.42233136 0.025968594 0.7758292
0.42923194 0.026223173 0.78343487
0.33450478 0.027333075 0.73882312
0.33633405 0.027270328 0.73712701
0.33815497 0.02720787 0.73543876
0.33996758 0.027145701 0.73375827
0.34177184 0.027083807 0.73208529
0.34356791 0.027022194 0.73041987
0.34535581 0.026960861 0.72876203
0.3471356 0.026899807 0.7271117
0.34890732 0.026839025 0.72546875
0.35067108 0.026778519 0.72383326
0.35242695 0.026718287 0.72220516
0.35417488 0.026658325 0.72058433
0.35591501 0.02659863 0.71897078
0.35764733 0.026539201 0.71736437
0.35937196 0.02648004 0.71576524
0.36108893 0.026421141 0.7141732
0.36279824 0.026362501 0.71258813
0.36661574 0.026456807 0.71513724
0.37246507 0.026695449 0.72158784
0.37842238 0.026938543 0.72815871
0.38448936 0.027186116 0.73485076
0.39066535 0.027438033 0.74166018
0.39695832 0.027694767 0.74859977
0.40337309 0.027956551 0.75567585
0.40990889 0.028223235 0.76288444
0.41656947 0.02849498 0.77022982
0.42335877 0.028771956 0.77771658
0.43028638 0.029054707 0.78535944
0.33453801 0.029939199 0.73889649
0.3363674 0.029870464 0.73720008
0.33818841 0.029802043 0.73551148
0.34000111 0.029733937 0.73383063
0.34180552 0.029666139 0.73215741
0.34360167 0.029598648 0.7304917
0.34538966 0.029531458 0.7288335
0.34716958 0.029464576 0.72718287
0.34894139 0.029397992 0.72553957
0.35070527 0.029331712 0.72390378
0.35246116 0.02926573 0.72227532
0.35420921 0.029200044 0.72065419
0.35594943 0.029134652 0.71904033
0.35768184 0.02906955 0.71743363
0.35940659 0.029004743 0.7158342
0.36112359 0.028940218 0.71424174
0.36283302 0.028875984 0.71265644
0.36743683 0.0290414 0.71673888
0.37330678 0.029303946 0.7232185
0.37928554 0.029571414 0.7298196
0.38537455 0.029843818 0.73654252
0.39157584 0.030121218 0.74338871
0.39788991 0.030403547 0.75035655
0.40432832 0.030691588 0.75746536
0.41088885 0.030985061 0.76470828
0.41757077 0.031283803 0.7720812
0.42439121 0.03158899 0.77961314
0.33457121 0.032545839 0.73896986
0.33640072 0.032471113 0.73727316
0.33822185 0.03239673 0.73558426
0.34003466 0.032322686 0.73390305
0.34183919 0.032248981 0.73222953
0.34363544 0.032175604 0.73056346
0.34542355 0.032102559 0.72890496
0.34720355 0.032029849 0.72725403
0.34897548 0.031957462 0.72561044
0.35073945 0.031885404 0.72397435
0.35249543 0.031813666 0.72234553
0.35424358 0.031742256 0.72072411
0.35598388 0.031671163 0.71910989
0.35771641 0.03160039 0.71750295
0.35944122 0.031529933 0.71590316
0.36115831 0.031459782 0.71431041
0.36286783 0.031389948 0.7127248
0.36826158 0.031637594 0.71834767
0.37415233 0.031924263 0.72485662
0.38015383 0.032216426 0.73149037
0.38626379 0.032513786 0.73824209
0.39248821 0.032816742 0.74512082
0.39882582 0.033125069 0.75212157
0.40528804 0.033439606 0.75926334
0.41187656 0.033760373 0.76654649
0.41858166 0.034086455 0.77395034
0.42542866 0.034419797 0.781519
0.33276641 0.035234094 0.74074817
0.33460447 0.035152998 0.7390433
0.3364341 0.035072282 0.73734629
0.33825532 0.034991931 0.73565704
0.34006822 0.034911949 0.73397553
0.34187281 0.034832325 0.73230153
0.34366924 0.034753069 0.73063529
0.34545743 0.034674168 0.72897649
0.3472375 0.03459562 0.72732514
0.34900954 0.03451743 0.7256813
0.3507736 0.03443959 0.72404486
0.3525297 0.0343621 0.72241575
0.35427794 0.034284964 0.72079402
0.3560183 0.034208164 0.71917945
0.35775095 0.034131717 0.71757221
0.35947585 0.034055606 0.71597213
0.36119306 0.033979833 0.71437913
0.36328393 0.033940021 0.7135421
0.36909008 0.034245472 0.71996379
0.37500173 0.034556475 0.72650218
0.38102618 0.034873582 0.73316896
0.38715717 0.035196107 0.73994958
0.39339995 0.035524409 0.74685168
0.39976668 0.035859469 0.75389588
0.40625235 0.036200702 0.76106983
0.41286108 0.036548357 0.76837879
0.41959751 0.036902711 0.7758286
0.42647126 0.037264481 0.78343427
0.33279958 0.037847795 0.74082196
0.33463776 0.037760679 0.73911679
0.33646744 0.037673961 0.73741937
0.33828878 0.037587643 0.73572981
0.34010175 0.037501715 0.73404789
0.34190649 0.037416179 0.73237365
0.343703 0.037331037 0.73070711
0.34549132 0.037246276 0.72904801
0.3472715 0.037161898 0.72739637
0.34904364 0.037077896 0.72575217
0.35080776 0.036994275 0.72411537
0.35256401 0.036911033 0.72248602
0.3543123 0.03682816 0.72086394
0.35605276 0.03674566 0.71924907
0.35778549 0.036663532 0.71764153
0.35951048 0.036581766 0.71604109
0.36122778 0.036500368 0.7144478
0.36409572 0.036535557 0.71513659
0.36992231 0.036865111 0.72158718
0.37585494 0.03720066 0.72815514
0.3819024 0.037542947 0.73485494
0.3880547 0.037890863 0.74166495
0.39432096 0.038245175 0.74860018
0.40071303 0.038606901 0.7556805
0.40722123 0.038974967 0.76288491
0.41385064 0.039349731 0.77022046
0.42061827 0.039732672 0.77771598
0.42751893 0.040123135 0.78535885
0.33283272 0.040462017 0.74089575
0.33467099 0.040368874 0.73919022
0.33650079 0.040276159 0.7374925
0.33832222 0.040183865 0.73580253
0.34013534 0.040091999 0.73412037
0.34194013 0.040000547 0.73244578
0.34373677 0.039909512 0.73077887
0.34552526 0.039818894 0.7291196
0.34730551 0.039728675 0.7274676
0.34907776 0.039638866 0.7258231
0.35084197 0.039549455 0.72418594
0.35259828 0.039460458 0.72255629
0.35434666 0.039371852 0.72093385
0.35608727 0.039283648 0.71931875
0.35782006 0.039195836 0.71771085
0.35954511 0.039108418 0.71611011
0.36126253 0.039021388 0.71451652
0.36491117 0.03914272 0.71673822
0.3707583 0.039496586 0.72321784
0.37671211 0.039856911 0.72981572
0.38278159 0.040224507 0.7365467
0.3889564 0.040598143 0.7433883
0.39524627 0.040978711 0.75035685
0.40165809 0.041366778 0.75746274
0.40819931 0.041762967 0.76471728
0.41485012 0.042165093 0.7720806
0.42164403 0.042576432 0.7796126
0.42857179 0.042995878 0.78729296
0.33286589 0.043076765 0.7409696
0.33470428 0.04297759 0.73926371
0.33653414 0.04287887 0.73756558
0.33835572 0.042780608 0.73587537
0.34016892 0.042682793 0.73419285
0.34197384 0.042585421 0.73251796
0.34377053 0.042488493 0.7308507
0.34555912 0.042392012 0.72919106
0.34733951 0.042295955 0.72753882
0.34911183 0.042200331 0.72589397
0.35087615 0.042105138 0.72425652
0.35263258 0.042010378 0.72262657
0.35438102 0.041916035 0.72100377
0.35612172 0.041822124 0.71938837
0.3578546 0.041728627 0.71778011
0.35957977 0.041635554 0.71617913
0.36129728 0.041542891 0.71458524
0.36573023 0.041761585 0.71834701
0.37159806 0.042139985 0.72485596
0.37757316 0.042525306 0.73148388
0.38366488 0.042918444 0.73824632
0.38986468 0.043318298 0.74512428
0.39617601 0.043725111 0.75212193
0.4026131 0.044140305 0.75926375
0.40917072 0.044563144 0.76653707
0.41585445 0.04499409 0.7739498
0.4226748 0.045434099 0.78151846
0.33289906 0.04569203 0.74104345
0.33473751 0.045586821 0.73933715
0.33656755 0.045482103 0.73763877
0.33838919 0.045377858 0.73594815
0.34020251 0.045274097 0.73426533
0.34200755 0.045170806 0.73259014
0.34380436 0.045067988 0.73092258
0.34559298 0.044965629 0.72926253
0.34737352 0.044863738 0.72761005
0.34914592 0.044762298 0.72596484
0.35091037 0.044661321 0.72432715
0.35266688 0.044560798 0.72269684
0.35441545 0.044460718 0.72107375
0.35615623 0.044361096 0.71945804
0.35788918 0.044261914 0.71784949
0.35961443 0.044163175 0.71624815
0.361332 0.044064876 0.71465391
0.36655304 0.044392239 0.71996313
0.37244162 0.044795386 0.72650146
0.37843814 0.045205925 0.73315966
0.38455224 0.045624841 0.73995376
0.39077166 0.04605053 0.7468577
0.39711046 0.046484504 0.75389594
0.40357107 0.046926867 0.76107031
0.41014838 0.047376875 0.76836866
0.41686365 0.047836814 0.775828
0.42371061 0.048305772 0.78343368
0.33293226 0.048307817 0.7411173
0.3347708 0.048196573 0.73941064
0.33660093 0.048085846 0.73771191
0.33842266 0.047975626 0.73602098
0.3402361 0.047865912 0.73433781
0.34204122 0.047756698 0.73266226
0.34383813 0.047647979 0.73099434
0.34562689 0.047539756 0.72933406
0.34740749 0.04743202 0.72768122
0.34918004 0.047324765 0.72603577
0.35094458 0.047217999 0.72439778
0.35270113 0.047111705 0.72276706
0.35444984 0.047005892 0.72114372
0.35619071 0.046900555 0.71952772
0.35792375 0.046795685 0.71791881
0.35964909 0.046691284 0.71631718
0.36157569 0.046614289 0.71513593
0.36737955 0.047034752 0.72158647
0.37328905 0.047462869 0.72815448
0.37930712 0.047898851 0.73484313
0.38544369 0.048343785 0.74166912
0.39169025 0.048796427 0.74861336
0.39804888 0.049256884 0.75567746
0.40453854 0.049727328 0.76289481
0.41113657 0.050204795 0.77021992
0.41787776 0.05069337 0.77771538
0.42475149 0.05119155 0.78535825
0.33111826 0.051041942 0.74290597
0.3329654 0.050924119 0.74119109
0.33480409 0.050806846 0.73948419
0.33663431 0.050690111 0.7377851
0.33845618 0.050573912 0.73609388
0.34026968 0.050458245 0.73441035
0.3420749 0.0503431 0.73273444
0.34387189 0.05022848 0.73106617
0.34566078 0.05011439 0.72940558
0.34744152 0.050000809 0.72775245
0.34921417 0.049887739 0.72610676
0.35097879 0.049775176 0.72446841
0.35273546 0.049663115 0.72283739
0.35448426 0.049551561 0.72121376
0.35622516 0.049440503 0.71959734
0.35795835 0.049329948 0.71798819
0.35968378 0.049219884 0.71638626
0.36238548 0.04924402 0.71673757
0.36820975 0.049689204 0.72321713
0.37414035 0.050142523 0.72981507
0.38018009 0.050604176 0.73653436
0.38633934 0.051075373 0.74339253
0.39260903 0.051554721 0.75036937
0.398985 0.052041519 0.75745463
0.4054988 0.05253971 0.76470572
0.41212949 0.053046372 0.77208006
0.41889685 0.053563859 0.779612
0.42579755 0.054091543 0.78729236
0.33115131 0.053664833 0.74298012
0.33299857 0.053540949 0.74126494
0.33483738 0.053417638 0.73955774
0.33666772 0.05329489 0.7378583
0.33848968 0.053172708 0.73616672
0.34030327 0.053051081 0.73448282
0.34210861 0.052930012 0.73280662
0.34390572 0.052809492 0.73113805
0.34569466 0.052689523 0.72947711
0.34747553 0.052570097 0.72782367
0.34924829 0.052451208 0.72617769
0.351013 0.052332848 0.72453904
0.35276979 0.052215021 0.72290772
0.35451868 0.052097727 0.72128379
0.35625967 0.051980946 0.71966702
0.35799292 0.051864699 0.71805757
0.35971844 0.051748969 0.71645528
0.36319894 0.05188556 0.71834642
0.3690438 0.052355692 0.7248553
0.3749955 0.052834418 0.73148316
0.38105708 0.05332198 0.73823339
0.38723916 0.053819679 0.74512392
0.39352715 0.054325297 0.75212413
0.3999382 0.054841023 0.75926423
0.40646389 0.055365514 0.76652575
0.41312724 0.055901706 0.77394921
0.41992089 0.056448381 0.78151786
0.42684874 0.05700586 0.78923601
0.33118436 0.056288254 0.74305433
0.33303177 0.0561583 0.74133885
0.3348707 0.056028947 0.7396313
0.33670112 0.05590019 0.73793155
0.33852315 0.055772014 0.73623955
0.34033689 0.055644434 0.73455536
0.34214231 0.055517431 0.7328788
0.34393951 0.05539101 0.73120993
0.34572861 0.055265166 0.72954869
0.34750953 0.055139888 0.7278949
0.34928238 0.055015173 0.72624856
0.35104722 0.054891016 0.72460961
0.35280409 0.054767422 0.72297806
0.35455307 0.05464438 0.72135377
0.35629418 0.054521888 0.71973675
0.35802755 0.054399945 0.71812701
0.3597531 0.054278541 0.71652436
0.36401603 0.054538988 0.71996248
0.36988157 0.05503428 0.72650081
0.37585461 0.055538651 0.73315895
0.3819381 0.05605235 0.73994023
0.38814315 0.056576796 0.74686337
0.39445427 0.057109542 0.75389606
0.40089512 0.057653811 0.76108092
0.40744084 0.058205836 0.76836812
0.41412982 0.058770899 0.77582747
0.42094997 0.059347045 0.78343308
0.33121747 0.058912199 0.7431286
0.33306497 0.058776174 0.74141276
0.33490399 0.058640778 0.73970485
0.3367345 0.058505993 0.73800468
0.33855668 0.058371842 0.73631245
0.34037051 0.058238298 0.7346279
0.34217602 0.058105364 0.73295105
0.34397337 0.057973038 0.73128188
0.34576252 0.057841312 0.72962028
0.34754354 0.057710178 0.72796613
0.34931648 0.05757964 0.72631949
0.35108146 0.057449691 0.7246803
0.35283843 0.057320323 0.72304839
0.35458747 0.057191525 0.72142375
0.3563287 0.057063311 0.71980643
0.35806212 0.056935675 0.71819639
0.35978782 0.056808606 0.7165935
0.36483678 0.057204373 0.72158581
0.37072313 0.057725053 0.72815377
0.37671766 0.058255307 0.73484248
0.38282394 0.058795486 0.74165636
0.389054 0.05934722 0.74861604
0.39627337 0.06004142 0.7573728
0.40184438 0.060478251 0.76288307
0.4084225 0.06105984 0.77021933
0.41513729 0.061654054 0.77771485
0.42198411 0.06225995 0.78535771
0.33125058 0.061536666 0.74320287
0.33309817 0.061394569 0.74148667
0.33493727 0.061253119 0.73977834
0.33676794 0.061112326 0.73807794
0.3385902 0.06097218 0.73638535
0.34040412 0.060832679 0.7347005
0.34220976 0.060693804 0.73302329
0.34400716 0.06055557 0.73135376
0.34579641 0.060417961 0.7296918
0.34757754 0.060280975 0.72803736
0.3493506 0.060144611 0.72639042
0.35111567 0.060008861 0.72475094
0.35287276 0.059873719 0.72311878
0.35462192 0.059739176 0.72149384
0.35636324 0.059605237 0.71987623
0.35809672 0.059471894 0.71826577
0.35985979 0.059345301 0.71673685
0.36566129 0.059881814 0.72321653
0.37156859 0.060428109 0.72981435
0.37758464 0.060984459 0.73653364
0.3837139 0.061551373 0.74338049
0.39774951 0.063370258 0.7653479
0.39923409 0.063178457 0.76303142
0.40279707 0.063315928 0.76469171
0.40940887 0.063927628 0.77207947
0.41614968 0.064551271 0.77961141
0.42302328 0.065187193 0.78729177
0.32942736 0.064310521 0.74500161
0.33128366 0.064161658 0.74327713
0.3331314 0.064013489 0.74156064
0.33497059 0.063865989 0.73985195
0.33680135 0.063719176 0.73815119
0.3386237 0.063573033 0.73645824
