# .PCD v0.7 - Point Cloud Data file format
VERSION 0.7
FIELDS x y z
SIZE 4 4 4
TYPE F F F
COUNT 1 1 1
WIDTH 942
HEIGHT 1
VIEWPOINT 0 0 0 1 0 0 0
POINTS 942
DATA ascii
-0.017779076 -0.16001168 1.1213416
-0.013855178 -0.1603242 1.1235317
-0.0099159228 -0.16063794 1.1257304
-0.0059612193 -0.16095293 1.1279377
-0.001990977 -0.16126913 1.1301537
0.0019948962 -0.16158658 1.1323783
0.0059964922 -0.16190529 1.1346117
0.010013901 -0.16222519 1.1368536
0.014047195 -0.16254611 1.1391026
-0.021719437 -0.15598506 1.1207975
-0.01769352 -0.15530978 1.1159455
-0.013702297 -0.15464021 1.1111344
-0.009805751 -0.15493086 1.1132228
-0.0058948579 -0.15523125 1.1153812
-0.0019687698 -0.15553282 1.1175481
0.0019726022 -0.15583557 1.1197234
0.0059293476 -0.15613948 1.1219071
0.0099015478 -0.15644445 1.1240984
0.01388928 -0.15675046 1.1262971
0.017892644 -0.15705764 1.1285044
0.021911731 -0.15736607 1.1307205
-0.029902229 -0.15349811 1.1315756
-0.02580202 -0.15282735 1.1266308
-0.021737492 -0.15216243 1.1217291
-0.017708166 -0.15150319 1.1168692
-0.013713595 -0.15084954 1.1120505
-0.0097533409 -0.15020145 1.1072729
-0.0058299578 -0.14963558 1.1031014
-0.0019470529 -0.14992307 1.1052207
0.0019508009 -0.15021166 1.1073482
0.0058636903 -0.15050139 1.109484
0.0097916871 -0.15079199 1.1116263
0.013734878 -0.15108366 1.1137764
0.01769335 -0.15137644 1.1159348
0.021667197 -0.15167038 1.1181017
0.025656506 -0.15196547 1.120277
-0.034067277 -0.15029681 1.1375219
-0.029927323 -0.14963661 1.1325252
-0.025823575 -0.14898215 1.1275719
-0.021755571 -0.14833343 1.1226621
-0.017722836 -0.1476903 1.1177945
-0.013724911 -0.14705262 1.1129682
-0.0097613549 -0.14642031 1.1081827
-0.0058317371 -0.14579342 1.103438
-0.0019356254 -0.14517191 1.098734
0.0019294762 -0.1447107 1.0952435
0.00579947 -0.14498675 1.0973327
0.0096842386 -0.14526357 1.0994278
0.01358387 -0.14554146 1.101531
0.017498448 -0.14582041 1.1036422
0.021428062 -0.14610043 1.1057615
0.025372798 -0.14638153 1.1078891
0.029335137 -0.14667569 1.1101154
0.033337869 -0.14707883 1.1131666
-0.03827633 -0.14706168 1.143531
-0.034096014 -0.14641228 1.1384814
-0.029952452 -0.1457686 1.1334761
-0.02584517 -0.14513056 1.1285149
-0.021773685 -0.14449808 1.1235968
-0.017737491 -0.14387077 1.1187189
-0.013736197 -0.14324892 1.1138834
-0.009769381 -0.14263296 1.1090939
-0.0058365129 -0.14202181 1.1043416
-0.0019372035 -0.14141585 1.0996298
0.0019289734 -0.14081505 1.0949581
0.0057624392 -0.14021935 1.090326
0.0096297953 -0.14059502 1.0932471
0.013518204 -0.14097555 1.0962061
0.017427718 -0.14135815 1.0991812
0.02135851 -0.14174284 1.1021724
0.025310757 -0.14212963 1.10518
0.029284628 -0.14251852 1.108204
0.033280309 -0.14290956 1.1112447
0.03729802 -0.14330292 1.1143034
-0.042530082 -0.14379218 1.1496038
-0.038308784 -0.14315388 1.1445006
-0.034124799 -0.14252122 1.1394426
-0.029977631 -0.14189412 1.134429
-0.025866797 -0.14127252 1.1294593
-0.021791825 -0.14065632 1.1245329
-0.017752243 -0.14004548 1.1196493
-0.013747602 -0.13943996 1.1148082
-0.0097774211 -0.13883938 1.1100067
-0.0058412952 -0.13824399 1.1052465
-0.0019387841 -0.13765368 1.100527
0.0019305394 -0.1370683 1.095847
0.005767107 -0.1364882 1.0912092
0.0096134674 -0.13651124 1.0913934
0.013495221 -0.1368801 1.0943424
0.017398005 -0.13725093 1.0973072
0.021321999 -0.1376238 1.1002883
0.025267368 -0.1379987 1.1032856
0.029234296 -0.13837567 1.1062993
0.033222962 -0.13875473 1.1093298
0.037233584 -0.13913602 1.1123782
-0.046829265 -0.14048781 1.1557417
-0.042566344 -0.13986085 1.150584
-0.038341299 -0.13923946 1.145472
-0.034153637 -0.13862358 1.1404054
-0.030002847 -0.13801309 1.1353832
-0.025888462 -0.13740799 1.1304052
-0.021809997 -0.13680816 1.1254706
-0.017766984 -0.13621356 1.120579
-0.013758939 -0.13562383 1.1157275
-0.0097854417 -0.13503909 1.1109172
-0.005846086 -0.13445997 1.106153
-0.0019403674 -0.13388535 1.1014258
0.0019321119 -0.13331573 1.0967396
0.0057717822 -0.13275099 1.0920938
0.0095971934 -0.13244127 1.0895458
0.013472314 -0.13279852 1.0924848
0.017368397 -0.1331577 1.0954397
0.02128561 -0.13351883 1.0984105
0.025224132 -0.13388193 1.1013976
0.029184133 -0.134247 1.104401
0.033165816 -0.1346142 1.1074218
0.037169367 -0.13498349 1.1104598
-0.067100786 -0.13623492 1.1542102
-0.063195601 -0.13658404 1.157168
-0.059270341 -0.13693492 1.1601408
-0.055324867 -0.13728763 1.163129
-0.051174577 -0.13714787 1.1619449
-0.046869405 -0.13653262 1.1567323
-0.042602662 -0.13592277 1.1515657
-0.038373869 -0.13531838 1.146445
-0.034182515 -0.13471931 1.1413697
-0.030028109 -0.13412555 1.1363392
-0.025910163 -0.13353699 1.1313528
-0.021828201 -0.13295358 1.12641
-0.017781746 -0.13237523 1.12151
-0.013770264 -0.1318011 1.1166459
-0.009793533 -0.13123335 1.1118358
-0.0058508851 -0.13066976 1.107061
-0.0019419441 -0.13011026 1.1023208
0.0019336778 -0.12955642 1.0976285
0.0057764649 -0.12900771 1.0929798
0.009586771 -0.12846273 1.0883626
0.013449485 -0.12873079 1.0906336
0.017338887 -0.12907837 1.0935785
0.021249348 -0.12942785 1.0965393
0.025181042 -0.12977922 1.0995162
0.029134145 -0.13013251 1.1025094
0.033108875 -0.13048792 1.1055204
0.037105374 -0.13084526 1.1085479
0.041123819 -0.13120456 1.1115919
-0.086580008 -0.13087675 1.1429321
-0.082392812 -0.13062276 1.1407139
-0.078572132 -0.13095355 1.1436027
-0.074732043 -0.13128603 1.1465062
-0.070872411 -0.1316202 1.1494244
-0.06699308 -0.13195607 1.1523576
-0.063093893 -0.13229364 1.1553056
-0.059174716 -0.13263299 1.158269
-0.055235375 -0.13297404 1.1612475
-0.051218685 -0.13316858 1.1629463
-0.046909608 -0.13257062 1.1577245
-0.04263898 -0.1319778 1.1525474
-0.038406502 -0.13139068 1.14742
-0.034211446 -0.13080847 1.1423358
-0.030053414 -0.13023145 1.1372968
-0.0259319 -0.1296595 1.1323019
-0.021846432 -0.12909254 1.1273508
-0.017796537 -0.12853053 1.1224428
-0.013781692 -0.12797286 1.1175727
-0.0098061953 -0.12748054 1.1132733
-0.0059057302 -0.12795749 1.1174384
-0.0019757752 -0.12842539 1.1215246
0.0019352658 -0.12579228 1.0985299
0.005781156 -0.12525837 1.0938674
0.0095945224 -0.12472879 1.0892426
0.013426734 -0.12467682 1.0887887
0.017309476 -0.12501289 1.0917236
0.021213209 -0.12535077 1.0946743
0.025138101 -0.1256905 1.0976411
0.029084345 -0.12603216 1.1006248
0.033052128 -0.12637578 1.1036255
0.037041601 -0.12672126 1.1066426
0.041052945 -0.12706864 1.1096762
-0.091117293 -0.12756422 1.1493692
-0.086657859 -0.12696384 1.1439598
-0.082262099 -0.12640274 1.1389042
-0.078447171 -0.12672235 1.141784
-0.074612886 -0.12704356 1.1446781
-0.070759118 -0.12736642 1.1475871
-0.066885717 -0.12769091 1.1505108
-0.062992521 -0.12801705 1.1534494
-0.05907939 -0.12834488 1.1564032
-0.055146169 -0.12867439 1.1593721
-0.051192697 -0.1290056 1.1623563
-0.046949867 -0.1286018 1.1587181
-0.042675488 -0.12802647 1.1535342
-0.038439184 -0.12745623 1.1483964
-0.034240305 -0.12689054 1.1432993
-0.0300788 -0.12633096 1.1382575
-0.025953673 -0.12577549 1.1332526
-0.021864695 -0.12522507 1.1282933
-0.017811349 -0.12467944 1.1233771
-0.013793088 -0.1241378 1.1184968
-0.0098677641 -0.12433383 1.1202631
-0.0059396857 -0.1247334 1.1238632
-0.0019862361 -0.12513287 1.1274625
0.0019925842 -0.12553281 1.131066
0.0057858541 -0.12150294 1.0947564
0.0096022859 -0.12098881 1.090124
0.01340406 -0.12063655 1.0869501
0.017280167 -0.12096117 1.089875
0.021177191 -0.12128755 1.0928158
0.025095301 -0.12161569 1.0957723
0.029034711 -0.12194579 1.0987465
0.032995567 -0.12227769 1.101737
0.036978044 -0.1226114 1.1047438
0.040982317 -0.12294695 1.1077671
-0.095706001 -0.12421416 1.1558795
-0.091199696 -0.12362625 1.1504086
-0.086735845 -0.12304387 1.1449893
-0.082313851 -0.12246694 1.1396207
-0.078322597 -0.12250457 1.1399708
-0.074494101 -0.1228146 1.1428558
-0.070646182 -0.1231262 1.1457554
-0.06677869 -0.12343939 1.1486698
-0.062891476 -0.12375419 1.1515992
-0.058984376 -0.12407058 1.1545434
-0.055057254 -0.12438861 1.1575028
-0.051109944 -0.12470826 1.1604773
-0.046990193 -0.12462617 1.1597134
-0.042711984 -0.12406814 1.1545206
-0.038471907 -0.12351507 1.149374
-0.034269471 -0.12296693 1.1442733
-0.030104047 -0.12242312 1.1392128
-0.025975341 -0.12188429 1.1341988
-0.021882996 -0.12135116 1.1292377
-0.017826209 -0.12082208 1.1243143
-0.013814596 -0.12038433 1.1202408
-0.0098975329 -0.12074991 1.1236427
-0.005956545 -0.12111641 1.1270533
-0.0019915155 -0.12148244 1.1304593
0.0019975458 -0.1218503 1.1338824
0.0057905596 -0.11774138 1.0956467
0.0096100625 -0.11724277 1.0910069
0.013397353 -0.11674836 1.0864061
0.017250955 -0.11692315 1.0880326
0.021141298 -0.1172381 1.0909635
0.025052667 -0.11755482 1.0939107
0.028985251 -0.11787336 1.0968748
0.032939207 -0.11819362 1.0998551
0.036914706 -0.11851564 1.1028516
0.040911928 -0.11883941 1.1058645
0.044931043 -0.11916494 1.1088938
-0.100347 -0.12082598 1.1624641
-0.095793039 -0.12025083 1.1569307
-0.091282234 -0.11968115 1.1514498
-0.086813986 -0.11911686 1.1460208
-0.082387656 -0.11855785 1.1406425
-0.078198418 -0.11830018 1.1381634
-0.074375704 -0.11859909 1.1410394
-0.070533611 -0.11889952 1.1439297
-0.066672012 -0.11920147 1.1468349
-0.062790744 -0.11950497 1.1497548
-0.058889672 -0.11981002 1.1526897
-0.054968629 -0.12011663 1.1556395
-0.051027451 -0.12042478 1.1586043
-0.047030594 -0.1206437 1.1607105
-0.042748533 -0.12010302 1.1555086
-0.03850469 -0.11956719 1.1503534
-0.034298539 -0.11903611 1.1452439
-0.030129591 -0.11850972 1.1401795
-0.025997423 -0.1179883 1.1351629
-0.021901209 -0.11747012 1.1301775
-0.017840916 -0.11695711 1.1252419
-0.01383652 -0.1166221 1.1220187
-0.0099120149 -0.11696177 1.1252867
-0.0059644603 -0.11730105 1.1285509
-0.0019939146 -0.11764096 1.1318212
0.0019996699 -0.11798052 1.1350881
0.0057952339 -0.11397293 1.0965312
0.009617852 -0.11349066 1.0918912
0.013408166 -0.11301169 1.087283
0.017221844 -0.11289876 1.0861965
0.021105524 -0.11320235 1.0891174
0.025010174 -0.11350772 1.0920553
0.028935958 -0.11381477 1.0950094
0.032883037 -0.11412348 1.0979795
0.036851585 -0.11443388 1.1009659
0.040841781 -0.11474595 1.1039684
0.044853795 -0.11505973 1.1069872
-0.10043868 -0.11683684 1.1635263
-0.095880218 -0.11628027 1.1579837
-0.091364928 -0.11572891 1.1524929
-0.08689224 -0.11518274 1.1470538
-0.082461588 -0.11464172 1.1416661
-0.078074649 -0.1141091 1.136362
-0.074257672 -0.11439695 1.1392286
-0.070421405 -0.11468628 1.1421099
-0.06656567 -0.11497707 1.1450057
-0.062690347 -0.11526935 1.1479163
-0.05879527 -0.11556312 1.1508418
-0.05488028 -0.11585837 1.1537821
-0.050945237 -0.11615514 1.1567376
-0.046989989 -0.11645345 1.1597083
-0.042785157 -0.11613114 1.1564986
-0.038537521 -0.11561257 1.1513343
-0.03432766 -0.11509862 1.1462162
-0.030155057 -0.11458921 1.1411432
-0.026019229 -0.11408431 1.1361151
-0.021919684 -0.11358382 1.1311309
-0.017855784 -0.11308663 1.1261797
-0.013841943 -0.11271296 1.1224585
-0.0099146366 -0.11302686 1.1255844
-0.0059653153 -0.11334099 1.1287127
-0.0019939502 -0.11365516 1.1318414
0.0019994681 -0.11396968 1.1349735
0.0057999152 -0.11019839 1.0974169
0.0096256305 -0.1097322 1.0927743
0.013418977 -0.10926881 1.0881597
0.017192829 -0.10888793 1.0843666
0.021069879 -0.10918028 1.087278
0.024967829 -0.10947432 1.0902063
0.028886832 -0.10976996 1.0931504
0.032827057 -0.11006719 1.0961103
0.03678868 -0.11036605 1.0990865
0.040771872 -0.11066651 1.1020787
0.044776812 -0.11096862 1.1050873
0.04880368 -0.11127239 1.1081125
-0.10053057 -0.11284044 1.1645907
-0.095967583 -0.11230249 1.1590388
-0.091447771 -0.1117695 1.1535379
-0.086970657 -0.11124154 1.1480891
-0.082535654 -0.11071856 1.1426915
-0.078142144 -0.11020046 1.1373444
-0.07414002 -0.11020814 1.1374236
-0.070309542 -0.11048643 1.1402957
-0.066459671 -0.11076612 1.1431824
-0.062590264 -0.11104724 1.1460837
-0.058701161 -0.11132979 1.1489998
-0.054792222 -0.11161378 1.1519308
-0.050863281 -0.11189922 1.1548767
-0.046914201 -0.11218613 1.1578379
-0.042821836 -0.11215243 1.15749
-0.038570415 -0.1116512 1.152317
-0.034356829 -0.11115444 1.1471901
-0.030180566 -0.11066207 1.1421086
-0.026041141 -0.11017405 1.1370718
-0.021938067 -0.10969033 1.1320795
-0.01787086 -0.10921081 1.1271305
-0.013839107 -0.10873584 1.1222285
-0.0099057853 -0.10896364 1.1245795
-0.0059592063 -0.10925212 1.1275568
-0.0019916126 -0.1095387 1.1305145
0.001996832 -0.10982576 1.1334772
0.0058046887 -0.1064193 1.0983201
0.0096334284 -0.10596772 1.0936595
0.013429813 -0.10551996 1.0890384
0.017194247 -0.10507596 1.084456
0.021041764 -0.10520882 1.0858272
0.024945239 -0.10553755 1.0892199
0.028873185 -0.10586835 1.092634
0.032825824 -0.10620119 1.0960692
0.036803406 -0.10653617 1.0995264
0.040806159 -0.10687327 1.1030055
0.04483432 -0.1072125 1.1065066
-0.10062266 -0.10883676 1.1656575
-0.096055135 -0.10831749 1.1600962
-0.091530755 -0.10780288 1.1545846
-0.087049209 -0.10729321 1.1491259
-0.082609847 -0.10678834 1.1437187
-0.078212067 -0.10628819 1.1383621
-0.074022748 -0.10603258 1.1356244
-0.070198037 -0.10629989 1.1384873
-0.066354014 -0.10656857 1.1413649
-0.062490501 -0.10683859 1.1442569
-0.058607358 -0.10711 1.1471637
-0.054704443 -0.1073828 1.1500854
-0.050781589 -0.10765696 1.1530218
-0.046838656 -0.10793255 1.1559734
-0.042858578 -0.10816689 1.1584831
-0.038603362 -0.10768306 1.1533014
-0.034386046 -0.10720355 1.1481657
-0.030206118 -0.10672828 1.1430755
-0.02606309 -0.10625722 1.1380303
-0.021956475 -0.10579029 1.1330295
-0.017885793 -0.10532745 1.1280724
-0.013850575 -0.10486864 1.1231585
-0.0098835202 -0.10476532 1.1220518
-0.0059446758 -0.10502261 1.1248075
-0.0019863429 -0.10527617 1.1275232
0.0019911018 -0.10552839 1.1302245
0.0058093956 -0.10263266 1.0992107
0.009641218 -0.10219691 1.0945438
0.013440642 -0.10176486 1.0899165
0.017208073 -0.10133643 1.085328
0.02108564 -0.10159445 1.0880914
0.024997421 -0.10191256 1.0914984
0.028933769 -0.10223265 1.0949266
0.032894924 -0.10255477 1.0983765
0.036881123 -0.10287892 1.1018482
0.040892601 -0.10320513 1.105342
0.044929553 -0.10353331 1.1088569
-0.10071492 -0.10482574 1.1667264
-0.096142724 -0.10432509 1.161154
-0.091613926 -0.10382912 1.1556338
-0.087127909 -0.10333775 1.1501648
-0.082684174 -0.10285105 1.1447477
-0.07828211 -0.10236891 1.1393815
-0.073921114 -0.10189126 1.1340653
-0.070086896 -0.10212662 1.1366848
-0.066248685 -0.10238434 1.1395532
-0.062391054 -0.10264335 1.142436
-0.058513854 -0.10290368 1.1453335
-0.054616947 -0.10316534 1.1482459
-0.050700154 -0.10342832 1.1511729
-0.046763357 -0.10369267 1.1541151
-0.042806387 -0.10395837 1.1570724
-0.038636368 -0.10370814 1.1542873
-0.034415308 -0.10324593 1.1491429
-0.030231714 -0.10278783 1.1440442
-0.026085079 -0.10233377 1.1389904
-0.021974918 -0.10188371 1.1339811
-0.01790075 -0.10143758 1.1290157
-0.013862111 -0.10099538 1.1240939
-0.0098584956 -0.10055666 1.1192108
-0.0059154583 -0.1005628 1.1192791
-0.001975558 -0.10075346 1.1214013
0.0019463447 -0.099263579 1.1048187
0.0058141304 -0.098840214 1.1001066
0.009649043 -0.098420233 1.0954322
0.013451504 -0.098003812 1.0907973
0.017234031 -0.097659513 1.0869652
0.021129703 -0.097964987 1.0903652
0.025049813 -0.098272346 1.0937861
0.028994607 -0.098581664 1.0972289
0.032964312 -0.098892935 1.1006933
0.03695916 -0.099206172 1.1041797
0.040979374 -0.099521339 1.1076876
0.04502517 -0.099838421 1.1112168
-0.10080736 -0.10080736 1.1677972
-0.096230462 -0.10032538 1.1622137
-0.091697253 -0.099848114 1.1566849
-0.087206751 -0.099375136 1.1512057
-0.082758635 -0.098906659 1.1457787
-0.07835228 -0.098442607 1.1404028
-0.073987074 -0.097982876 1.1350771
-0.069976099 -0.097966537 1.1348878
-0.066143692 -0.09821336 1.1377472
-0.062291928 -0.098461434 1.1406209
-0.058420651 -0.098710753 1.1435091
-0.054529727 -0.098961353 1.1464123
-0.050618988 -0.099213213 1.1493299
-0.0466883 -0.099466383 1.1522627
-0.042737503 -0.099720843 1.1552105
-0.03866943 -0.099726424 1.1552751
-0.034444626 -0.099281572 1.1501218
-0.030257354 -0.098840691 1.1450144
-0.026107103 -0.098403692 1.1399521
-0.021993389 -0.097970553 1.1349343
-0.017915733 -0.097541213 1.1299607
-0.013873605 -0.097115234 1.125026
-0.0098666102 -0.096692786 1.1201321
-0.0058943606 -0.096274555 1.1152872
-0.0019563267 -0.095860004 1.1104848
0.0019479408 -0.095449097 1.1057247
0.0058188732 -0.095041595 1.101004
0.009656881 -0.094637439 1.0963221
0.013462383 -0.094236687 1.0916796
0.017270006 -0.09402559 1.0892341
0.021173947 -0.094320305 1.0926483
0.025102435 -0.094616868 1.0960838
0.029055703 -0.094915301 1.0995409
0.033033993 -0.095215626 1.1030201
0.037037522 -0.095517814 1.1065208
0.041066494 -0.09582182 1.1100425
0.045121197 -0.096127763 1.1135867
-0.10552637 -0.097249798 1.1745245
-0.10089996 -0.096781589 1.1688699
-0.096318364 -0.096318364 1.1632752
-0.091780737 -0.095859878 1.157738
-0.087285765 -0.095405377 1.1522487
-0.082833238 -0.094955176 1.1468115
-0.078422576 -0.094509259 1.141426
-0.074053131 -0.094067492 1.1360906
-0.069865651 -0.093819588 1.1330966
-0.066039033 -0.094055593 1.1359469
-0.062193107 -0.094292775 1.1388115
-0.058327742 -0.094531171 1.1416906
-0.054442786 -0.094770774 1.1445844
-0.050538074 -0.095011584 1.1474928
-0.046613481 -0.095253639 1.1504161
-0.042668842 -0.09549693 1.1533545
-0.038702548 -0.095737882 1.1562645
-0.034474 -0.095310472 1.1511025
-0.030283038 -0.094886847 1.1459863
-0.026129168 -0.094466992 1.1409155
-0.022011895 -0.094050825 1.1358893
-0.017930739 -0.093638301 1.1309071
-0.013885158 -0.093228921 1.1259629
-0.0098748924 -0.09282399 1.1210723
-0.0058992384 -0.092421398 1.1162101
-0.0019579432 -0.092023328 1.1114024
0.0019495351 -0.091628149 1.1066297
0.0058236229 -0.091236763 1.1019027
0.0096647311 -0.090848476 1.0972133
0.013473282 -0.090463459 1.0925633
0.01730613 -0.090376459 1.0915126
0.021218374 -0.090660326 1.0949409
0.025155272 -0.090945989 1.0983909
0.029117059 -0.091233455 1.1018628
0.033103965 -0.091522723 1.1053565
0.037116174 -0.091813698 1.1088706
0.041153982 -0.092106536 1.1124073
0.04521763 -0.092401244 1.1159667
-0.10562387 -0.093197532 1.1756097
-0.10099273 -0.092748433 1.1699446
-0.096406415 -0.092304014 1.1643387
-0.091864251 -0.091864251 1.1587914
-0.087364919 -0.091428407 1.1532936
-0.082907982 -0.090996563 1.1478463
-0.078492992 -0.090568841 1.1424509
-0.074119329 -0.090145133 1.1371062
-0.069786392 -0.08972536 1.1318111
-0.065934703 -0.089910962 1.1341523
-0.062094606 -0.090137333 1.1370078
-0.058235135 -0.090364866 1.1398779
-0.054356121 -0.090593532 1.1427624
-0.050457422 -0.09082336 1.1456615
-0.046538908 -0.091054387 1.1485757
-0.042600401 -0.09128657 1.1515045
-0.038641762 -0.091519959 1.1544485
-0.034503415 -0.09133257 1.1520847
-0.030308764 -0.090926297 1.1469599
-0.026151266 -0.090523608 1.1418804
-0.022030428 -0.09012448 1.1368457
-0.017945772 -0.089728855 1.1318552
-0.013896723 -0.089336082 1.1269007
-0.0098830396 -0.088947356 1.1219972
-0.0059041237 -0.088561855 1.1171345
-0.0019595509 -0.088179789 1.1123151
0.0019511392 -0.087801263 1.1075402
0.0058283727 -0.08742559 1.1028014
0.0096725943 -0.087053351 1.0981059
0.013484198 -0.08668413 1.0934485
0.017342407 -0.08671204 1.0938005
0.021262992 -0.086984962 1.0972433
0.025208335 -0.08725962 1.1007079
0.029178673 -0.087536022 1.1041944
0.033174191 -0.087814033 1.1077013
0.037195165 -0.08809381 1.1112305
0.041241843 -0.088375375 1.1147822
-0.10572155 -0.089137778 1.1766969
-0.10108569 -0.088707849 1.1710215
-0.096494637 -0.088282324 1.1654042
-0.091947913 -0.087861337 1.1598468
-0.087444223 -0.087444223 1.1543405
-0.082982883 -0.087030828 1.1488833
-0.078563541 -0.086621337 1.1434777
-0.074185632 -0.086215734 1.1381234
-0.069848523 -0.085813902 1.1328188
-0.0658307 -0.085779399 1.1323633
-0.061996419 -0.085995033 1.1352099
-0.058142811 -0.086211756 1.1380708
-0.054269735 -0.086429574 1.1409463
-0.05037703 -0.086648494 1.1438361
-0.046464566 -0.086868539 1.1467409
-0.04253218 -0.087089702 1.1496605
-0.038579721 -0.087311998 1.152595
-0.034532882 -0.08734788 1.1530687
-0.030334532 -0.086958997 1.147935
-0.026173402 -0.086573556 1.1428469
-0.022048993 -0.08619152 1.1378037
-0.017960828 -0.085812844 1.1328049
-0.013908443 -0.085437581 1.127851
-0.009891253 -0.085064776 1.1229297
-0.0059090164 -0.084695898 1.1180602
-0.0019611679 -0.084330224 1.113233
0.0019527384 -0.083967753 1.108448
0.0058331387 -0.083608322 1.1037033
0.0096804705 -0.08325205 1.0990001
0.01349513 -0.082898661 1.0943351
0.017378837 -0.083032221 1.0960982
0.021307796 -0.083294109 1.0995554
0.025261622 -0.083557673 1.1030346
0.029240508 -0.083822787 1.1065344
0.033244714 -0.08408957 1.1100562
0.037274491 -0.084358059 1.1136004
0.041330088 -0.084628269 1.1171675
-0.10581941 -0.085070506 1.1777861
-0.1011788 -0.084659807 1.1721001
-0.096583009 -0.084253259 1.1664715
-0.092031717 -0.083851121 1.1609039
-0.087523662 -0.083452798 1.1553892
-0.083057925 -0.083057925 1.1499223
-0.078634232 -0.082666755 1.1445066
-0.074252054 -0.082279302 1.1391424
-0.069910772 -0.081895478 1.1338284
-0.065727033 -0.081660852 1.1305801
-0.061898537 -0.08186581 1.1334176
-0.058050789 -0.082071804 1.1362696
-0.054183621 -0.082278833 1.1391358
-0.050296891 -0.082486898 1.1420165
-0.046390466 -0.08269605 1.1449121
-0.042464178 -0.082906254 1.1478224
-0.038517877 -0.083117522 1.1507474
-0.034551416 -0.083329886 1.1536875
-0.030360349 -0.082984954 1.148912
-0.026195575 -0.082616813 1.1438152
-0.022067592 -0.082251929 1.1387634
-0.017975911 -0.081890263 1.1337562
-0.013920034 -0.081531629 1.128791
-0.0098994933 -0.081175849 1.1238652
-0.0059139179 -0.080823548 1.1189877
-0.0019627877 -0.080474302 1.1141524
0.0019543427 -0.080128051 1.1093587
0.0058379257 -0.079784989 1.104609
0.0096883597 -0.07944455 1.0998957
0.013506081 -0.079107046 1.0952231
0.017415417 -0.079336904 1.0984054
0.021352792 -0.079587683 1.1018773
0.025315106 -0.079839945 1.1053699
0.029302606 -0.080093786 1.1088843
0.033315539 -0.080349244 1.112421
0.037354156 -0.080606341 1.1159805
0.041418701 -0.080865085 1.1195627
-0.10591745 -0.080995694 1.1788772
-0.10127208 -0.080604307 1.1731807
-0.096671551 -0.080216825 1.1675409
-0.092115693 -0.079833604 1.1619632
-0.087603144 -0.079454012 1.1564384
-0.083133094 -0.079077817 1.1509629
-0.078705065 -0.078705065 1.1455376
-0.074318595 -0.078335814 1.1401632
-0.069973141 -0.077970073 1.1348399
-0.065668069 -0.077607714 1.1295658
-0.061800968 -0.077749602 1.131631
-0.05795905 -0.077944927 1.1344739
-0.054097779 -0.078141235 1.1373311
-0.05021701 -0.078338534 1.1402028
-0.046316598 -0.078536838 1.1430891
-0.042396389 -0.078736149 1.14599
-0.038456239 -0.078936487 1.1489059
-0.034495976 -0.079137832 1.1518364
-0.030386204 -0.079004131 1.1498904
-0.026217787 -0.078653365 1.144785
-0.02208622 -0.078305691 1.1397247
-0.017991018 -0.07796108 1.134709
-0.013931691 -0.077619419 1.1297362
-0.0099077486 -0.077280432 1.1248024
-0.0059188278 -0.076944761 1.1199167
-0.0019644101 -0.076611996 1.1150733
0.0019559511 -0.076282091 1.1102717
0.0058426932 -0.075955011 1.1055111
0.009696261 -0.075630836 1.1007928
0.013531173 -0.075387962 1.0972577
0.017452154 -0.075626008 1.1007224
0.021397958 -0.075865485 1.104208
0.025368812 -0.076106437 1.107715
0.029364966 -0.076348916 1.1112442
0.03338667 -0.076592952 1.1147962
0.037434164 -0.076838546 1.1183708
0.041507699 -0.077085726 1.1219684
-0.10136554 -0.076541327 1.1742634
-0.096760258 -0.07617297 1.1686122
-0.092199817 -0.075808734 1.1630243
-0.087682761 -0.075447962 1.1574894
-0.083208397 -0.075090505 1.1520056
-0.078776032 -0.07473623 1.1465704
-0.074385278 -0.074385278 1.1411862
-0.070035614 -0.074037649 1.1358531
-0.065726422 -0.073693261 1.1305696
-0.061703704 -0.073646359 1.12985
-0.057867605 -0.073831081 1.132684
-0.054012209 -0.074016728 1.1355321
-0.050137371 -0.074203312 1.1383946
-0.046242964 -0.074390858 1.1412718
-0.04232882 -0.074579351 1.1441636
-0.03839479 -0.074768797 1.1470701
-0.034440719 -0.074959211 1.1499913
-0.030412108 -0.075016536 1.1508707
-0.026240036 -0.074683174 1.1457565
-0.022104882 -0.074352778 1.1406877
-0.018006152 -0.074025296 1.1356635
-0.013943313 -0.073700368 1.1306787
-0.0099160159 -0.073378518 1.125741
-0.0059237452 -0.073059522 1.1208471
-0.0019660352 -0.072743304 1.1159958
0.0019575621 -0.072429799 1.1111861
0.0058474857 -0.07211899 1.1064179
0.0097041633 -0.071810804 1.1016898
0.013559686 -0.071672626 1.0995699
0.017489035 -0.071899362 1.1030484
0.021443304 -0.072127476 1.1065481
0.025422743 -0.072357036 1.1100699
0.029427597 -0.072588071 1.1136143
0.033458102 -0.072820581 1.1171813
0.037514515 -0.073054582 1.1207713
0.041597079 -0.073290095 1.1243844
-0.10145917 -0.072470836 1.175348
-0.096849121 -0.072121687 1.1696855
-0.092284083 -0.071776509 1.1640873
-0.08776252 -0.07143461 1.1585423
-0.083283842 -0.071095966 1.1530501
-0.078847125 -0.070760235 1.1476052
-0.074452095 -0.070427656 1.1422113
-0.070098191 -0.070098191 1.136868
-0.065784879 -0.069771841 1.1315751
-0.061606739 -0.069555998 1.1280745
-0.057776444 -0.069730192 1.1308997
-0.053926911 -0.069905251 1.1337389
-0.050058 -0.070081197 1.1365924
-0.046169572 -0.070258044 1.1394604
-0.042261463 -0.07043577 1.1423429
-0.038333539 -0.070614412 1.1452402
-0.034385636 -0.070793964 1.1481521
-0.030417608 -0.070974417 1.1510788
-0.026262324 -0.070706256 1.1467297
-0.022123575 -0.07039319 1.1416523
-0.018021313 -0.070082881 1.1366197
-0.013954997 -0.069774985 1.1316261
-0.0099242972 -0.069470078 1.1266811
-0.0059286715 -0.06916783 1.1217792
-0.0019676629 -0.068868205 1.1169198
0.001959176 -0.068571165 1.1121023
0.0058522853 -0.068276666 1.107326
0.0097120991 -0.067984693 1.1025908
0.013588312 -0.067941561 1.1018913
0.017526058 -0.068156898 1.1053836
0.021514446 -0.068455055 1.1102192
0.025550449 -0.068789676 1.1156461
0.029626107 -0.069127582 1.1211264
0.033741999 -0.069468819 1.1266607
-0.10155298 -0.068392821 1.1764348
-0.096938245 -0.068063021 1.1707618
-0.092368513 -0.067736909 1.1651523
-0.087842427 -0.067413956 1.1595972
-0.083359309 -0.067094073 1.1540948
-0.078918338 -0.066777058 1.1486417
-0.074519023 -0.066462912 1.1432381
-0.07016091 -0.066151716 1.1378852
-0.065843448 -0.065843448 1.1325825
-0.061566044 -0.065538049 1.1273293
-0.057685573 -0.0656422 1.1291209
-0.053841878 -0.065806739 1.1319512
-0.049978867 -0.065972105 1.1347957
-0.046096403 -0.066138312 1.1376547
-0.042194322 -0.066305362 1.1405281
-0.038272481 -0.066473261 1.143416
-0.034330733 -0.066642009 1.1463188
-0.030368913 -0.066811606 1.1492361
-0.026284652 -0.066722572 1.1477046
-0.022142295 -0.066426888 1.1426184
-0.018036455 -0.066133663 1.1375747
-0.013966712 -0.065843068 1.1325761
-0.0099325934 -0.065555118 1.127623
-0.0059336056 -0.065269664 1.1227129
-0.0019692935 -0.064986683 1.1178453
0.0019607926 -0.064706154 1.1130198
0.0058570937 -0.064428031 1.1082358
0.0097721191 -0.064495981 1.1094047
0.013747794 -0.064811029 1.1148238
0.017762495 -0.065129153 1.1202959
0.021816805 -0.065450415 1.1258219
0.025911309 -0.065774865 1.1314029
0.030046603 -0.066102527 1.1370391
-0.09702751 -0.063996866 1.17184
-0.092453092 -0.06368991 1.1662192
-0.087922491 -0.063385986 1.1606541
-0.08343491 -0.063084938 1.1551416
-0.078989685 -0.062786669 1.1496801
-0.074586079 -0.062491041 1.1442668
-0.070223741 -0.062198173 1.1389042
-0.065902106 -0.061908044 1.1335917
-0.061620645 -0.061620645 1.1283292
-0.057594985 -0.061567053 1.1273478
-0.05375712 -0.061721139 1.1301693
-0.049899988 -0.061875984 1.1330047
-0.046023469 -0.062031634 1.1358547
-0.042127393 -0.062188055 1.138719
-0.038211625 -0.062345281 1.1415979
-0.034275997 -0.062503293 1.1444912
-0.030320376 -0.06266211 1.1473993
-0.026307013 -0.062732108 1.148681
-0.022161052 -0.062453873 1.1435863
-0.018051693 -0.062178057 1.1385359
-0.013978448 -0.061904553 1.1335278
-0.0099409027 -0.061633594 1.1285663
-0.0059385481 -0.061365001 1.123648
-0.0019709268 -0.061098728 1.1187724
0.0019625239 -0.060838237 1.1140026
0.0059164488 -0.061136637 1.1194665
0.0099093532 -0.061437994 1.1249846
0.013941815 -0.061742324 1.1305572
0.018014424 -0.062049679 1.1361852
0.022127777 -0.062360097 1.1418692
0.026282495 -0.062673643 1.1476104
-0.097116962 -0.059923228 1.1729202
-0.092537828 -0.05963549 1.1672881
-0.088002689 -0.059350651 1.1617128
-0.083510667 -0.05906852 1.1561904
-0.079061143 -0.058789056 1.1507202
-0.074653246 -0.058512002 1.1452973
-0.070286691 -0.058237545 1.1399251
-0.065960914 -0.057965651 1.1346031
-0.061675344 -0.05769629 1.1293308
-0.057504684 -0.057504684 1.1255803
-0.053672623 -0.057648372 1.1283928
-0.049821362 -0.057792779 1.1312194
-0.045950767 -0.057937924 1.1340604
-0.042060681 -0.058083795 1.1369157
-0.038150955 -0.058230408 1.1397854
-0.034221444 -0.058377754 1.1426696
-0.030271992 -0.058525853 1.1455684
-0.026302453 -0.058674704 1.148482
-0.022179836 -0.058474116 1.1445557
-0.018066907 -0.058215588 1.1394954
-0.013990204 -0.057959415 1.1344811
-0.0099492259 -0.05770551 1.1295112
-0.0059434986 -0.057453819 1.1245847
-0.0019803974 -0.057431523 1.1241482
0.0019902 -0.057715803 1.1297127
0.0060002999 -0.0580029 1.1353322
0.010050493 -0.058292862 1.1410079
0.014141384 -0.058585733 1.1467404
0.018273588 -0.058881562 1.1525309
-0.097206555 -0.055842061 1.1740023
-0.092622727 -0.055573639 1.168359
-0.088083036 -0.055307951 1.1627734
-0.083586544 -0.055044796 1.1572409
-0.079132639 -0.054784134 1.1517608
-0.074720547 -0.054525804 1.1463298
-0.070349753 -0.054269809 1.1409478
-0.066019811 -0.05401621 1.1356163
-0.06173015 -0.053764969 1.1303343
-0.057480238 -0.053516082 1.1251018
-0.05358839 -0.05358839 1.126622
-0.049742982 -0.053722419 1.1294397
-0.045878295 -0.053857125 1.1322718
-0.041994173 -0.05399251 1.135118
-0.038090479 -0.054128572 1.1379786
-0.034167062 -0.054265335 1.1408538
-0.030223761 -0.054402769 1.1437432
-0.026260443 -0.054540921 1.1466476
-0.022198657 -0.054487612 1.1455269
-0.018082174 -0.054246519 1.1404582
-0.01400198 -0.054007638 1.1354361
-0.0099575641 -0.053770848 1.1304579
-0.0059957989 -0.05396219 1.1344806
-0.0020085836 -0.054231759 1.1401479
0.0020186675 -0.054504022 1.1458719
0.006086559 -0.05477903 1.1516535
0.010195709 -0.055056829 1.1574938
0.014346749 -0.055337459 1.1633937
-0.092707776 -0.051504318 1.1694318
-0.088163532 -0.051257867 1.163836
-0.083662562 -0.051013757 1.1582934
-0.079204269 -0.05077197 1.1528034
-0.074787959 -0.050532404 1.147364
-0.070412926 -0.050294947 1.1419724
-0.066078819 -0.05005971 1.1366313
-0.061785076 -0.049826674 1.13134
-0.057531115 -0.049595788 1.1260977
-0.053504426 -0.049541134 1.1248567
-0.04966484 -0.04966484 1.1276655
-0.045806047 -0.049789183 1.1304888
-0.041927882 -0.049914144 1.1333261
-0.0380302 -0.050039735 1.1361777
-0.034112848 -0.050165955 1.1390436
-0.030175686 -0.050292812 1.1419239
-0.026218565 -0.050420318 1.144819
-0.022217508 -0.050494336 1.1464996
-0.018097473 -0.050270759 1.1414232
-0.014049493 -0.050176758 1.1392889
-0.010085698 -0.050428495 1.1450046
-0.006081929 -0.050682742 1.1507775
-0.0020375829 -0.050939571 1.1566089
0.0020479604 -0.051199012 1.1624997
0.0061753336 -0.051461115 1.1684508
-0.092792973 -0.047427516 1.1705065
-0.088244162 -0.047200367 1.1649004
-0.083738722 -0.046975382 1.1593478
-0.079276025 -0.046752527 1.1538478
-0.074855469 -0.046531778 1.1483997
-0.070476219 -0.046312947 1.1429989
-0.06613794 -0.046096142 1.1376482
-0.061840095 -0.045881361 1.1323475
-0.057582103 -0.045668565 1.1270957
-0.053420722 -0.045506541 1.1230969
-0.049586955 -0.045619998 1.125897
-0.045734029 -0.045734029 1.1287113
-0.041861795 -0.04584863 1.1315397
-0.037970103 -0.045963809 1.1343822
-0.034058813 -0.046079569 1.1372392
-0.030127764 -0.046195906 1.1401104
-0.026176821 -0.046312839 1.1429963
-0.022205826 -0.046430364 1.1458968
-0.018231915 -0.046592671 1.1499026
-0.014252183 -0.046828602 1.1557252
-0.01023194 -0.047066923 1.161607
-0.0061705676 -0.047307685 1.167549
-0.0020674313 -0.04755092 1.173552
0.0020781162 -0.04779667 1.1796172
-0.083815016 -0.042929642 1.1604041
-0.079347916 -0.042725801 1.1548941
-0.074923031 -0.042523883 1.1494362
-0.070539623 -0.042323776 1.1440272
-0.066197164 -0.042125467 1.1386669
-0.061895203 -0.04192901 1.1333566
-0.057633184 -0.041734375 1.1280955
-0.053410556 -0.041541543 1.1228832
-0.049509309 -0.041587818 1.1241341
-0.045662232 -0.041691605 1.1269394
-0.041875802 -0.041875802 1.1319183
-0.038076509 -0.04208456 1.1375612
-0.034239143 -0.042295411 1.1432606
-0.030363152 -0.042508412 1.149018
-0.026447929 -0.042723577 1.154834
-0.022492871 -0.042940933 1.1607093
-0.018497363 -0.043160513 1.1666446
-0.014460785 -0.043382354 1.172641
-0.010382485 -0.043606438 1.1786981
-0.0062618279 -0.043832794 1.1848166
-0.079419933 -0.038691763 1.1559423
-0.074990712 -0.038508743 1.1504745
-0.07060314 -0.038327418 1.1450573
-0.066256486 -0.038147673 1.1396873
-0.061950419 -0.037969612 1.1343676
-0.057684354 -0.037793197 1.1290971
-0.053799443 -0.037858866 1.1310591
-0.050062452 -0.038047463 1.1366935
-0.046288036 -0.038237944 1.1423842
-0.042475652 -0.038430352 1.1481326
-0.03862473 -0.03862473 1.1539397
-0.034734655 -0.038821083 1.1598059
-0.03080482 -0.039019439 1.1657319
-0.026834624 -0.039219834 1.1717188
-0.022823434 -0.039422296 1.1777675
-0.018770618 -0.039626859 1.183879
-0.07505852 -0.034486346 1.1515148
-0.070666738 -0.034323841 1.1460887
-0.066315919 -0.034162745 1.1407096
-0.062030111 -0.034016512 1.1358268
-0.058318466 -0.034186687 1.1415091
-0.054569509 -0.03435858 1.1472486
-0.050782684 -0.034532227 1.1530467
-0.046957385 -0.034707632 1.1589036
-0.043093029 -0.034884833 1.1648204
