# .PCD v0.7 - Point Cloud Data file format
VERSION 0.7
FIELDS x y z
SIZE 4 4 4
TYPE F F F
COUNT 1 1 1
WIDTH 813
HEIGHT 1
VIEWPOINT 0 0 0 1 0 0 0
POINTS 813
DATA ascii
0.2969743 -0.14090022 1.2304659
0.30136842 -0.14092767 1.2307056
0.30576426 -0.14095515 1.2309456
0.3101618 -0.14098263 1.2311856
0.31456101 -0.14101011 1.2314255
0.28034836 -0.13482401 1.2147809
0.28468326 -0.13484997 1.2150147
0.28901982 -0.13487592 1.2152486
0.29335803 -0.13490187 1.2154824
0.29769793 -0.13492784 1.2157164
0.3020395 -0.13495383 1.2159505
0.30638275 -0.13497981 1.2161847
0.31072766 -0.13500582 1.216419
0.31507427 -0.13503183 1.2166533
0.31942251 -0.13505784 1.2168877
0.32377243 -0.13508387 1.2171222
0.32812405 -0.1351099 1.2173568
0.27331066 -0.13127521 1.2215862
0.27670109 -0.13084315 1.2175658
0.28006852 -0.13041359 1.2135684
0.28341421 -0.12998697 1.2095985
0.28673807 -0.12956312 1.2056544
0.29004031 -0.12914203 1.201736
0.29411578 -0.1290724 1.201088
0.29840446 -0.12909696 1.2013165
0.30269474 -0.12912153 1.2015451
0.3069866 -0.12914608 1.2017736
0.31128013 -0.12917067 1.2020024
0.3155753 -0.12919526 1.2022312
0.31987211 -0.12921986 1.2024602
0.32417053 -0.12924446 1.2026891
0.32847062 -0.12926908 1.2029182
0.33277231 -0.1292937 1.2031473
0.33707565 -0.12931834 1.2033765
0.34138066 -0.12934299 1.2036059
0.27017638 -0.12752324 1.2268984
0.27359164 -0.12710162 1.222842
0.27698424 -0.12668271 1.2188118
0.28035444 -0.12626651 1.2148074
0.28370261 -0.12585303 1.2108294
0.28702888 -0.12544225 1.2068772
0.29033351 -0.12503414 1.2029508
0.29361674 -0.12462869 1.1990499
0.29687873 -0.12422585 1.1951742
0.3001197 -0.12382561 1.1913235
0.30333984 -0.12342793 1.1874975
0.30757633 -0.12344901 1.1877003
0.3118197 -0.12347223 1.1879237
0.31606466 -0.12349546 1.1881472
0.32031119 -0.12351869 1.1883707
0.32455933 -0.12354194 1.1885943
0.32880908 -0.1235652 1.1888181
0.33306041 -0.12358845 1.1890419
0.33731338 -0.12361173 1.1892658
0.3415679 -0.123635 1.1894897
0.34582406 -0.1236583 1.1897138
0.3500818 -0.12368159 1.1899379
0.26701468 -0.12373851 1.232257
0.2704553 -0.12332761 1.228165
0.27387315 -0.12291944 1.2241002
0.27726811 -0.12251382 1.2200608
0.28064096 -0.12211095 1.2160488
0.28399158 -0.12171068 1.2120627
0.28732032 -0.12131302 1.2081026
0.29062733 -0.12091795 1.2041682
0.29391289 -0.12052543 1.2002593
0.29717723 -0.12013548 1.196376
0.30042046 -0.11974801 1.1925174
0.30364287 -0.11936305 1.1886837
0.30684459 -0.11898056 1.1848747
0.31002587 -0.1186005 1.1810899
0.31318694 -0.11822288 1.1773293
0.31654263 -0.11792764 1.1743891
0.32074007 -0.11794958 1.1746075
0.32493907 -0.11797152 1.174826
0.32913968 -0.11799347 1.1750447
0.33334181 -0.11801542 1.1752633
0.33754551 -0.11803739 1.175482
0.3417508 -0.11805937 1.1757009
0.34595761 -0.11808135 1.1759198
0.35016602 -0.11810333 1.1761388
0.35437602 -0.11812533 1.1763579
0.35858753 -0.11814734 1.176577
0.3628006 -0.11816934 1.1767961
0.26382524 -0.11992057 1.2376626
0.26729158 -0.11952062 1.2335348
0.27073482 -0.11912332 1.2294344
0.27415523 -0.11872865 1.2253611
0.27755332 -0.11833669 1.2213159
0.28092808 -0.1179469 1.2172929
0.28428113 -0.11755987 1.2132986
0.28761229 -0.11717538 1.2093303
0.29092175 -0.1167934 1.2053881
0.29420966 -0.11641389 1.2014712
0.29747629 -0.11603685 1.19758
0.30072182 -0.11566224 1.1937137
0.3039465 -0.11529005 1.1898724
0.30042019 -0.11240212 1.160067
0.30456403 -0.11242297 1.1602821
0.30870938 -0.11244381 1.1604973
0.31285632 -0.11246469 1.1607127
0.31700423 -0.11248537 1.1609262
0.32115355 -0.11250602 1.1611394
0.32530448 -0.11252671 1.1613529
0.3294569 -0.11254739 1.1615663
0.33361086 -0.11256809 1.1617799
0.33776635 -0.11258879 1.1619935
0.34192339 -0.11260949 1.1622072
0.34608185 -0.1126302 1.1624209
0.35067761 -0.11279105 1.164081
0.35581815 -0.11312138 1.1674902
0.36098894 -0.11345366 1.1709197
0.36619002 -0.11378785 1.1743687
0.26060772 -0.11606899 1.2431158
0.26410002 -0.11568017 1.2389516
0.26756901 -0.11529396 1.2348151
0.2710149 -0.11491031 1.2307062
0.27443826 -0.11452935 1.226626
0.27783895 -0.11415089 1.2225727
0.28121576 -0.11377431 1.2185395
0.28457129 -0.11340059 1.2145369
0.28790492 -0.11302934 1.2105607
0.29121673 -0.11266049 1.2066103
0.29450706 -0.11229406 1.2026857
0.29777598 -0.11192998 1.1987864
0.28879169 -0.10703468 1.1463571
0.29286948 -0.10704884 1.1465087
0.29696348 -0.10706846 1.1467189
0.30105895 -0.10708808 1.146929
0.30515596 -0.10710772 1.1471393
0.30925447 -0.10712736 1.1473497
0.31335405 -0.10714687 1.1475586
0.31745499 -0.10716633 1.1477671
0.32155737 -0.10718579 1.1479754
0.32566127 -0.10720526 1.1481841
0.32976666 -0.10722475 1.1483927
0.33451647 -0.10745074 1.1508131
0.33955145 -0.10776184 1.154145
0.34461573 -0.10807476 1.1574965
0.34970951 -0.1083895 1.1608673
0.35483301 -0.10870607 1.1642579
0.35998648 -0.10902448 1.1676681
0.36517006 -0.10934471 1.1710978
0.37038413 -0.10966681 1.1745476
0.25736201 -0.11218344 1.2486187
0.2608802 -0.1118058 1.2444155
0.26437539 -0.11143094 1.2402433
0.26784703 -0.11105852 1.2360982
0.27129558 -0.11068859 1.2319808
0.27472258 -0.11032167 1.2278969
0.27812508 -0.10995642 1.2238317
0.28150401 -0.10959317 1.2197886
0.28486207 -0.10923282 1.2157779
0.28819811 -0.10887484 1.2117935
0.29151234 -0.10851919 1.2078351
0.29480499 -0.10816587 1.2039025
0.2980763 -0.10781483 1.1999954
0.28908229 -0.10309928 1.1475106
0.29218048 -0.10276692 1.1438115
0.29525873 -0.1024367 1.140136
0.29831722 -0.10210858 1.136484
0.30168343 -0.10189307 1.1340854
0.30573463 -0.10191154 1.1342909
0.30978698 -0.10192991 1.1344954
0.3138406 -0.10194822 1.1346991
0.31871957 -0.1022308 1.1378443
0.32365248 -0.10252345 1.1411016
0.32861367 -0.10281778 1.1443775
0.3336035 -0.10311381 1.1476723
0.33862209 -0.10341153 1.1509861
0.34366974 -0.10371099 1.154319
0.34874675 -0.10401219 1.1576715
0.35385332 -0.10431513 1.1610433
0.35898957 -0.10461982 1.1644344
0.36415574 -0.10492624 1.1678449
0.36935234 -0.10523447 1.1712756
0.25763276 -0.10789748 1.2499323
0.26115382 -0.10753393 1.2457207
0.26465118 -0.10717279 1.2415372
0.26812655 -0.10681465 1.2373883
0.27157679 -0.10645811 1.2332579
0.2750068 -0.10610498 1.2291672
0.27841181 -0.10575332 1.2250934
0.28179303 -0.1054035 1.2210408
0.28515342 -0.10505652 1.2170213
0.2884919 -0.10471188 1.2130288
0.29180855 -0.10436948 1.2090623
0.29510364 -0.10402934 1.205122
0.28625292 -0.099477969 1.1523969
0.28937349 -0.099155948 1.1486665
0.29247382 -0.098835975 1.1449598
0.29555422 -0.098518074 1.1412771
0.29861486 -0.098202199 1.1376178
0.30165589 -0.097888336 1.1339819
0.30467761 -0.097576484 1.1303693
0.30810884 -0.097402148 1.1283497
0.31297034 -0.097678639 1.1315527
0.3178595 -0.097956695 1.1347739
0.32277659 -0.098236352 1.1380135
0.32772183 -0.098517612 1.1412717
0.33269548 -0.098800473 1.1445485
0.33769777 -0.099084973 1.1478443
0.34272894 -0.099371113 1.151159
0.34778929 -0.099658914 1.1544931
0.35287899 -0.099948384 1.1578465
0.3579981 -0.10023947 1.1612185
0.36314711 -0.10053225 1.1646101
0.36832628 -0.10082675 1.1680218
0.3735359 -0.10112298 1.1714535
0.25790408 -0.10360249 1.2512486
0.26142752 -0.10325289 1.2470263
0.2649276 -0.10290576 1.2428339
0.26840484 -0.1025612 1.2386725
0.27366933 -0.10289966 1.2427603
0.27974227 -0.10352667 1.2503328
0.28565601 -0.10407622 1.25697
0.28208411 -0.10120575 1.2223022
0.28544536 -0.10087167 1.2182673
0.28878629 -0.10054041 1.2142667
0.29210737 -0.10021202 1.2103006
0.29540399 -0.099884801 1.2063485
0.28654248 -0.095514156 1.1535625
0.28966525 -0.095204659 1.1498246
0.29276776 -0.094897136 1.1461105
0.29585028 -0.094591588 1.1424203
0.29891303 -0.094287999 1.1387538
0.30195618 -0.093986362 1.1351107
0.30497992 -0.09368664 1.1314909
0.30798426 -0.093388774 1.1278934
0.31213039 -0.093440309 1.1285158
0.31700402 -0.093705595 1.1317198
0.3219054 -0.093972385 1.1349419
0.32683477 -0.094240703 1.1381825
0.33179238 -0.094510563 1.1414417
0.33677849 -0.094781965 1.1447196
0.34179327 -0.095054932 1.1480163
0.34683704 -0.095329478 1.1513321
0.35190988 -0.095605575 1.1546667
0.35701209 -0.09588325 1.1580203
0.36214402 -0.096162535 1.1613933
0.36730593 -0.096443459 1.1647861
0.37249807 -0.096726023 1.1681987
0.25817597 -0.099298455 1.2525678
0.26170221 -0.098963022 1.2483366
0.26520661 -0.098630555 1.2441428
0.26967871 -0.098662943 1.2445513
0.27535355 -0.099127278 1.2504085
0.2809884 -0.099562816 1.2559025
0.28661186 -0.099980876 1.261176
0.29222608 -0.10038301 1.2662485
0.28573906 -0.096678637 1.2195209
0.28908327 -0.096361093 1.2155154
0.29240325 -0.096044861 1.2115264
0.29570496 -0.095731825 1.2075777
0.2868326 -0.091542318 1.1547306
0.28995761 -0.091245405 1.1509852
0.2930623 -0.09095037 1.1472636
0.29614696 -0.090657227 1.1435659
0.29921183 -0.090365984 1.1398921
0.30225706 -0.090076603 1.1362418
0.30528283 -0.08978907 1.1326147
0.30828914 -0.089503296 1.12901
0.311295 -0.089224681 1.1254954
0.31615314 -0.089477308 1.1286821
0.32103893 -0.08973138 1.1318871
0.32595256 -0.089986905 1.1351103
0.33089417 -0.090243869 1.1383517
0.33586419 -0.090502329 1.1416119
0.34086269 -0.09076225 1.1448907
0.34589002 -0.091023691 1.1481885
0.35094613 -0.091286562 1.1515044
0.35603151 -0.091550954 1.1548395
0.36114648 -0.091816902 1.1581942
0.36629122 -0.092084385 1.1615683
0.37146598 -0.092353418 1.1649619
0.37667114 -0.092624053 1.1683757
0.25844842 -0.094985321 1.2538896
0.26197746 -0.094664127 1.2496495
0.26548269 -0.094345093 1.245438
0.27049389 -0.094562903 1.2483133
0.27596942 -0.09493348 1.2532053
0.28143808 -0.095290057 1.2579124
0.28691113 -0.095637046 1.2624929
0.29237708 -0.095971107 1.2669028
0.28603312 -0.092476882 1.220776
0.28937736 -0.092172049 1.2167519
0.29270321 -0.091870353 1.2127693
0.2960048 -0.091569826 1.2088021
0.28712332 -0.087562434 1.155901
0.29025054 -0.087278135 1.152148
0.29335746 -0.086995654 1.148419
0.29644424 -0.086714983 1.1447139
0.29951119 -0.086436115 1.1410326
0.30255851 -0.086159043 1.137375
0.30558631 -0.085883737 1.1337407
0.30859464 -0.085610129 1.1301289
0.31158385 -0.08533825 1.1265398
0.31530687 -0.085271671 1.1256609
0.32017711 -0.085513145 1.1288486
0.32507506 -0.085755996 1.1320544
0.33000088 -0.086000226 1.1352785
0.33495483 -0.08624585 1.138521
0.33993721 -0.086492896 1.1417822
0.34494802 -0.086741313 1.1450615
0.34998766 -0.086991154 1.1483595
0.35505635 -0.08724241 1.1516764
0.36015436 -0.087495126 1.1550125
0.36528209 -0.087749325 1.1583681
0.37043962 -0.088004991 1.1617432
0.37562731 -0.088262156 1.1651379
0.38084546 -0.08852084 1.1685528
0.25872147 -0.090663083 1.2552143
0.26225331 -0.090356186 1.2509654
0.26576272 -0.09005183 1.2467517
0.27073002 -0.090243347 1.2494031
0.27607468 -0.090552494 1.2536832
0.28141606 -0.090850852 1.2578139
0.28675622 -0.091139577 1.2618113
0.29208821 -0.091416925 1.2656511
0.28632629 -0.088265993 1.2220271
0.2896753 -0.087975465 1.2180047
0.29300153 -0.087686591 1.2140054
0.29630604 -0.087399624 1.2100323
0.28741464 -0.083574466 1.1570737
0.29054406 -0.083302848 1.1533132
0.29365316 -0.083032966 1.1495767
0.29674211 -0.082764812 1.1458641
0.29981118 -0.082498379 1.1421754
0.30286056 -0.08223366 1.1385105
0.30589041 -0.081970632 1.1348689
0.30890074 -0.081709228 1.1312498
0.31189191 -0.081449479 1.1276536
0.31486416 -0.081191391 1.1240804
0.31931993 -0.081317499 1.1258264
0.32420227 -0.081547812 1.129015
0.32911238 -0.081779435 1.1322218
0.33405045 -0.082012385 1.1354469
0.33901671 -0.082246654 1.1386904
0.34401116 -0.082482211 1.1419516
0.34903431 -0.082719117 1.1452315
0.35408646 -0.082957394 1.1485305
0.35916772 -0.083197042 1.1518483
0.36427847 -0.083438084 1.1551855
0.36941889 -0.083680525 1.158542
0.37458929 -0.083924375 1.1619182
0.37978992 -0.084169656 1.165314
0.25899509 -0.086331695 1.2565417
0.26253062 -0.086039454 1.2522882
0.26604086 -0.08574871 1.2480565
0.27055743 -0.085786499 1.2486066
0.27577531 -0.086041905 1.2523239
0.28098625 -0.086287111 1.2558929
0.28618065 -0.086519726 1.2592785
0.29136282 -0.086741604 1.2625079
0.2866213 -0.084046848 1.2232863
0.28997228 -0.083769768 1.2192534
0.29330102 -0.083494455 1.2152462
0.29660794 -0.083220936 1.2112652
0.28770655 -0.079578407 1.1582489
0.29083824 -0.079319514 1.1544808
0.29394948 -0.079062276 1.1507367
0.29704058 -0.078806683 1.1470166
0.30011177 -0.078552745 1.1433206
0.30316323 -0.078300439 1.1396483
0.30619511 -0.078049734 1.1359993
0.30920744 -0.077800579 1.132373
0.31220061 -0.077553019 1.1287698
0.31517482 -0.077307031 1.1251894
0.31846732 -0.077144258 1.1228203
0.32333416 -0.077362157 1.1259918
0.32822859 -0.077581301 1.1291814
0.33315083 -0.077801697 1.1323892
0.33810109 -0.078023329 1.135615
0.34307939 -0.078246176 1.1388586
0.34808624 -0.078470305 1.1421207
0.35312185 -0.078695722 1.1454016
0.35818651 -0.078922451 1.1487015
0.36328036 -0.079150468 1.1520203
0.36840376 -0.079379812 1.1553584
0.373557 -0.079610504 1.1587161
0.37874022 -0.07984253 1.1620932
0.38445717 -0.080180906 1.1670182
0.2592698 -0.081991307 1.2578746
0.26280692 -0.081713073 1.2536061
0.26632065 -0.081436895 1.249369
0.26999459 -0.081217885 1.2460091
0.27506703 -0.081419848 1.2491075
0.28011289 -0.081607692 1.2519894
0.28511867 -0.081778221 1.2546055
0.29006422 -0.081926532 1.2568809
0.2869162 -0.079818785 1.2245448
0.29026997 -0.079555474 1.2205051
0.2936011 -0.079293728 1.2164896
0.29691043 -0.07903371 1.2125005
0.28799903 -0.075574212 1.1594263
0.29113293 -0.075328104 1.1556506
0.29424638 -0.075083561 1.151899
0.29733968 -0.074840598 1.1481715
0.30041298 -0.074599199 1.1444681
0.3034665 -0.074359342 1.1407883
0.30650038 -0.074121006 1.1371319
0.30951476 -0.073884167 1.1334984
0.31250992 -0.073648833 1.1298881
0.31548604 -0.073414996 1.1263006
0.31844336 -0.073182635 1.1227359
0.32247069 -0.07319887 1.1229849
0.32734957 -0.073405661 1.1261574
0.33225611 -0.073613629 1.1293479
0.33719033 -0.073822737 1.132556
0.34215263 -0.074033022 1.1357821
0.34714326 -0.074244507 1.1390266
0.35216251 -0.074457213 1.1422899
0.35721055 -0.074671134 1.1455717
0.36228776 -0.074886292 1.1488726
0.36779717 -0.075185053 1.1534561
0.37356088 -0.075528704 1.1587281
0.3793776 -0.075875521 1.1640489
0.38524857 -0.076225653 1.1694205
0.25954404 -0.077641383 1.2592051
0.26308435 -0.077377751 1.2549294
0.26660064 -0.077115886 1.2506825
0.27009317 -0.076855779 1.246464
0.27382562 -0.076671176 1.2434701
0.27859494 -0.076778129 1.2452047
0.28320703 -0.076839119 1.2461938
0.28748602 -0.076809242 1.2457093
0.2872121 -0.075582139 1.2258078
0.29056773 -0.075332373 1.2217571
0.29390186 -0.075084418 1.2177356
0.29721352 -0.074837938 1.2137382
0.28829214 -0.07156188 1.1606064
0.29142827 -0.071328595 1.1568229
0.29454392 -0.071096808 1.1530638
0.29763934 -0.07086651 1.1493287
0.30071476 -0.070637695 1.1456177
0.30377039 -0.070410356 1.1419307
0.30680627 -0.070184439 1.1382668
0.30982271 -0.069959961 1.1346262
0.31281984 -0.069736913 1.1310086
0.31579792 -0.069515266 1.127414
0.31875718 -0.069295034 1.1238422
0.32169771 -0.069076195 1.120293
0.32647529 -0.069252335 1.1231496
0.33136612 -0.069447987 1.1263229
0.33628452 -0.069644719 1.1295135
0.34123084 -0.06984257 1.1327223
0.34620538 -0.070041552 1.1359494
0.35151997 -0.070303999 1.1402057
0.35714364 -0.070621625 1.1453571
0.36281839 -0.070942141 1.1505554
0.36854482 -0.071265571 1.1558008
0.37432379 -0.071591981 1.1610945
0.38015652 -0.071921505 1.1664388
0.25981924 -0.073282354 1.2605402
0.26336232 -0.073033251 1.2562554
0.26688138 -0.072785832 1.2519995
0.27037665 -0.072540082 1.2477723
0.27385005 -0.072296411 1.2435809
0.27729854 -0.072053954 1.2394104
0.28072587 -0.071813598 1.235276
0.28412884 -0.071574435 1.2311622
0.28750798 -0.071336567 1.2270706
0.29086596 -0.071100563 1.223011
0.29420316 -0.070866458 1.2189841
0.29751727 -0.070633598 1.2149787
0.28858584 -0.067541361 1.1617887
0.29172415 -0.067320958 1.1579975
0.29484203 -0.067101985 1.1542308
0.2979396 -0.066884398 1.1504881
0.30101717 -0.066668227 1.1467698
0.30407488 -0.066453449 1.1430753
0.30711281 -0.06624002 1.1394041
0.31013125 -0.066027947 1.1357561
0.31313038 -0.065817215 1.1321313
0.3161104 -0.065607823 1.1285295
0.31907159 -0.065399766 1.1249508
0.322014 -0.06519302 1.1213945
0.3256056 -0.065121122 1.1201577
0.33048081 -0.065304592 1.1233137
0.33561251 -0.065533802 1.1272564
0.34110102 -0.065826513 1.1322913
0.34663871 -0.066121832 1.1373712
0.35222635 -0.066419825 1.1424969
0.35786456 -0.066720508 1.1476691
0.36355406 -0.067023933 1.1528883
0.36929554 -0.067330129 1.1581552
0.37509036 -0.067639247 1.1634724
0.38093868 -0.067951225 1.1688387
0.26364088 -0.068679564 1.2575842
0.26716274 -0.068446651 1.2533194
0.27066073 -0.068215303 1.2490833
0.27413657 -0.06798587 1.2448821
0.27758929 -0.067758016 1.2407099
0.28101757 -0.067531355 1.2365595
0.28442311 -0.067306235 1.2324374
0.28780642 -0.067082696 1.2283442
0.29116675 -0.066860512 1.2242758
0.29450512 -0.066639848 1.2202352
0.28571889 -0.063721478 1.1667973
0.28888011 -0.063512646 1.1629734
0.29202065 -0.063305177 1.1591744
0.29514077 -0.063099064 1.1554003
0.29824048 -0.062894255 1.1516501
0.30132017 -0.062690772 1.1479242
0.30437997 -0.062488604 1.1442223
0.30741996 -0.062287703 1.1405436
0.31044039 -0.06208808 1.1368883
0.31344149 -0.061889723 1.1332562
0.31642354 -0.061692636 1.1296474
0.31938663 -0.061496805 1.1260616
0.32233095 -0.061302207 1.1224983
0.3254202 -0.061139554 1.1195199
0.33082563 -0.061410747 1.1244857
0.33627927 -0.061684363 1.1294959
0.34178165 -0.061960418 1.1345507
0.34733352 -0.062238954 1.1396509
0.35293555 -0.062520012 1.1447973
0.3585884 -0.062803619 1.1499904
0.36429274 -0.063089803 1.1552308
0.37004989 -0.063378714 1.1605209
0.3758601 -0.063670285 1.1658599
0.38172403 -0.063964568 1.1712484
0.2674447 -0.064098313 1.2546421
0.2709454 -0.063881442 1.2503971
0.27442372 -0.063666306 1.2461861
0.27787805 -0.063452467 1.2420005
0.28130957 -0.063240141 1.2378445
0.28471804 -0.063029185 1.2337153
0.28810385 -0.062819637 1.2296137
0.29146656 -0.062611334 1.2255365
0.29480726 -0.062404457 1.221487
0.28601149 -0.059671465 1.1679922
0.289175 -0.059475709 1.1641606
0.29231778 -0.05928123 1.1603539
0.29544011 -0.059088022 1.1565721
0.29854199 -0.058896039 1.1528143
0.30162379 -0.058705304 1.1490809
0.30468568 -0.058515791 1.1453714
0.30772766 -0.05832747 1.1416852
0.31075016 -0.058140352 1.1380227
0.31375328 -0.057954427 1.1343834
0.31673726 -0.05776969 1.1307675
0.3197023 -0.05758613 1.1271745
0.32264853 -0.057403725 1.1236042
0.32606223 -0.057307906 1.1217287
0.33148128 -0.057562616 1.1267142
0.33694863 -0.057819586 1.1317441
0.34246504 -0.05807887 1.1368192
0.34803116 -0.058340482 1.14194
0.35364759 -0.05860446 1.147107
0.35931516 -0.058870841 1.1523211
0.36503494 -0.05913974 1.1575844
0.37080735 -0.059411123 1.1628964
0.37663299 -0.059685007 1.1682574
0.38251263 -0.059961438 1.1736681
0.2677272 -0.059740782 1.2559675
0.2712307 -0.059538446 1.2517136
0.2747114 -0.059337661 1.2474924
0.2781685 -0.059138186 1.2432988
0.28160256 -0.058940068 1.2391336
0.28501356 -0.058743253 1.2349958
0.28840187 -0.05854775 1.2308856
0.29176772 -0.058353543 1.2268027
0.29511043 -0.058160447 1.2227432
0.28630471 -0.055613149 1.1691897
0.28947046 -0.055430517 1.1653501
0.2926155 -0.055249084 1.1615357
0.29574004 -0.055068832 1.1577462
0.2988441 -0.054889731 1.1539809
0.30192801 -0.054711789 1.1502398
0.30499202 -0.054534994 1.146523
0.30803603 -0.054359302 1.1428293
0.31106055 -0.054184742 1.1391594
0.31406569 -0.054011296 1.1355129
0.31705165 -0.053838961 1.1318898
0.32001856 -0.053667706 1.1282895
0.32296675 -0.05349756 1.1247123
0.32670686 -0.053461123 1.1239463
0.33213946 -0.053699192 1.1289514
0.33762068 -0.053939398 1.1340014
0.34315115 -0.054181762 1.1390967
0.34873155 -0.054426312 1.1442381
0.35436258 -0.054673083 1.1494261
0.36004531 -0.054922163 1.1546627
0.36578026 -0.055173561 1.159948
0.37156796 -0.055427264 1.1652818
0.3774091 -0.055683311 1.1706648
0.38330448 -0.055941734 1.1760978
0.27151656 -0.055186294 1.2530329
0.27499962 -0.054999925 1.2488014
0.27845961 -0.054814883 1.2445998
0.28189614 -0.054631036 1.2404255
0.2853097 -0.054448415 1.236279
0.28870055 -0.054267019 1.2321603
0.29206887 -0.054086827 1.2280689
0.29541489 -0.05390783 1.2240047
0.28659853 -0.051546499 1.1703895
0.28976658 -0.051377054 1.1665422
0.29291385 -0.051208716 1.16272
0.29604053 -0.051041473 1.1589227
0.2991468 -0.050875302 1.1551497
0.30223289 -0.050710216 1.1514013
0.30529895 -0.050546184 1.1476768
0.30834505 -0.050383177 1.1439757
0.31137156 -0.05022122 1.1402984
0.31437871 -0.050060306 1.1366447
0.3173666 -0.049900409 1.1330142
0.32033551 -0.049741536 1.1294069
0.32328555 -0.049583673 1.1258225
0.32735392 -0.049599081 1.1261724
0.33280027 -0.049820401 1.1311976
0.3382954 -0.050043698 1.1362677
0.34384003 -0.050269011 1.1413835
0.34943479 -0.050496358 1.1465455
0.35508081 -0.050725829 1.1517558
0.3607786 -0.050957426 1.1570144
0.36652863 -0.051191147 1.1623211
0.37233165 -0.051427025 1.1676768
0.3781884 -0.051665083 1.173082
0.38409966 -0.05190536 1.1785376
0.27180302 -0.050824959 1.254355
0.27528843 -0.050653074 1.2501129
0.27875113 -0.050482489 1.2459029
0.28219029 -0.050313 1.2417198
0.28560647 -0.050144646 1.2375649
0.28899983 -0.049977414 1.2334377
0.29237062 -0.049811292 1.2293378
0.29571912 -0.049646273 1.2252651
0.28689295 -0.047471497 1.1715919
0.29006326 -0.047315285 1.1677365
0.29321277 -0.047160096 1.1639066
0.29634172 -0.047005925 1.1601017
0.29945013 -0.046852741 1.156321
0.30253837 -0.046700552 1.152565
0.30560648 -0.046549331 1.1488329
0.30865464 -0.046399064 1.1451243
0.31168318 -0.046249762 1.1414396
0.31469232 -0.046101421 1.1377785
0.31768221 -0.04595403 1.134141
0.32065305 -0.045807578 1.1305265
0.32360503 -0.04566206 1.1269351
0.32800362 -0.045721717 1.1284075
0.33346373 -0.045926142 1.1334527
0.33897284 -0.046132397 1.138543
0.34453166 -0.046340518 1.1436794
0.35014123 -0.046550568 1.1488634
0.35580212 -0.046762567 1.1540955
0.36151481 -0.046976499 1.1593754
0.36728004 -0.047192406 1.164704
0.37309852 -0.047410309 1.1700817
0.37897095 -0.047630228 1.1755093
0.3848981 -0.047852196 1.1809875
0.27557826 -0.046297148 1.251429
0.27904332 -0.046141021 1.2472088
0.28248513 -0.045985952 1.2430172
0.28590384 -0.045831911 1.2388535
0.28929973 -0.045678902 1.2347176
0.29267302 -0.045526914 1.2306093
0.29602396 -0.045375936 1.2265283
0.28718799 -0.043388113 1.1727967
0.29036057 -0.043245193 1.1689335
0.29351231 -0.043103207 1.1650956
0.2966435 -0.04296216 1.161283
0.29975408 -0.042822015 1.1574948
0.30284441 -0.042682771 1.153731
0.30591464 -0.042544421 1.1499914
0.30896488 -0.042406943 1.1462753
0.31199545 -0.042270351 1.1425831
0.31500658 -0.042134639 1.1389148
0.31799844 -0.041999795 1.1352699
0.32097125 -0.041865814 1.1316484
0.32392508 -0.04173268 1.1280497
0.3286559 -0.041828934 1.1306515
0.33412981 -0.042016324 1.1357167
0.33965299 -0.042205401 1.1408275
0.34522641 -0.042396225 1.1459856
0.3508507 -0.042588815 1.1511914
0.3565264 -0.042783167 1.1564448
0.36225411 -0.042979304 1.1617464
0.36803457 -0.04317724 1.1670967
0.37386853 -0.043377008 1.1724966
0.37975672 -0.04357864 1.1779467
0.27933615 -0.041790448 1.2485176
0.28278053 -0.041649844 1.2443171
0.28620183 -0.041510191 1.2401447
0.28960025 -0.041371465 1.2360003
0.29297605 -0.041233666 1.2318834
0.29632944 -0.041096784 1.2277939
0.2874836 -0.039296322 1.174004
0.2906585 -0.039166749 1.1701329
0.29381251 -0.039038025 1.1662872
0.29694584 -0.038910143 1.1624666
0.30005863 -0.038783088 1.1586708
0.30315113 -0.038656857 1.1548995
0.30622339 -0.038531419 1.151152
0.30927572 -0.038406786 1.1474285
0.31230831 -0.038282957 1.143729
0.31532148 -0.038159922 1.1400533
0.31831533 -0.03803768 1.1364012
0.32129002 -0.037916213 1.1327723
0.32424584 -0.037795529 1.1291667
0.32931075 -0.037920631 1.1329043
0.33479857 -0.038090855 1.1379899
0.34033614 -0.038262643 1.1431221
0.3459242 -0.038436022 1.148302
0.3515631 -0.038610976 1.1535288
0.35725361 -0.038787533 1.1588036
0.3629964 -0.038965717 1.1641269
0.36965233 -0.03923684 1.1722269
0.37908652 -0.039793614 1.1888609
0.28990141 -0.037055064 1.2372855
0.29327971 -0.036931518 1.2331603
0.29663554 -0.036808789 1.2290622
0.28777987 -0.035196099 1.1752138
0.290957 -0.035079923 1.1713346
0.29411328 -0.034964513 1.1674811
0.29724884 -0.034849863 1.1636528
0.30036384 -0.034735952 1.1598493
0.30345845 -0.034622777 1.1560702
0.3065328 -0.034510314 1.1523151
0.30958718 -0.034398578 1.1485841
0.31262186 -0.034287557 1.1448772
0.31563699 -0.034177255 1.1411941
0.31863284 -0.034067661 1.1375347
0.32160953 -0.033958767 1.1338987
0.3245672 -0.033850569 1.1302859
0.3299683 -0.033996735 1.1351664
0.33547023 -0.034149665 1.1402729
0.34102231 -0.034304019 1.1454269
0.34662482 -0.034459777 1.1506276
0.35227841 -0.034616951 1.1558758
0.36090857 -0.035059687 1.1706589
0.37020603 -0.03555651 1.1872481
0.28807673 -0.031087417 1.1764261
0.29125619 -0.0309847 1.172539
0.29441467 -0.030882657 1.1686774
0.29755244 -0.030781286 1.1648413
0.30066964 -0.030680576 1.1610302
0.30376637 -0.030580508 1.1572434
0.30684283 -0.030481078 1.1534806
0.3098993 -0.030382285 1.1497421
0.31293601 -0.030284131 1.1460277
0.31595317 -0.030186608 1.1423372
0.31895095 -0.030089714 1.1386704
0.32192957 -0.029993439 1.1350272
0.32516187 -0.029922873 1.1323568
0.33062854 -0.03005714 1.1374378
0.33614489 -0.030192656 1.1425661
0.34327978 -0.030468618 1.1530092
0.35218814 -0.030893695 1.1690952
0.36134964 -0.031330895 1.1856399
0.37077516 -0.031780727 1.2026627
0.2851713 -0.027060049 1.1815619
0.28837422 -0.026970251 1.1776409
0.29155594 -0.026881043 1.1737458
0.29471669 -0.026792426 1.1698763
0.29785663 -0.026704388 1.1660322
0.30097607 -0.026616931 1.1622134
0.30407494 -0.026530029 1.1584189
0.30715352 -0.026443681 1.1546485
0.31021202 -0.026357884 1.1509023
0.31325078 -0.026272647 1.1471804
0.31626996 -0.026187958 1.1434826
0.31926975 -0.026103815 1.1398085
0.32225031 -0.026020212 1.136158
0.32617465 -0.026013929 1.1358837
0.33471382 -0.026371391 1.1514921
0.34349096 -0.026738817 1.1675355
0.35251725 -0.02711671 1.184036
0.36180314 -0.027505502 1.2010124
0.28546706 -0.022920713 1.1827874
0.2886723 -0.02284457 1.1788582
0.29185632 -0.022768931 1.174955
0.29501933 -0.022693794 1.1710776
0.29816148 -0.022619147 1.1672256
0.30128309 -0.022544993 1.163399
0.30438417 -0.022471314 1.1595969
0.30746478 -0.022398096 1.1558186
0.31052539 -0.022325356 1.1520649
0.31356621 -0.022253085 1.1483356
0.31658742 -0.022181284 1.1446303
0.31958917 -0.022109943 1.1409489
0.32617041 -0.022284936 1.1499791
0.33481699 -0.022595011 1.1659801
0.34370866 -0.022913912 1.1824365
0.35285574 -0.023241995 1.1993667
0.28576344 -0.018772781 1.1840154
0.28897101 -0.018710352 1.180078
0.29215732 -0.018648339 1.1761668
0.29532257 -0.018586736 1.1722814
0.29846698 -0.018525537 1.1684215
0.30159074 -0.01846474 1.164587
0.304694 -0.018404335 1.1607772
0.30777672 -0.018344307 1.1569912
0.31083941 -0.018284671 1.15323
0.31388229 -0.018225422 1.1494931
0.31764942 -0.018209202 1.14847
0.32616609 -0.018462231 1.1644288
0.33492383 -0.01872245 1.1808411
0.28927034 -0.014567571 1.1813004
0.29245892 -0.014519238 1.177381
0.29562643 -0.014471224 1.1734875
0.29877308 -0.014423528 1.1696198
0.30189908 -0.014376146 1.1657776
0.30500442 -0.014329067 1.1619599
0.30808926 -0.014282283 1.1581662
0.31115404 -0.014235806 1.1543972
0.31753817 -0.014340433 1.1628816
0.32616276 -0.014542288 1.1792502
0.29907981 -0.010313096 1.1708206
0.30220798 -0.010279182 1.1669704
0.30531549 -0.010245486 1.1631449
0.30893317 -0.010229575 1.1613386
