# .PCD v0.7 - Point Cloud Data file format
VERSION 0.7
FIELDS x y z
SIZE 4 4 4
TYPE F F F
COUNT 1 1 1
WIDTH 629
HEIGHT 1
VIEWPOINT 0 0 0 1 0 0 0
POINTS 629
DATA ascii
0.20678248 -0.53478229 1.3491671
0.21082379 -0.53298151 1.344624
0.21483797 -0.53119278 1.3401114
0.21882528 -0.52941597 1.3356289
0.22278599 -0.52765101 1.3311762
0.22672042 -0.52589786 1.3267533
0.19748989 -0.53060532 1.3506351
0.20156606 -0.52881449 1.3460765
0.20561513 -0.52703649 1.3415507
0.20963763 -0.52527183 1.3370588
0.21363324 -0.5235188 1.3325965
0.21760227 -0.52177751 1.3281641
0.22154501 -0.52004772 1.3237611
0.2261335 -0.51987392 1.3233186
0.23093794 -0.52019352 1.3241322
0.19228952 -0.52464181 1.3475406
0.19637391 -0.52287513 1.3430029
0.20043087 -0.52112025 1.3384956
0.20446092 -0.51937771 1.3340199
0.20846471 -0.51764834 1.3295779
0.21244195 -0.51593047 1.3251656
0.21639287 -0.51422393 1.3207824
0.22109918 -0.51434654 1.3210973
0.22589244 -0.51466215 1.321908
0.23069161 -0.51497823 1.3227198
0.23549674 -0.51529485 1.3235331
0.18711293 -0.51870549 1.3444602
0.1912054 -0.51696271 1.3399432
0.19527045 -0.51523167 1.3354564
0.19930837 -0.51351213 1.3309994
0.20331958 -0.51180446 1.3265731
0.20730488 -0.51010978 1.3221806
0.21130541 -0.50852621 1.3180761
0.21608174 -0.50883764 1.3188833
0.22086388 -0.50914937 1.3196913
0.22565192 -0.50946158 1.3205005
0.23044582 -0.50977409 1.3213105
0.23524567 -0.51008713 1.322122
0.24005142 -0.51040059 1.3229344
0.18195994 -0.51279622 1.3413939
0.18606038 -0.51107723 1.3368974
0.19013342 -0.50936979 1.332431
0.19417934 -0.50767368 1.3279942
0.19819839 -0.50598884 1.3235869
0.20219091 -0.50431526 1.3192091
0.20631582 -0.50303972 1.3158724
0.21108107 -0.50334716 1.3166767
0.21585217 -0.50365508 1.3174821
0.22062911 -0.50396335 1.3182886
0.22541189 -0.50427198 1.3190958
0.23020054 -0.50458097 1.3199042
0.23499513 -0.5048905 1.3207139
0.23979561 -0.50520045 1.3215246
0.24460198 -0.50551075 1.3223363
0.24941427 -0.50582147 1.3231491
0.17792384 -0.51004839 1.3466172
0.18196338 -0.50807959 1.3414192
0.18597181 -0.50612581 1.336261
0.18994954 -0.50418705 1.3311423
0.19389692 -0.50226313 1.3260628
0.19781429 -0.50035375 1.3210218
0.20170218 -0.49845943 1.3160204
0.20609713 -0.49787506 1.3144776
0.21085718 -0.49817908 1.3152802
0.21562311 -0.49848354 1.316084
0.22039483 -0.4987883 1.3168887
0.22517239 -0.49909344 1.3176943
0.22995581 -0.49939898 1.318501
0.23474513 -0.49970499 1.3193089
0.23954034 -0.50001138 1.3201178
0.24434142 -0.50031817 1.3209277
0.24914841 -0.50062531 1.3217387
0.25396132 -0.50093287 1.3225508
0.17859738 -0.50721657 1.3517148
0.18265048 -0.50525391 1.3464844
0.18667048 -0.50330144 1.3412812
0.19066031 -0.50136602 1.3361233
0.19461969 -0.49944571 1.3310058
0.19854881 -0.49753997 1.325927
0.20244911 -0.49565127 1.3208938
0.2063182 -0.49377275 1.3158876
0.2106338 -0.49302197 1.3138868
0.2153945 -0.49332288 1.3146887
0.22016105 -0.49362424 1.3154918
0.22493339 -0.49392587 1.3162956
0.22971156 -0.49422792 1.3171005
0.23449565 -0.49453044 1.3179067
0.23928562 -0.49483335 1.318714
0.24408144 -0.49513665 1.3195223
0.24888314 -0.49544027 1.3203315
0.25369075 -0.49574432 1.3211417
0.25850427 -0.49604872 1.3219529
0.17517927 -0.50634009 1.3621694
0.17927605 -0.5043633 1.3568513
0.18334097 -0.50240183 1.3515747
0.18737386 -0.50045425 1.3463352
0.19137603 -0.49852273 1.341139
0.19534786 -0.49660721 1.3359858
0.19929036 -0.49470901 1.3308792
0.20320174 -0.49282262 1.3258044
0.20708197 -0.49094716 1.3207589
0.21093327 -0.48908705 1.3157548
0.21516642 -0.48817328 1.3132966
0.21992774 -0.48847109 1.3140978
0.22469488 -0.48876926 1.3148999
0.22946787 -0.48906788 1.3157033
0.2342467 -0.48936686 1.3165076
0.23903143 -0.48966631 1.3173132
0.24382201 -0.48996612 1.3181198
0.24861845 -0.49026629 1.3189273
0.25343996 -0.49060395 1.3198357
0.25884512 -0.49203891 1.323696
0.17585011 -0.5034613 1.3673857
0.17995988 -0.50148821 1.3620269
0.18403757 -0.49953052 1.35671
0.18808337 -0.49758765 1.3514332
0.19300407 -0.49799818 1.3525481
0.19874342 -0.50045031 1.359208
0.20420666 -0.50210816 1.3637106
0.20395999 -0.48997283 1.3307515
0.20785142 -0.48810053 1.3256664
0.21171404 -0.48624435 1.3206251
0.21554743 -0.48440227 1.3156221
0.21969494 -0.48332885 1.3127067
0.22445691 -0.48362365 1.3135073
0.22922467 -0.48391873 1.3143088
0.2339983 -0.48421431 1.3151115
0.23877779 -0.48451027 1.3159153
0.24356312 -0.48480657 1.3167201
0.24844301 -0.48527652 1.3179965
0.25382602 -0.48669392 1.3218461
0.25924057 -0.48811963 1.3257183
0.17237057 -0.50254518 1.378085
0.17652611 -0.50056034 1.3726423
0.18064895 -0.49859113 1.3672422
0.1847395 -0.49663737 1.3618846
0.18879811 -0.49469885 1.3565688
0.19372317 -0.49507034 1.3575875
0.19913025 -0.49662605 1.3618536
0.20441128 -0.4978016 1.3650771
0.20959088 -0.49868175 1.3674908
0.20862661 -0.48523268 1.3306105
0.21250065 -0.48338059 1.3255317
0.21634519 -0.4815425 1.3204913
0.22016063 -0.47971842 1.3154893
0.2242194 -0.47848883 1.3121175
0.22898199 -0.47878051 1.3129174
0.23375039 -0.47907257 1.3137182
0.23852466 -0.47936508 1.3145204
0.24345995 -0.47996393 1.3161625
0.24882092 -0.48136383 1.3200014
0.25421324 -0.48277193 1.3238627
0.25963721 -0.48418829 1.3277466
0.26509312 -0.48561305 1.3316536
0.17303848 -0.49961817 1.383425
0.17720765 -0.4976379 1.3779417
0.18134347 -0.49567217 1.3724986
0.18544728 -0.49372327 1.3671023
0.18951863 -0.49178886 1.361746
0.19406749 -0.49115846 1.3600004
0.19931044 -0.49227276 1.3630859
0.2044573 -0.49310291 1.3653845
0.20950864 -0.49366981 1.3669542
0.21445152 -0.49396136 1.3677615
0.21329308 -0.48049539 1.3304747
0.2171489 -0.47866157 1.3253969
0.2209754 -0.47684166 1.3203577
0.2247729 -0.47503552 1.3153565
0.22873981 -0.47365314 1.3115288
0.23350301 -0.47394177 1.312328
0.23849075 -0.47466603 1.3143334
0.24382977 -0.47604862 1.3181617
0.24919999 -0.47743922 1.3220123
0.25460166 -0.478838 1.3258854
0.26003507 -0.48024496 1.3297813
0.26550052 -0.48166025 1.3337002
0.17789416 -0.494692 1.38328
0.18204351 -0.49273109 1.3777969
0.18616009 -0.49078569 1.372357
0.19024345 -0.48885342 1.366954
0.19429655 -0.48694074 1.3616056
0.19933693 -0.48753491 1.3632671
0.20436074 -0.48806155 1.3647397
0.20927645 -0.48831171 1.3654392
0.21404691 -0.48821938 1.365181
0.21409048 -0.47758645 1.3354487
0.21795768 -0.47575706 1.3303334
0.22179537 -0.47394168 1.3252571
0.22560412 -0.47214058 1.3202207
0.22938387 -0.4703528 1.3152217
0.23353535 -0.46938291 1.3125097
0.23885255 -0.47074822 1.3163273
0.24420072 -0.47212139 1.3201671
0.24958022 -0.47350267 1.3240294
0.25499126 -0.47489199 1.3279144
0.26043415 -0.47628951 1.3318222
0.26590922 -0.47769535 1.3357532
0.17858617 -0.49172354 1.3886609
0.18274884 -0.4897669 1.3831352
0.18687849 -0.48782566 1.377653
0.19097555 -0.48589984 1.3722143
0.1950404 -0.48398915 1.3668184
0.19922477 -0.48245996 1.3625
0.20411301 -0.48266724 1.3630853
0.20885605 -0.48252949 1.3626963
0.21335055 -0.48183665 1.3607396
0.21489339 -0.47465461 1.3404571
0.21877231 -0.47283047 1.3353056
0.22262152 -0.47102025 1.3301934
0.22644138 -0.46922389 1.3251203
0.23023221 -0.46744114 1.3200858
0.23399435 -0.46567193 1.3150893
0.23921536 -0.4668183 1.3183268
0.24457279 -0.46818218 1.3221785
0.2499616 -0.46955404 1.3260527
0.25538206 -0.47093388 1.3299495
0.26083452 -0.47232196 1.3338695
0.26631916 -0.47371814 1.3378124
0.27183634 -0.47512266 1.3417789
0.17928357 -0.48873192 1.3940839
0.18345965 -0.48677963 1.388515
0.18760248 -0.48484278 1.3829902
0.19171248 -0.4829213 1.3775094
0.19579004 -0.48101503 1.3720717
0.19983584 -0.47912449 1.3666791
0.20384726 -0.47724241 1.3613106
0.20812578 -0.47605783 1.3579316
0.2117814 -0.47353369 1.3507316
0.21570224 -0.47170049 1.3455025
0.21959379 -0.4698835 1.3403196
0.22345427 -0.46807787 1.3351692
0.22728516 -0.46628606 1.3300581
0.23108684 -0.46450791 1.324986
0.23485965 -0.46274328 1.3199525
0.23957914 -0.4628762 1.3203317
0.24494591 -0.46423081 1.3241956
0.25034416 -0.46559331 1.3280821
0.25577405 -0.46696362 1.3319908
0.26123604 -0.4683421 1.3359228
0.26673037 -0.46972871 1.3398781
0.2722573 -0.47112352 1.3438567
0.28682876 -0.48785406 1.3915797
0.29085794 -0.48639268 1.3874112
0.29486302 -0.48493999 1.3832675
0.29884422 -0.48349595 1.3791485
0.30280185 -0.48206052 1.375054
0.30673599 -0.48063353 1.3709836
0.18417601 -0.483769 1.3939368
0.1883321 -0.48183665 1.3883688
0.19245513 -0.47991976 1.3828455
0.19654547 -0.47801799 1.3773657
0.2006035 -0.4761312 1.3719292
0.20462713 -0.47425348 1.3665186
0.20862412 -0.47240174 1.361183
0.21258764 -0.47055918 1.3558738
0.21651936 -0.46872872 1.3505995
0.22042149 -0.46691436 1.3453716
0.22429322 -0.46511331 1.3401821
0.22813524 -0.46332622 1.3350327
0.23194784 -0.46155277 1.3299227
0.23573138 -0.45979288 1.3248518
0.23994406 -0.45892215 1.3223428
0.24532011 -0.46026725 1.3262186
0.25072771 -0.46162021 1.330117
0.25616723 -0.46298116 1.3340385
0.26163882 -0.46434999 1.3379827
0.26714283 -0.46572688 1.3419501
0.2726796 -0.46711197 1.3459411
0.28538868 -0.48052624 1.384593
0.28940195 -0.47909397 1.3804661
0.29339138 -0.47767025 1.3763638
0.29735714 -0.47625497 1.3722857
0.30129948 -0.47484797 1.3682317
0.30660686 -0.47560278 1.3704065
0.31238195 -0.47704843 1.374572
0.18489799 -0.4807348 1.3994011
0.18906741 -0.47880706 1.3937895
0.19320354 -0.47689483 1.3882231
0.19730672 -0.47499767 1.3827006
0.20137712 -0.47311491 1.3772199
0.20541357 -0.47124287 1.3717705
0.2094233 -0.46939707 1.3663974
0.21339735 -0.467556 1.3610381
0.21734053 -0.46572971 1.3557218
0.22125499 -0.46392176 1.350459
0.22513856 -0.46212652 1.3452331
0.22899172 -0.46034417 1.3400447
0.23281528 -0.45857555 1.3348963
0.23660958 -0.45682046 1.3297874
0.24037495 -0.45507878 1.3247174
0.24569543 -0.4562915 1.3282475
0.25111246 -0.45763487 1.3321581
0.25656149 -0.45898613 1.3360915
0.26204279 -0.46034545 1.3400484
0.26755658 -0.46171269 1.3440285
0.27310318 -0.46308798 1.3480319
0.28396297 -0.47327161 1.377676
0.28796047 -0.47186801 1.3735902
0.29193434 -0.47047269 1.3695285
0.29588479 -0.46908563 1.3654908
0.30134124 -0.4700923 1.3684212
0.30709195 -0.47151914 1.3725747
0.31287768 -0.47295463 1.3767533
0.18562564 -0.47767666 1.4049083
0.18980847 -0.47575372 1.3992527
0.19395778 -0.4738462 1.3936424
0.19807394 -0.47195393 1.388077
0.20215717 -0.47007629 1.3825547
0.20620607 -0.46820909 1.3770629
0.21022533 -0.46636191 1.3716302
0.21421386 -0.46453118 1.3662457
0.21817075 -0.46271378 1.3609005
0.22209437 -0.46090552 1.3555822
0.22598875 -0.45911399 1.3503131
0.22985464 -0.45733967 1.3450946
0.23368925 -0.455576 1.3399074
0.23749436 -0.45382586 1.3347601
0.24127036 -0.45208913 1.3296521
0.24607189 -0.45230359 1.3302828
0.25149837 -0.45363724 1.3342053
0.25695693 -0.45497879 1.338151
0.26244789 -0.4563283 1.3421201
0.26797152 -0.45768589 1.3461128
0.2735281 -0.45905149 1.3501292
0.27911776 -0.46042502 1.354169
0.2865333 -0.46471366 1.3667824
0.29049173 -0.4633463 1.3627609
0.29609081 -0.46459776 1.3664416
0.30181733 -0.46600592 1.3705832
0.30757859 -0.4674226 1.3747498
0.313375 -0.46884787 1.3789417
0.19055538 -0.47267634 1.4047588
0.19471794 -0.47077376 1.3991045
0.1988471 -0.46888638 1.3934953
0.20294321 -0.4670139 1.3879304
0.20700474 -0.46515182 1.3823965
0.21103616 -0.46330929 1.3769206
0.21503668 -0.46148318 1.3714936
0.21900547 -0.45967081 1.3661073
0.22294098 -0.45786804 1.3607496
0.22684723 -0.45608234 1.3554426
0.2307241 -0.45431241 1.3501825
0.23456977 -0.45255381 1.3449562
0.23838578 -0.45080876 1.33977
0.24217248 -0.44907713 1.3346237
0.24644955 -0.44830346 1.3323244
0.25188547 -0.44962734 1.3362589
0.25735363 -0.45095909 1.3402168
0.26285425 -0.45229876 1.3441981
0.26838765 -0.45364639 1.3482032
0.27395415 -0.45500213 1.3522323
0.27955398 -0.45636588 1.3562853
0.28518757 -0.45773804 1.3603632
0.29085559 -0.45911917 1.3644679
0.2965579 -0.46050864 1.3685973
0.30229485 -0.46190652 1.3727517
0.30806673 -0.46331295 1.3769315
0.31387392 -0.46472803 1.381137
0.31971663 -0.46615171 1.3853681
0.19130822 -0.46957472 1.4103086
0.19548409 -0.46767712 1.4046094
0.19962636 -0.46579483 1.3989562
0.20373473 -0.46392605 1.3933436
0.20780957 -0.4620707 1.3877712
0.2118527 -0.46023175 1.3822482
0.21586582 -0.45841166 1.3767818
0.21984616 -0.45660356 1.3713514
0.22379625 -0.45481175 1.3659699
0.22771187 -0.45302677 1.3606089
0.23160009 -0.45126203 1.3553088
0.23545697 -0.44950876 1.3500431
0.23928393 -0.44776896 1.3448178
0.24308138 -0.44604251 1.3396326
0.24684966 -0.44432938 1.3344874
0.25227377 -0.44560507 1.3383188
0.25775152 -0.44692692 1.3422889
0.26326185 -0.44825667 1.3462826
0.26880512 -0.44959438 1.3503002
0.27438152 -0.45094004 1.3543417
0.27999139 -0.45229378 1.3584075
0.28563538 -0.4536562 1.3624994
0.29131368 -0.45502716 1.3666168
0.29702643 -0.45640644 1.3707594
0.30277389 -0.45779416 1.3749272
0.30855641 -0.45919022 1.3791201
0.3143743 -0.46059492 1.3833389
0.32022795 -0.46200827 1.3875837
0.192067 -0.46644843 1.4159023
0.19625629 -0.46455604 1.4101579
0.20041175 -0.462679 1.4044602
0.20453298 -0.46081528 1.3988029
0.20862071 -0.45896557 1.3931881
0.21267632 -0.45713186 1.3876219
0.21670178 -0.45531723 1.3821136
0.22069375 -0.45351356 1.3766385
0.22465549 -0.45172665 1.3712144
0.2285831 -0.4499478 1.3658147
0.23248176 -0.44818649 1.3604683
0.23634999 -0.44643885 1.3551633
0.24018887 -0.44470611 1.3499036
0.24399713 -0.44298506 1.3446794
0.24777602 -0.4412773 1.3394954
0.25266325 -0.44157034 1.340385
0.25815067 -0.44288233 1.3443675
0.26367074 -0.44420207 1.3483735
0.26922384 -0.44552973 1.3524036
0.27481022 -0.44686532 1.3564578
0.28043017 -0.44820893 1.3605363
0.28608453 -0.44956139 1.3646418
0.29177317 -0.45092216 1.3687724
0.29749635 -0.45229119 1.372928
0.30325434 -0.45366848 1.3771088
0.30904755 -0.45505425 1.3813154
0.31487626 -0.45644853 1.3855476
0.19703461 -0.46141016 1.4157504
0.20120333 -0.45953849 1.4100075
0.20533724 -0.45767939 1.4043032
0.2094382 -0.45583609 1.3986474
0.21350639 -0.4540078 1.3930377
0.21754421 -0.45219865 1.3874866
0.22154793 -0.45039967 1.3819667
0.22552066 -0.44861636 1.376495
0.22946106 -0.44684523 1.3710606
0.23337118 -0.44508937 1.3656731
0.23725067 -0.44334722 1.3603276
0.24110068 -0.44162005 1.3550282
0.24491976 -0.43990445 1.3497641
0.24870935 -0.43820217 1.3445411
0.25305393 -0.43752319 1.3424577
0.25855103 -0.43882513 1.3464525
0.26408088 -0.44013482 1.350471
0.26964387 -0.44145235 1.3545136
0.27524024 -0.44277778 1.3585805
0.2808705 -0.44411147 1.3626726
0.28653511 -0.44545376 1.3667911
0.29223409 -0.4468042 1.3709347
0.29796776 -0.44816288 1.3751036
0.30373633 -0.44952977 1.3792976
0.30954024 -0.45090508 1.3835175
0.31873059 -0.45709428 1.4025079
0.19781914 -0.45823926 1.4213874
0.20200118 -0.45637307 1.4155988
0.20614825 -0.45451966 1.4098498
0.21026216 -0.45268208 1.4041499
0.21434292 -0.45085925 1.3984958
0.2183916 -0.44905239 1.3928912
0.22240874 -0.44726154 1.3873363
0.22639343 -0.44548386 1.3818221
0.23034778 -0.44372258 1.3763589
0.23426744 -0.44196847 1.3709179
0.23815824 -0.44023189 1.3655313
0.24201863 -0.43850899 1.3601872
0.24584945 -0.43680048 1.3548876
0.24964973 -0.43510383 1.3496249
0.25344586 -0.43346348 1.3445368
0.25895262 -0.43475533 1.3485439
0.26449233 -0.43605494 1.3525751
0.27006525 -0.43736231 1.3566303
0.27567163 -0.43867749 1.3607098
0.28131217 -0.4400011 1.3648155
0.2869871 -0.44133312 1.3689471
0.29269648 -0.44267318 1.3731039
0.29844061 -0.44402137 1.3772857
0.30421984 -0.44537786 1.3814933
0.31369218 -0.45201313 1.4020749
0.20280538 -0.45318243 1.4212345
0.20696574 -0.45133492 1.4154406
0.21109259 -0.44950303 1.4096955
0.21518604 -0.44768593 1.4039968
0.21924655 -0.44588345 1.398344
0.22327627 -0.44409895 1.3927476
0.22727299 -0.44232699 1.3871906
0.23123795 -0.44056913 1.3816777
0.23517056 -0.43882343 1.3762029
0.23907278 -0.43709266 1.3707751
0.24294433 -0.43537548 1.3653898
0.24678627 -0.43367293 1.3600504
0.25059724 -0.43198192 1.3547472
0.25437868 -0.43030411 1.3494854
0.25935552 -0.43067291 1.350642
0.26490504 -0.43196225 1.3546855
0.27048793 -0.43325943 1.3587536
0.27610439 -0.43456432 1.3628459
0.28175533 -0.43587789 1.3669654
0.28744051 -0.43719944 1.37111
0.29316032 -0.4385291 1.3752799
0.298915 -0.43986681 1.3794751
0.30865684 -0.44693512 1.4016422
0.20361604 -0.44996631 1.4269154
0.20778976 -0.44812492 1.4210761
0.2119296 -0.44629884 1.4152852
0.21603584 -0.44448754 1.4095414
0.2201089 -0.44269094 1.403844
0.22415057 -0.44091156 1.3982013
0.22815938 -0.43914548 1.3926008
0.23213622 -0.43739352 1.387045
0.23608264 -0.43565768 1.3815404
0.23999436 -0.4339292 1.3760592
0.24387713 -0.43221787 1.3706323
0.24772939 -0.43052003 1.3652481
0.25155202 -0.42883629 1.3599087
0.25534406 -0.42716435 1.3546067
0.25975963 -0.42657775 1.3527465
0.26531905 -0.42785683 1.3568027
0.27091193 -0.42914367 1.3608835
0.27653867 -0.43043843 1.3649894
0.28219983 -0.43174163 1.369122
0.28789541 -0.43305275 1.3732798
0.29362565 -0.43437186 1.3774629
0.30362463 -0.44186023 1.4012097
0.31407577 -0.4497565 1.4262501
0.20443319 -0.44672436 1.4326419
0.2086204 -0.44488928 1.4267567
0.21277331 -0.44306913 1.4209195
0.21689238 -0.44126382 1.4151299
0.22097804 -0.43947318 1.4093874
0.22503178 -0.43769917 1.4036981
0.22905274 -0.43593907 1.3980535
0.2330415 -0.4341931 1.3924541
0.23699841 -0.43246099 1.3868994
0.24092308 -0.43074125 1.3813841
0.24481714 -0.42903596 1.3759153
0.24868049 -0.42734414 1.3704896
0.25251347 -0.42566559 1.3651065
0.25631678 -0.42400065 1.3597671
0.26016501 -0.42246976 1.3548576
0.26573434 -0.42373857 1.3589265
0.27133724 -0.42501497 1.3630199
0.27697429 -0.42629957 1.3671397
0.28264579 -0.42759234 1.3712856
0.28857499 -0.429225 1.3765215
0.29859552 -0.4367885 1.4007776
0.30895355 -0.44459167 1.4258024
0.20945765 -0.44162756 1.4324827
0.21362375 -0.43981358 1.4265988
0.21775573 -0.43801442 1.4207629
0.22185406 -0.43622988 1.4149746
0.22591954 -0.43446067 1.4092358
0.22995311 -0.43270746 1.4035491
0.23395385 -0.4309676 1.3979056
0.23792255 -0.42924172 1.3923074
0.24185991 -0.42753014 1.3867557
0.24576442 -0.42582944 1.3812392
0.24963889 -0.42414373 1.3757714
0.25348285 -0.4224714 1.3703469
0.25729659 -0.42081216 1.364965
0.26108059 -0.41916609 1.3596257
0.26615095 -0.41960737 1.361057
0.27176389 -0.42087328 1.3651632
0.27741134 -0.42214769 1.3692969
0.28363743 -0.42424405 1.3760967
0.29356951 -0.43171984 1.4003456
0.21030167 -0.43833962 1.438255
0.214481 -0.4365319 1.4323236
0.21862599 -0.43473905 1.426441
0.22273707 -0.43296084 1.4206064
0.22681466 -0.43119711 1.4148194
0.23086059 -0.42945036 1.409088
0.23487338 -0.42771679 1.4033999
0.2388539 -0.42599717 1.3977576
0.24280259 -0.4242914 1.3921608
0.24671903 -0.42259794 1.3866043
0.25060472 -0.42091864 1.3810942
0.25445968 -0.4192526 1.3756278
0.25828418 -0.41759965 1.3702042
0.26207864 -0.41595969 1.3648232
0.26656887 -0.41546318 1.3631941
0.27219206 -0.41671884 1.3673141
0.27870291 -0.41926613 1.3756721
0.28854659 -0.42665434 1.3999139
0.21534516 -0.43322381 1.4380946
0.21950322 -0.43143737 1.4321645
0.22362714 -0.4296656 1.4262831
0.22771731 -0.42790833 1.4204499
0.23177527 -0.42616743 1.4146708
0.23580018 -0.42444032 1.4089377
0.23979262 -0.4227272 1.4032509
0.24375297 -0.42102787 1.3976099
0.2476816 -0.41934213 1.3920141
0.25157809 -0.41766846 1.3864584
0.25544402 -0.41600886 1.3809493
0.2592794 -0.4143624 1.3754839
0.26308456 -0.41272897 1.3700616
0.26698807 -0.41130593 1.3653378
0.27377144 -0.41429129 1.3752478
0.28352541 -0.42158994 1.3994758
0.22038753 -0.42810911 1.4379343
0.22452435 -0.42634398 1.4320055
0.22862718 -0.42459333 1.4261254
0.2326972 -0.42285836 1.420298
0.23673432 -0.4211379 1.4145193
0.24073875 -0.41943142 1.4087876
0.24471083 -0.41773868 1.403102
0.24865097 -0.41605955 1.3974621
0.25255898 -0.41439289 1.3918642
0.25643605 -0.41273993 1.3863122
0.26028234 -0.41110012 1.3808044
0.26409814 -0.40947327 1.3753401
0.268843 -0.40931952 1.3748237
0.27850711 -0.41652834 1.3990368
0.22542876 -0.42299554 1.4377738
0.22954433 -0.42125168 1.4318464
0.23362651 -0.41952288 1.4259702
0.23767591 -0.41780922 1.4201454
0.24169235 -0.4161095 1.414368
0.24567623 -0.41442356 1.4086374
0.24962796 -0.4127512 1.402953
0.25354758 -0.41109172 1.3973124
0.25743583 -0.40944555 1.3917171
0.26129305 -0.40781254 1.3861663
0.26511961 -0.40619242 1.3806596
0.27349195 -0.41146988 1.3985978
0.2345632 -0.41616052 1.4316874
0.23862499 -0.41445392 1.4258163
0.24265353 -0.41276115 1.4199928
0.24664927 -0.41108212 1.4142165
0.25061268 -0.40941674 1.4084872
0.25454408 -0.40776479 1.4028041
0.25844342 -0.4061254 1.3971642
0.26231161 -0.40449923 1.3915699
0.26847997 -0.40641463 1.3981593
0.23958169 -0.41107175 1.4315327
0.24362239 -0.40938607 1.4256625
0.24763006 -0.40771416 1.4198401
0.25160518 -0.40605587 1.4140652
0.25554806 -0.40441102 1.4083371
0.25945893 -0.4027791 1.4026541
0.2634711 -0.40136251 1.3977209
0.2604824 -0.39940634 1.408187
