# .PCD v0.7 - Point Cloud Data file format
VERSION 0.7
FIELDS x y z
SIZE 4 4 4
TYPE F F F
COUNT 1 1 1
WIDTH 710
HEIGHT 1
VIEWPOINT 0 0 0 1 0 0 0
POINTS 710
DATA ascii
0.10668058 -0.093617655 1.2358352
0.11033998 -0.093031742 1.2281007
0.098883033 -0.090093426 1.2473276
0.102386 -0.089315444 1.2365565
0.10582901 -0.088550799 1.2259701
0.10921355 -0.087799124 1.2155633
0.11482497 -0.088826865 1.2297922
0.090939105 -0.086503051 1.2590358
0.094543912 -0.085749127 1.2480626
0.098086417 -0.085008226 1.2372789
0.10156823 -0.084280021 1.22668
0.10499092 -0.0835642 1.2162614
0.10835595 -0.082860425 1.2060181
0.11262164 -0.082872525 1.2061942
0.11932234 -0.084610388 1.2314885
0.086554684 -0.082115985 1.2597873
0.090199843 -0.081399858 1.2488009
0.093781993 -0.080696128 1.2380046
0.09730272 -0.080004461 1.2273933
0.10076361 -0.079324543 1.2169623
0.10416616 -0.078656077 1.206707
0.10751224 -0.077999078 1.1966276
0.11165538 -0.077948101 1.1958455
0.1170296 -0.078729004 1.2078258
0.12383214 -0.080382265 1.2331893
0.078413934 -0.078413934 1.2717345
0.082165025 -0.077723667 1.2605397
0.085850641 -0.077045448 1.2495401
0.08947251 -0.076378971 1.238731
0.093032248 -0.075723924 1.2281073
0.096531436 -0.075080007 1.2176641
0.09997157 -0.074446917 1.2073965
0.10335512 -0.073825091 1.1973116
0.10707641 -0.073483817 1.1917768
0.11154477 -0.07366164 1.1946608
0.11603481 -0.073840335 1.1975589
0.12144952 -0.074574262 1.2094619
0.1283544 -0.076142445 1.234895
0.073977701 -0.073977701 1.2725011
0.077770106 -0.073326103 1.2612928
0.081496291 -0.072685882 1.2502803
0.085157976 -0.072056748 1.2394584
0.088756785 -0.071438387 1.228822
0.092294335 -0.070830539 1.2183663
0.095772639 -0.070233271 1.2080926
0.099193238 -0.069646314 1.1979963
0.10255715 -0.069069102 1.1880676
0.10697069 -0.069216333 1.1906
0.11143437 -0.069383666 1.1934783
0.1159197 -0.069551818 1.1963708
0.1204268 -0.069720782 1.1992772
0.12588115 -0.070408098 1.2110999
0.13288918 -0.071890868 1.2366052
0.069536127 -0.069536127 1.2732687
0.073369943 -0.06892328 1.2620469
0.077136785 -0.068321146 1.2510214
0.080838345 -0.067729421 1.2401863
0.084476314 -0.067147836 1.229537
0.088052362 -0.066576175 1.2190694
0.091568887 -0.066014782 1.2087897
0.095026605 -0.065462776 1.198682
0.098426975 -0.064919919 1.1887418
0.10242761 -0.064801142 1.1865668
0.10686518 -0.064957269 1.1894257
0.11132418 -0.065114148 1.1922983
0.11580479 -0.065271795 1.1951849
0.12030715 -0.065430209 1.1980857
0.12483141 -0.065589383 1.2010003
0.1303246 -0.066230536 1.2127404
0.13743657 -0.067627519 1.2383204
0.065089189 -0.065089189 1.2740372
0.068964519 -0.064515196 1.262802
0.072772056 -0.063951202 1.2517626
0.076513603 -0.06339699 1.2409146
0.080190852 -0.062852293 1.2302529
0.083805896 -0.062317207 1.2197793
0.087360285 -0.06179142 1.2094877
0.090855189 -0.061274432 1.1993682
0.094292097 -0.060766019 1.1894168
0.097915187 -0.060415756 1.1825608
0.10232691 -0.060560826 1.1854004
0.10675988 -0.060706597 1.1882536
0.11121423 -0.060853068 1.1911206
0.11569012 -0.061000247 1.1940014
0.12018774 -0.061148148 1.1968964
0.12470721 -0.061296765 1.1998054
0.12924869 -0.061446104 1.2027285
0.13478012 -0.062041648 1.2143855
0.14199658 -0.063352317 1.2400402
0.060636874 -0.060636874 1.2748066
0.064553775 -0.060101788 1.2635572
0.068402156 -0.059576072 1.2525047
0.072183795 -0.059059467 1.2416438
0.075900473 -0.058551792 1.2309706
0.079554491 -0.058053274 1.22049
0.083146818 -0.057563182 1.2101865
0.086678997 -0.05708129 1.2000554
0.090261631 -0.056675907 1.1915327
0.094177164 -0.056506298 1.1879669
0.098069318 -0.056337692 1.1844223
0.10222641 -0.056328841 1.1842362
0.10665478 -0.056464292 1.1870838
0.11110448 -0.056600396 1.1899452
0.11557568 -0.056737151 1.1928203
0.12006856 -0.056874581 1.1957096
0.12458324 -0.05701267 1.1986127
0.12911992 -0.057151437 1.2015301
0.13367872 -0.057290882 1.2044617
0.13924775 -0.057841372 1.216035
0.14656925 -0.059065223 1.2417648
0.056179143 -0.056179143 1.2755761
0.060137756 -0.055683106 1.2643133
0.064027064 -0.055195745 1.2532475
0.067848884 -0.054716844 1.2423738
0.071605384 -0.0542465 1.2316945
0.075298116 -0.05378437 1.2212015
0.078928486 -0.053330056 1.2108861
0.082735866 -0.053035814 1.2042052
0.086715668 -0.052875407 1.2005631
0.090671487 -0.05271598 1.1969432
0.094603494 -0.052557494 1.1933447
0.098511949 -0.052399974 1.1897681
0.10239705 -0.052243389 1.1862128
0.10654989 -0.052230336 1.1859164
0.11099495 -0.052356105 1.1887721
0.11546147 -0.052482486 1.1916416
0.11994962 -0.052609485 1.1945251
0.12445953 -0.052737091 1.1974225
0.12899137 -0.052865315 1.200334
0.13354532 -0.052994177 1.2032598
0.13812152 -0.05312366 1.2061998
0.14372751 -0.053629667 1.2176889
0.15115467 -0.054766186 1.2434942
0.05571644 -0.051259127 1.2650702
0.059646782 -0.050810222 1.2539912
0.063508958 -0.050369173 1.2431062
0.06730523 -0.049936138 1.232419
0.071036786 -0.049510486 1.2219139
0.075048305 -0.049317457 1.21715
0.079094253 -0.049166702 1.2134293
0.083115555 -0.049016867 1.2097315
0.087112419 -0.048867941 1.206056
0.091085061 -0.048719916 1.2024027
0.095033713 -0.048572786 1.1987716
0.098958597 -0.048426546 1.1951624
0.1028599 -0.048281178 1.1915747
0.10673787 -0.048136685 1.1880087
0.11088564 -0.048120182 1.1876013
0.11534749 -0.048236221 1.1904652
0.1198309 -0.048352819 1.1933428
0.12433606 -0.04846999 1.1962346
0.1288631 -0.048587725 1.1991403
0.1334122 -0.048706036 1.2020602
0.1379835 -0.048824929 1.2049944
0.14257716 -0.048944399 1.207943
0.1482195 -0.049406495 1.2193475
0.15575264 -0.050455082 1.2452265
0.05128983 -0.046829846 1.265828
0.055261295 -0.046419486 1.2547358
0.059164144 -0.046016559 1.2438445
0.063054025 -0.045659814 1.2342016
0.067193657 -0.045518283 1.230376
0.071307719 -0.045377638 1.2265743
0.075396426 -0.045237858 1.222796
0.079460032 -0.045098938 1.2190409
0.083498746 -0.04496086 1.2153087
0.087512806 -0.044823635 1.2115993
0.091502436 -0.044687234 1.2079124
0.095467865 -0.044551671 1.2042481
0.099409297 -0.044416923 1.2006058
0.10332697 -0.044282988 1.1969855
0.10722108 -0.044149857 1.1933869
0.11109185 -0.044017524 1.1898099
0.11523373 -0.043998331 1.1892911
0.11971243 -0.044104576 1.192163
0.12421284 -0.04421135 1.195049
0.12873508 -0.044318635 1.1979491
0.13327932 -0.044426441 1.2008631
0.13784574 -0.04453478 1.2037915
0.14243449 -0.044643644 1.2067342
0.1470457 -0.044753041 1.2096912
0.15272373 -0.045171805 1.2210106
0.16036311 -0.046131853 1.246961
0.046857916 -0.04239526 1.2665868
0.050870698 -0.042023621 1.2554839
0.054955956 -0.041766528 1.247803
0.059166443 -0.041635644 1.2438928
0.063350633 -0.04150559 1.2400073
0.067508757 -0.041376334 1.2361457
0.071641073 -0.041247889 1.2323084
0.075747795 -0.041120231 1.2284945
0.079829194 -0.04099337 1.2247044
0.083885476 -0.040867284 1.2209375
0.087916896 -0.040741976 1.2171938
0.091923662 -0.040617429 1.213473
0.095905997 -0.040493645 1.2097747
0.09986414 -0.04037061 1.206099
0.10379829 -0.04024832 1.2024455
0.1077087 -0.040126771 1.1988142
0.11159555 -0.040005952 1.1952046
0.11545906 -0.03988586 1.1916168
0.11959419 -0.03986473 1.1909856
0.12408986 -0.039961141 1.1938659
0.12860732 -0.040058021 1.1967602
0.13314673 -0.040155362 1.1996684
0.13770828 -0.040253188 1.2025909
0.1422921 -0.040351488 1.2055278
0.14689833 -0.040450267 1.2084788
0.15152721 -0.040549532 1.2114445
0.15724026 -0.040925547 1.2226782
0.16498642 -0.041796561 1.2487003
0.046677403 -0.037786469 1.2617074
0.050960895 -0.037666749 1.2577099
0.055217329 -0.037547782 1.2537376
0.059446961 -0.037429567 1.2497903
0.063650042 -0.037312094 1.2458678
0.067826822 -0.037195355 1.2419698
0.071977556 -0.037079345 1.2380962
0.076102465 -0.036964055 1.2342466
0.080201812 -0.03684948 1.2304209
0.084275812 -0.036735609 1.2266188
0.088324726 -0.036622446 1.2228402
0.092348762 -0.036509976 1.2190847
0.096348166 -0.036398195 1.2153523
0.10032316 -0.036287099 1.2116427
0.10427395 -0.036176674 1.2079556
0.10820077 -0.036066923 1.204291
0.11210383 -0.035957832 1.2006484
0.11598337 -0.035849404 1.1970279
0.11983955 -0.03574162 1.193429
0.12396712 -0.035719339 1.192685
0.12847981 -0.035805847 1.1955736
0.1330144 -0.035892773 1.1984761
0.13757107 -0.035980124 1.2013928
0.14214997 -0.036067903 1.2043236
0.14675127 -0.03615611 1.207269
0.15137511 -0.036244746 1.2102286
0.1560217 -0.036333822 1.2132028
0.16176914 -0.036667671 1.2243502
0.051205143 -0.033394661 1.2637379
0.055481143 -0.033288684 1.2597276
0.059730086 -0.033183381 1.2557427
0.06395223 -0.033078741 1.2517828
0.068147831 -0.032974757 1.2478478
0.072317138 -0.032871425 1.2439375
0.076460399 -0.032768741 1.2400516
0.08057785 -0.032666694 1.23619
0.084669739 -0.032565285 1.2323523
0.088736296 -0.032464497 1.2285383
0.092777766 -0.032364335 1.2247479
0.096794367 -0.032264788 1.2209808
0.10078634 -0.032165851 1.2172368
0.10475391 -0.032067522 1.2135158
0.10869729 -0.031969789 1.2098173
0.1126167 -0.031872652 1.2061414
0.11651238 -0.031776104 1.2024877
0.12038191 -0.031679451 1.1988301
0.12384462 -0.031485923 1.1915065
0.12835255 -0.031562101 1.1943893
0.13288233 -0.031638652 1.1972861
0.13743414 -0.031715572 1.200197
0.14200813 -0.031792864 1.203122
0.14660448 -0.03187054 1.2060614
0.15122336 -0.031948596 1.2090153
0.15586488 -0.032027032 1.2119834
0.16052927 -0.032105856 1.2149663
0.16631041 -0.032398134 1.2260269
0.055747487 -0.028988693 1.2657751
0.060015913 -0.028896552 1.2617518
0.064257294 -0.028804993 1.257754
0.068471886 -0.028714016 1.2537814
0.072659932 -0.028623611 1.2498339
0.076821692 -0.028533772 1.2459112
0.080957405 -0.028444495 1.242013
0.085067332 -0.028355777 1.2381392
0.089151695 -0.028267611 1.2342894
0.093210727 -0.028179986 1.2304634
0.09724468 -0.028092908 1.2266611
0.10125378 -0.028006366 1.2228823
0.10523825 -0.027920352 1.2191266
0.10919833 -0.02783487 1.215394
0.11284023 -0.027677791 1.2085353
0.11621759 -0.027469611 1.1994452
0.11954432 -0.027264494 1.1904889
0.12372242 -0.027260872 1.1903307
0.12822558 -0.027326763 1.1932079
0.13275057 -0.027392974 1.1960989
0.13729751 -0.027459502 1.1990038
0.14186661 -0.027526358 1.201923
0.14645801 -0.02759354 1.2048565
0.15107189 -0.02766105 1.2078043
0.1557084 -0.027728895 1.2107667
0.1603677 -0.027797068 1.2137434
0.16504996 -0.027865577 1.2167349
0.0603045 -0.0245685 1.2678189
0.064565293 -0.024490284 1.2637826
0.068799041 -0.024412561 1.2597719
0.073005997 -0.024335332 1.2557867
0.077186428 -0.024258591 1.2518265
0.081340574 -0.024182333 1.2478913
0.08546868 -0.024106551 1.2439808
0.089570999 -0.024031244 1.2400947
0.093647763 -0.023956403 1.2362326
0.097699217 -0.02388203 1.2323947
0.10165927 -0.023792595 1.2277795
0.10517544 -0.023610812 1.2183989
0.10863827 -0.023431784 1.2091604
0.11204899 -0.023255451 1.2000611
0.11540829 -0.023081658 1.1910927
0.11912356 -0.022988757 1.1862987
0.12360043 -0.023044148 1.1891571
0.12809886 -0.023099795 1.1920286
0.13261904 -0.023155706 1.1949139
0.13716117 -0.023211889 1.1978132
0.14172539 -0.023268349 1.2007266
0.14631186 -0.02332508 1.2036542
0.15092078 -0.023382092 1.2065961
0.15555227 -0.023439381 1.2095525
0.1602065 -0.023496952 1.2125233
0.064876251 -0.020134008 1.2698692
0.069129333 -0.020069806 1.2658199
0.073355377 -0.020006012 1.2617964
0.077554636 -0.019942621 1.2577982
0.081727371 -0.019879632 1.2538254
0.085873827 -0.019817038 1.2498776
0.089994267 -0.019754838 1.2459546
0.093778685 -0.019628096 1.2379609
0.09738449 -0.019476898 1.2284247
0.10093517 -0.019328011 1.2190343
0.10443197 -0.019181382 1.2097863
0.1078761 -0.01903696 1.2006774
0.11126807 -0.018894577 1.1916972
0.11461091 -0.018754512 1.1828632
0.11900651 -0.018790502 1.1851331
0.1234787 -0.018835733 1.1879859
0.12797239 -0.018881172 1.1908518
0.13248779 -0.018926827 1.1937313
0.1370251 -0.018972706 1.1966249
0.14158444 -0.019018805 1.1995324
0.14616601 -0.019065131 1.2024542
0.15076995 -0.019111684 1.2053903
0.15539642 -0.019158462 1.2083406
0.16004559 -0.019205472 1.2113056
0.069462806 -0.01568515 1.2719262
0.07370811 -0.015635053 1.2678638
0.077926375 -0.015585275 1.2638272
0.082010008 -0.015515408 1.2581615
0.085766315 -0.015393954 1.2483127
0.08946427 -0.015274387 1.2386169
0.093105212 -0.015156663 1.2290705
0.096690476 -0.01504074 1.2196703
0.1002213 -0.014926577 1.2104126
0.10369893 -0.014814133 1.2012944
0.10712364 -0.014703244 1.1923023
0.11049889 -0.014594194 1.1834593
0.11444358 -0.014565546 1.1811363
0.11888969 -0.014600488 1.1839697
0.12335719 -0.014635599 1.1868169
0.12784615 -0.01467087 1.1896771
0.13235679 -0.014706311 1.192551
0.13688929 -0.014741924 1.1954389
0.14144379 -0.014777709 1.1983408
0.14602044 -0.014813668 1.2012568
0.15061943 -0.014849802 1.2041869
0.15524089 -0.014886113 1.2071314
0.073765755 -0.011176629 1.2688553
0.077618815 -0.011088402 1.2588391
0.081411518 -0.011001556 1.2489797
0.085145272 -0.01091606 1.2392735
0.088821441 -0.010831883 1.2297171
0.09244135 -0.010748995 1.220307
0.096006282 -0.010667365 1.2110398
0.099517114 -0.010586927 1.2019079
0.102975 -0.010507653 1.192908
0.10638274 -0.01042968 1.184056
0.10991132 -0.010368993 1.1771663
0.11433162 -0.010393783 1.1799808
0.1187731 -0.010418693 1.1828086
0.12323594 -0.010443724 1.1856503
0.12772019 -0.010468869 1.1885049
0.13222606 -0.010494133 1.1913731
0.13675375 -0.010519519 1.1942552
0.14130339 -0.010545029 1.1971513
0.14587514 -0.010570663 1.2000614
0.1504692 -0.010596422 1.2029859
0.069332801 -0.0067096259 1.2695457
0.073222898 -0.0066566267 1.2595176
0.077052064 -0.0066044624 1.2496474
0.080821693 -0.0065531102 1.2399309
0.084533155 -0.0065025506 1.2303643
0.088187784 -0.0064527649 1.2209443
0.091786884 -0.0064037358 1.2116674
0.095331401 -0.0063554267 1.2025267
0.098822139 -0.0063077961 1.1935143
0.10226244 -0.0062609655 1.1846534
0.10565204 -0.0062148259 1.1759232
0.10980415 -0.0062153293 1.1760185
0.11421988 -0.006230175 1.1788275
0.11865675 -0.0062450916 1.1816499
0.12311491 -0.0062600803 1.1844859
0.12759447 -0.0062751379 1.187335
0.13209561 -0.0062902668 1.1901976
0.13661848 -0.0063054687 1.193074
0.14116329 -0.0063207443 1.1959643
0.14573017 -0.0063360943 1.1988688
0.15031928 -0.0063515189 1.2017872
0.068822436 -0.0022200786 1.2602004
0.072687894 -0.0022026636 1.250315
0.076493524 -0.0021855293 1.2405889
0.080240361 -0.0021686584 1.2310123
0.083929777 -0.0021520455 1.2215823
0.087563112 -0.0021356856 1.2122958
0.091140658 -0.0021195502 1.2031367
0.094665051 -0.0021036677 1.1941212
0.098137975 -0.002088042 1.1852515
0.10155968 -0.0020726465 1.1765124
0.10530699 -0.002064843 1.1720828
0.10969719 -0.0020697583 1.1748729
0.11410836 -0.0020746975 1.1776766
0.11854061 -0.0020796598 1.1804934
0.12299412 -0.0020846461 1.1833239
0.12746897 -0.0020896553 1.1861672
0.13196537 -0.0020946884 1.1890242
0.13648348 -0.0020997459 1.191895
0.14102346 -0.0021048277 1.1947796
0.14558545 -0.0021099341 1.1976782
0.06441696 0.0022212744 1.2608792
0.068319537 0.0022038559 1.2509918
0.072160572 0.0021866839 1.2412443
0.07594303 0.0021698009 1.2316608
0.079667322 0.0021531708 1.222221
0.08333496 0.0021367939 1.2129248
0.086947359 0.0021206671 1.2037708
0.090503745 0.0021047383 1.1947289
0.09400934 0.0020890965 1.18585
0.097463213 0.0020736854 1.1771021
0.10086651 0.0020585002 1.1684824
0.10520475 0.0020628383 1.1709448
0.10959044 0.0020677443 1.1737297
0.11399705 0.0020726735 1.1765277
0.11842471 0.0020776265 1.1793392
0.12287358 0.0020826031 1.1821641
0.12734376 0.0020876026 1.185002
0.13183542 0.0020926257 1.1878533
0.13634875 0.002097673 1.1907184
0.14088391 0.0021027448 1.1935973
0.14544106 0.0021078414 1.1964903
0.060006727 0.0066674142 1.2615587
0.063945986 0.0066151023 1.2516606
0.067823917 0.0065636053 1.2419167
0.071640931 0.0065128123 1.232306
0.075400554 0.0064629046 1.2228628
0.079102419 0.0064137094 1.2135545
0.082748823 0.0063652941 1.2043937
0.0863382 0.0063174292 1.1953371
0.08987654 0.0062704561 1.1864492
0.093362652 0.0062241768 1.1776925
0.096797667 0.0061785746 1.169064
0.10074226 0.0061678933 1.167043
0.10510272 0.0061825127 1.1698092
0.10948391 0.006197202 1.1725886
0.11388595 0.0062119612 1.1753812
0.11830904 0.0062267915 1.1781873
0.12275327 0.0062416913 1.1810066
0.12721875 0.0062566604 1.1838388
0.1317057 0.0062717004 1.1866846
0.13621429 0.0062868129 1.1895441
0.14074461 0.0063019977 1.1924173
0.059567772 0.011031069 1.2523302
0.06348186 0.010945149 1.2425759
0.067335449 0.010860557 1.2329724
0.071128324 0.010777019 1.2234886
0.074877754 0.010696822 1.214384
0.078942597 0.010667918 1.2111026
0.082168408 0.010534411 1.1959459
0.085739553 0.010456043 1.1870489
0.089257963 0.010378833 1.1782835
0.092725143 0.010302794 1.1696509
0.096309401 0.010245681 1.163167
0.10064486 0.010269884 1.1659148
0.10500088 0.010294205 1.1686758
0.10937757 0.010318639 1.1714498
0.11377509 0.01034319 1.174237
0.11819358 0.010367858 1.1770375
0.12263319 0.010392644 1.1798513
0.12709403 0.010417543 1.1826781
0.13157625 0.010442561 1.1855183
0.13608009 0.010467699 1.1883721
0.14060563 0.010492957 1.1912397
0.055184867 0.015451763 1.2530005
0.059135187 0.015331345 1.2432357
0.063024424 0.015212791 1.2336221
0.066853963 0.015096056 1.2241559
0.070828952 0.015024323 1.218339
0.075087413 0.015017482 1.2177843
0.079281487 0.0149992 1.2163017
0.081599675 0.014646095 1.1876681
0.085150629 0.014537912 1.1788954
0.088648215 0.014431104 1.1702342
0.092301577 0.014358023 1.164308
0.096414961 0.014359675 1.1644419
0.10054767 0.014363953 1.1647888
0.10489924 0.014397935 1.1675445
0.10927144 0.014432077 1.1703131
0.11366443 0.014466382 1.1730949
0.11807834 0.014500849 1.1758898
0.12251336 0.014535483 1.1786984
0.12696952 0.014570273 1.1815195
0.13144706 0.014605229 1.1843542
0.13594612 0.014640352 1.1872023
0.054783899 0.019722205 1.2438964
0.058708847 0.019569615 1.2342725
0.062573522 0.019419368 1.2247963
0.066583313 0.019330639 1.2192
0.070924774 0.019343121 1.2199873
0.07523457 0.019346032 1.2201709
0.077454574 0.018840302 1.188274
0.081036896 0.018700823 1.179477
0.084567532 0.018563604 1.1708225
0.088310376 0.018483566 1.1657745
0.092428498 0.018485699 1.1659089
0.096547551 0.01848783 1.1660433
0.10066757 0.018489961 1.1661777
0.1047978 0.018493729 1.1664153
0.10916553 0.018537542 1.1691787
0.11355398 0.01858156 1.171955
0.11796335 0.018625792 1.1747447
0.12239374 0.018670231 1.1775476
0.12684527 0.018714875 1.1803633
0.13131812 0.018759731 1.1831924
0.050427981 0.024117731 1.2445576
0.054388713 0.023931034 1.2349235
0.058287024 0.023746565 1.2254043
0.062196974 0.023591954 1.2174258
0.066601597 0.023632826 1.2195349
0.070981264 0.023660421 1.2209589
0.073304385 0.023038521 1.1888667
0.076920107 0.02286814 1.1800745
0.080482736 0.022700259 1.1714113
0.084309123 0.022619521 1.1672449
0.088431969 0.022622133 1.1673796
0.092555761 0.022624742 1.1675143
0.096680507 0.022627352 1.167649
0.10080621 0.022629965 1.1677839
0.10493286 0.022632578 1.1679187
0.10906047 0.022635194 1.1680536
0.11344376 0.022688754 1.1708175
0.11784857 0.022742705 1.1736016
0.12227437 0.022796916 1.1763991
0.12672126 0.022851376 1.1792094
0.13118942 0.022906089 1.1820328
0.046067424 0.02851793 1.2452195
0.050063699 0.028296875 1.2355672
0.053997859 0.028078888 1.2260489
0.057872888 0.027864723 1.2166976
0.062125716 0.027849458 1.2160311
0.066577531 0.027919609 1.2190942
0.069150768 0.027241211 1.1894723
0.072799146 0.027039682 1.1806726
0.076393835 0.026841078 1.1720006
0.080297761 0.02676592 1.1687189
0.084425345 0.026769012 1.168854
0.088553891 0.026772106 1.1689891
0.092683382 0.0267752 1.1691241
0.096813835 0.026778296 1.1692593
0.10094524 0.026781391 1.1693945
0.1050776 0.026784487 1.1695297
0.10921092 0.026787583 1.1696649
0.11334519 0.026790682 1.1698002
0.11773401 0.026851615 1.1724608
0.12215523 0.026915558 1.1752528
0.12659749 0.026979795 1.1780577
0.045734659 0.032667611 1.2362247
0.049705133 0.032416392 1.2267178
0.053615015 0.032169007 1.2173562
0.057463381 0.031924099 1.2080883
0.061965067 0.032050896 1.2128866
0.064993598 0.031448513 1.1900909
0.068673536 0.031215243 1.1812633
0.072300814 0.030986063 1.1725906
0.07627625 0.030922802 1.1701967
0.080408588 0.03092638 1.1703321
0.084541887 0.03092996 1.1704675
0.08867614 0.030933538 1.1706029
0.092811361 0.03093712 1.1707385
0.096947521 0.030940698 1.1708739
0.10108466 0.030944284 1.1710095
0.10522274 0.030947866 1.1711451
0.10936179 0.03095145 1.1712807
0.11350178 0.030955032 1.1714163
0.11764275 0.030958617 1.1715519
0.12203631 0.031026181 1.1741087
0.12647396 0.031100156 1.1769081
0.045406468 0.036757618 1.2273536
0.049351182 0.036476959 1.2179823
0.053235054 0.036199838 1.208729
0.057061329 0.035927504 1.1996357
0.060831051 0.035659581 1.1906897
0.064544708 0.035395488 1.1818714
0.06820368 0.035135228 1.1731813
0.072244555 0.035090212 1.1716782
0.076381668 0.03509428 1.171814
0.080519736 0.035098344 1.1719497
0.084658757 0.035102412 1.1720855
0.088798739 0.03510648 1.1722213
0.09293969 0.035110548 1.1723572
0.097081594 0.03511462 1.1724931
0.10122445 0.035118688 1.172629
0.10536828 0.03512276 1.1727649
0.10951307 0.035126831 1.1729009
0.11365882 0.035130907 1.1730369
0.11780552 0.035134979 1.173173
0.12195318 0.035139054 1.173309
0.045082957 0.040789343 1.218609
0.049002226 0.0404801 1.2093701
0.052861974 0.040175099 1.200258
0.056664724 0.039875176 1.1912977
0.060411114 0.039579697 1.18247
0.064197779 0.039347026 1.1755188
0.068202645 0.039268192 1.1731635
0.072344527 0.039272744 1.1732996
0.076487377 0.0392773 1.1734357
0.080631189 0.03928186 1.1735719
0.084775947 0.039286412 1.173708
0.088921681 0.039290976 1.1738442
0.093068376 0.039295536 1.1739805
0.097216025 0.039300095 1.1741167
0.10136465 0.039304662 1.1742531
0.10551423 0.039309222 1.1743894
0.10966478 0.039313786 1.1745257
0.11381628 0.039318353 1.1746621
0.11796876 0.03932292 1.1747986
0.044764023 0.044764023 1.209988
0.048658043 0.044426911 1.2008758
0.052581862 0.044168763 1.193898
0.056592066 0.044016052 1.1897701
0.060574632 0.043864388 1.1856706
0.064529851 0.043713767 1.1815993
0.068457998 0.043564182 1.1775559
0.072444789 0.043466873 1.1749256
0.076593384 0.043471921 1.1750621
0.080742955 0.043476976 1.1751987
0.08489348 0.043482024 1.1753352
0.089044973 0.043487079 1.1754718
0.093197428 0.043492135 1.1756084
0.097350851 0.043497186 1.175745
0.10150524 0.043502245 1.1758817
0.10566059 0.0435073 1.1760184
0.10981692 0.043512363 1.1761552
0.1139742 0.043517422 1.1762919
0.048799686 0.048799686 1.2043715
0.052858125 0.048629474 1.2001706
0.056888361 0.048460454 1.1959993
0.060890682 0.048292611 1.1918569
0.064865373 0.048125923 1.1877431
0.06881272 0.047960382 1.1836575
0.072733007 0.047795977 1.1796
0.076699696 0.047678191 1.1766931
0.080855034 0.047683738 1.1768299
0.085011341 0.047689285 1.1769669
0.089168608 0.047694836 1.1771039
0.093326844 0.047700386 1.1772408
0.097486041 0.047705937 1.1773778
0.10164622 0.047711492 1.1775149
0.10580736 0.047717046 1.177652
0.10996947 0.0477226 1.1777891
0.053137463 0.053137463 1.2065132
0.057187859 0.05295172 1.2022958
0.061210044 0.05276728 1.198108
0.065204397 0.052584194 1.1939509
0.069171138 0.052402377 1.1898227
0.073110536 0.052221812 1.1857228
0.07702288 0.052042488 1.1816512
0.080967419 0.051902194 1.1784657
0.085129514 0.05190824 1.1786031
0.089292578 0.05191429 1.1787404
0.093456604 0.051920336 1.1788777
0.097621612 0.051926389 1.1790152
0.10178759 0.051932443 1.1791526
0.10595454 0.051938497 1.1792901
0.057490695 0.057490695 1.2086625
0.061533034 0.057289377 1.2044301
0.065547168 0.057089467 1.2002273
0.069533378 0.056890946 1.1960536
0.073492013 0.056693837 1.1919097
0.077423386 0.056498144 1.1877955
0.081327707 0.056303795 1.1837096
0.085248016 0.05613894 1.1802437
0.089416891 0.056145489 1.1803814
0.093586743 0.056152042 1.1805192
0.097757563 0.056158599 1.180657
0.10192935 0.056165155 1.1807948
0.061859455 0.061859455 1.2108194
0.065893658 0.061642453 1.2065718
0.069899663 0.061426979 1.2023542
0.073877759 0.061213005 1.1981659
0.077828228 0.0610005 1.1940064
0.081751369 0.060789481 1.189876
0.085647561 0.060579982 1.1857753
0.089541554 0.060388491 1.1820271
0.09371724 0.060395554 1.1821654
0.097893894 0.060402613 1.1823035
0.066243842 0.066243842 1.2129841
0.070269831 0.066011049 1.2087214
0.074267611 0.06577988 1.2044885
0.078237504 0.065550342 1.2002854
0.082179785 0.065322392 1.1961114
0.086094737 0.065096021 1.1919664
0.089982644 0.064871207 1.1878499
0.078651108 0.070148282 1.2066307
