# .PCD v0.7 - Point Cloud Data file format
VERSION 0.7
FIELDS x y z
SIZE 4 4 4
TYPE F F F
COUNT 1 1 1
WIDTH 1195
HEIGHT 1
VIEWPOINT 0 0 0 1 0 0 0
POINTS 1195
DATA ascii
0.25532678 -0.32121757 0.93505234
0.25732982 -0.31961346 0.93038291
0.2593132 -0.31802559 0.92576069
0.2612769 -0.3164534 0.92118406
0.24539326 -0.3178584 0.93486226
0.24744497 -0.31627074 0.93019277
0.24947645 -0.31469905 0.92557025
0.25148839 -0.31314361 0.92099553
0.25348055 -0.31160349 0.91646582
0.25545323 -0.31007847 0.91198051
0.25740668 -0.30856827 0.90753883
0.25934115 -0.30707267 0.90314007
0.26202551 -0.30649042 0.90142763
0.23546383 -0.31450063 0.93467242
0.23756471 -0.31293005 0.93000478
0.23964474 -0.31137514 0.92538363
0.24170415 -0.30983552 0.92080802
0.24374378 -0.30831167 0.91627926
0.24576369 -0.30680305 0.91179574
0.24776393 -0.30530909 0.90735584
0.24974474 -0.30382958 0.90295887
0.25249955 -0.30331707 0.90143567
0.25555992 -0.30317977 0.90102768
0.25861755 -0.30304265 0.9006201
0.26167238 -0.30290559 0.90021282
0.26472449 -0.30276871 0.89980602
0.2255384 -0.31114423 0.93448257
0.22768842 -0.30959073 0.92981684
0.22981708 -0.30805269 0.92519748
0.23192468 -0.30652982 0.92062378
0.23401156 -0.30502197 0.91609514
0.23607807 -0.30352893 0.91161102
0.23812506 -0.30205125 0.90717292
0.24015221 -0.30058786 0.90277785
0.24297343 -0.30014366 0.90144372
0.24603812 -0.30000779 0.90103567
0.2491001 -0.2998721 0.90062815
0.25215927 -0.2997365 0.90022087
0.2552157 -0.29960105 0.89981407
0.25826934 -0.29946569 0.89940751
0.2613202 -0.29933041 0.8990013
0.26436836 -0.29919532 0.89859557
0.26741377 -0.29906037 0.8981902
0.22247943 -0.30817521 0.93546462
0.22347714 -0.30503815 0.92594206
0.22445472 -0.30196425 0.91661125
0.22639731 -0.30025741 0.91143018
0.22849037 -0.2987951 0.9069913
0.23056348 -0.2973474 0.90259677
0.23344715 -0.29697019 0.90145177
0.23651619 -0.29683575 0.90104371
0.23958249 -0.29670149 0.9006362
0.24264598 -0.29656732 0.90022886
0.24570674 -0.2964333 0.89982206
0.24876469 -0.29629937 0.89941549
0.25181994 -0.29616559 0.89900941
0.25487235 -0.29603186 0.89860356
0.25792208 -0.29589835 0.89819819
0.26096901 -0.29576489 0.89779311
0.2640132 -0.29563156 0.8973884
0.26705468 -0.29549837 0.8969841
0.22322923 -0.30590671 0.93861729
0.22422497 -0.30278555 0.92904055
0.22519824 -0.29972428 0.91964763
0.226152 -0.29672426 0.91044265
0.22708696 -0.29378381 0.90142047
0.23006471 -0.29353082 0.90064418
0.23313254 -0.29339808 0.9002369
0.23619761 -0.29326549 0.89983004
0.2392599 -0.29313299 0.89942348
0.24231945 -0.29300064 0.89901739
0.2453762 -0.29286838 0.89861155
0.24843022 -0.29273626 0.89820617
0.25148147 -0.29260424 0.8978011
0.25452998 -0.29247236 0.89739645
0.25757575 -0.29234058 0.89699209
0.26061875 -0.29220888 0.89658809
0.26365903 -0.29207736 0.8961845
0.26669654 -0.29194593 0.89578122
0.26973137 -0.29181466 0.89537841
0.22297271 -0.30679703 0.95163703
0.22398642 -0.30362603 0.94180107
0.22497395 -0.30051264 0.93214381
0.22594668 -0.29746938 0.92270404
0.22689609 -0.29448217 0.9134382
0.22782655 -0.29155427 0.9043563
0.22975494 -0.28996658 0.89943153
0.23281878 -0.28983563 0.89902538
0.23587985 -0.2897048 0.89861953
0.2389382 -0.28957412 0.89821416
0.24199374 -0.28944349 0.89780903
0.24504659 -0.28931305 0.89740443
0.24809662 -0.28918269 0.89700001
0.25114396 -0.28905249 0.89659613
0.25418851 -0.28892234 0.89619249
0.25723031 -0.28879234 0.89578921
0.26026943 -0.28866246 0.89538634
0.26330575 -0.28853267 0.89498377
0.26633942 -0.28840303 0.89458168
0.26937032 -0.28827351 0.89417988
0.22373791 -0.30448544 0.95490289
0.22474714 -0.30132765 0.94499969
0.22573069 -0.29822814 0.93527925
0.22670016 -0.29519948 0.92578101
0.22764537 -0.2922256 0.91645461
0.22857124 -0.28931046 0.90731233
0.22947957 -0.28645381 0.89835352
0.23250586 -0.28628272 0.89781702
0.23556298 -0.2861537 0.89741236
0.23861735 -0.28602475 0.897008
0.24166892 -0.28589591 0.89660394
0.24471781 -0.28576726 0.89620042
0.24776392 -0.28563866 0.89579713
0.25080729 -0.28551018 0.89539427
0.25384793 -0.28538182 0.8949917
0.25688583 -0.28525358 0.89458954
0.25992104 -0.28512549 0.89418781
0.26295349 -0.28499749 0.89378637
0.26598322 -0.28486961 0.89338529
0.26901025 -0.28474185 0.89298463
0.27203453 -0.28461418 0.8925842
0.2245084 -0.30215791 0.95819128
0.22551307 -0.29901361 0.94822019
0.22649248 -0.29592812 0.93843561
0.22745353 -0.29290777 0.92885762
0.22839722 -0.28995109 0.91948146
0.22932081 -0.28705192 0.91028774
0.23022442 -0.28420809 0.90126944
0.23219378 -0.28273937 0.89661193
0.23524694 -0.28261212 0.89620835
0.23829734 -0.28248492 0.89580506
0.24134503 -0.2823579 0.89540225
0.24438992 -0.28223094 0.89499962
0.24743213 -0.28210413 0.89459753
0.25047156 -0.28197742 0.89419568
0.25350827 -0.28185081 0.89379418
0.2565423 -0.28172436 0.89339316
0.25957358 -0.281598 0.8929925
0.26260212 -0.28147173 0.89259207
0.26562798 -0.28134561 0.89219213
0.2686511 -0.28121957 0.89179242
0.27167153 -0.28109369 0.89139318
0.22528423 -0.29981434 0.96150249
0.22628419 -0.29668373 0.95146257
0.22725917 -0.29361221 0.9416123
0.22950822 -0.29225147 0.93724841
0.23323432 -0.2927835 0.93895459
0.23007378 -0.28477666 0.91327667
0.23097411 -0.2819477 0.90420425
0.23188257 -0.27920553 0.89541018
0.23493175 -0.27908 0.89500755
0.23797823 -0.27895463 0.89460546
0.24102195 -0.27882931 0.8942036
0.24406296 -0.27870414 0.89380223
0.2471012 -0.27857906 0.89340109
0.25013673 -0.2784541 0.8930003
0.25316954 -0.27832925 0.89259994
0.25619963 -0.2782045 0.89219987
0.25922704 -0.2780799 0.89180028
0.26225173 -0.27795541 0.89140105
0.26527366 -0.27783102 0.89100206
0.26829296 -0.27770674 0.89060354
0.27130949 -0.27758256 0.89020526
0.27432337 -0.27745849 0.8898074
0.2260654 -0.29745448 0.96483648
0.22706063 -0.29433787 0.95472729
0.22803524 -0.2912859 0.9448278
0.23057231 -0.2902889 0.94159389
0.23414384 -0.29060405 0.94261616
0.23083176 -0.28248641 0.91628546
0.23172869 -0.27967256 0.90715826
0.23260596 -0.27691185 0.89820355
0.23461743 -0.27555737 0.89381009
0.23765995 -0.27543372 0.89340895
0.24069977 -0.27531019 0.89300829
0.24373682 -0.27518675 0.89260787
0.24677119 -0.27506343 0.89220786
0.2498028 -0.27494019 0.89180815
0.2528317 -0.27481708 0.8914088
0.25585794 -0.27469409 0.89100993
0.25888142 -0.27457121 0.89061129
0.26190221 -0.27444842 0.89021307
0.26492032 -0.27432579 0.88981527
0.26793572 -0.27420321 0.88941771
0.27094844 -0.27408078 0.88902056
0.27395844 -0.27395844 0.88862371
0.22685203 -0.29507819 0.96819377
0.22784244 -0.29197586 0.95801455
0.22881219 -0.28893802 0.94804698
0.23124811 -0.28781241 0.94435364
0.2347448 -0.28802022 0.94503552
0.23822646 -0.28820404 0.94563866
0.23248823 -0.27738252 0.91013169
0.23336081 -0.27463552 0.9011184
0.23430392 -0.27204415 0.89261574
0.23734252 -0.27192223 0.89221573
0.24037839 -0.2718004 0.89181602
0.24341156 -0.27167872 0.89141667
0.24644199 -0.27155709 0.89101768
0.24946974 -0.27143562 0.8906191
0.25249478 -0.27131426 0.89022094
0.2555171 -0.271193 0.88982302
0.25853673 -0.27107185 0.88942552
0.26155365 -0.27095079 0.88902831
0.26456791 -0.27082986 0.88863152
0.26757947 -0.27070907 0.88823515
0.27058831 -0.27058831 0.88783896
0.2735945 -0.2704677 0.88744324
0.27659801 -0.27034721 0.88704783
0.2276435 -0.2926845 0.97157174
0.22862834 -0.28959587 0.96131903
0.22959501 -0.28657478 0.95129043
0.23170415 -0.2850461 0.94621593
0.23514919 -0.28518093 0.9466635
0.23858047 -0.28529552 0.9470439
0.23325276 -0.2750774 0.91312462
0.23412058 -0.27234435 0.9040522
0.23497137 -0.26966512 0.89515853
0.23702593 -0.2684201 0.8910256
0.2400579 -0.2683 0.89062697
0.24308717 -0.26818004 0.89022875
0.24611373 -0.26806018 0.88983083
0.24913758 -0.2679404 0.88943326
0.25215873 -0.26782078 0.88903612
0.2551772 -0.26770124 0.88863933
0.25819296 -0.26758179 0.88824284
0.26120606 -0.26746249 0.88784677
0.26421642 -0.26734325 0.88745099
0.26722416 -0.26722416 0.88705564
0.27044329 -0.26731676 0.88736308
0.27369434 -0.26743844 0.88776702
0.2769483 -0.26756024 0.88817126
0.22844191 -0.29027581 0.97497934
0.22942087 -0.28720096 0.96465147
0.23038377 -0.28419605 0.95455855
0.23199286 -0.28206325 0.94739497
0.23539171 -0.28213614 0.94763982
0.23877524 -0.28218892 0.94781703
0.23402032 -0.27275473 0.91612941
0.23488533 -0.27003825 0.90700531
0.2357313 -0.26737309 0.89805359
0.23671021 -0.2649273 0.8898387
0.23973829 -0.26480895 0.88944119
0.24276365 -0.2646907 0.88904393
0.24578632 -0.26457253 0.88864708
0.24880631 -0.26445451 0.88825065
0.2518236 -0.26433659 0.88785458
0.2548382 -0.26421875 0.88745874
0.25785011 -0.26410103 0.88706338
0.26107752 -0.2642042 0.88740993
0.26432446 -0.26432446 0.88781387
0.26757437 -0.26444486 0.88821822
0.27082723 -0.26456532 0.88862288
0.27408308 -0.26468593 0.88902795
0.27734184 -0.26480663 0.88943332
0.22924596 -0.2878502 0.97841096
0.23021977 -0.28479037 0.96801054
0.2311731 -0.28179494 0.957829
0.23213097 -0.27889118 0.94795901
0.23548014 -0.27890199 0.94799584
0.23881231 -0.2788927 0.94796419
0.24212575 -0.27886206 0.94786006
0.23565258 -0.26771414 0.90996802
0.2364957 -0.26506567 0.90096569
0.2373208 -0.26246735 0.89213401
0.23941951 -0.26132718 0.88825846
0.24244098 -0.26121062 0.88786227
0.24545981 -0.26109418 0.88746655
0.24847591 -0.26097783 0.88707107
0.25171077 -0.26109132 0.88745677
0.25495362 -0.26121017 0.88786077
0.25819945 -0.26132914 0.88826513
0.2614482 -0.2614482 0.88866985
0.26469994 -0.26156738 0.88907498
0.26795462 -0.26168668 0.88948041
0.27121228 -0.26180607 0.88988626
0.27447292 -0.26192558 0.89029247
0.27773651 -0.26204517 0.89069903
0.23005567 -0.28540742 0.98186678
0.23102425 -0.28236297 0.97139323
0.23197238 -0.2793828 0.96114069
0.23290071 -0.27646488 0.95110238
0.23540659 -0.2754758 0.94769979
0.23867834 -0.27539808 0.9474324
0.24192466 -0.27529359 0.94707286
0.23642398 -0.26537386 0.91294676
0.23726214 -0.26273996 0.90388554
0.23808382 -0.26015782 0.89500242
0.23910725 -0.25786075 0.88709998
0.24234305 -0.25797808 0.88750362
0.24558182 -0.25809553 0.88790768
0.24882351 -0.25821307 0.88831204
0.25206816 -0.25833073 0.88871682
0.25531578 -0.25844851 0.88912195
0.25856638 -0.25856638 0.8895275
0.26181993 -0.25868437 0.88993335
0.26507646 -0.25880244 0.89033961
0.26833594 -0.25892064 0.89074624
0.2715984 -0.25903895 0.89115322
0.27486387 -0.25915736 0.89156055
0.27813229 -0.25927588 0.89196831
0.23183437 -0.27991852 0.97479951
0.23277721 -0.27695391 0.96447539
0.23370029 -0.27405143 0.95436764
0.23513609 -0.27182397 0.94661075
0.23832068 -0.27165225 0.94601268
0.24146418 -0.27143905 0.94527024
0.23720627 -0.26302463 0.91596752
0.23803835 -0.26040435 0.90684259
0.23885399 -0.25783578 0.8978976
0.23965372 -0.25531736 0.88912743
0.24268718 -0.25521296 0.8887639
0.2459307 -0.25532934 0.8891691
0.24917717 -0.25544578 0.88957465
0.25242659 -0.25556234 0.88998055
0.25567901 -0.25567901 0.89038682
0.25893438 -0.25579578 0.8907935
0.26219273 -0.25591266 0.89120054
0.26545405 -0.25602967 0.89160794
0.26871839 -0.25614676 0.89201576
0.27198568 -0.25626397 0.89242393
0.27525598 -0.25638127 0.89283246
0.27852926 -0.25649869 0.89324135
0.23265021 -0.27745691 0.97822988
0.23358764 -0.27450809 0.96783328
0.2345054 -0.27162135 0.95765549
0.23540632 -0.26879728 0.94769865
0.23758653 -0.26749253 0.94309849
0.23715068 -0.26331905 0.92838401
0.23799054 -0.26065633 0.91899604
0.2388175 -0.25805113 0.9098109
0.23962811 -0.25549752 0.90080768
0.2404228 -0.25299394 0.89198077
0.24303229 -0.25244001 0.89002776
0.24628057 -0.25255522 0.89043403
0.24953181 -0.25267059 0.89084071
0.25278604 -0.25278604 0.89124781
0.25604326 -0.25290161 0.89165527
0.25930342 -0.25301728 0.89206308
0.26256657 -0.25313306 0.89247125
0.26583272 -0.25324893 0.89287984
0.26910189 -0.25336492 0.89328879
0.272374 -0.25348103 0.8936981
0.27564916 -0.25359723 0.89410782
0.2789273 -0.25371355 0.8945179
0.28220847 -0.25382996 0.89492834
0.23347178 -0.27497786 0.98168439
0.23440374 -0.27204522 0.97121471
0.23531604 -0.26917446 0.96096593
0.23621158 -0.26636624 0.95094049
0.23708366 -0.26361051 0.94110233
0.23794354 -0.26091743 0.93148786
0.23878004 -0.25827229 0.92204463
0.23960181 -0.25568247 0.91279882
0.24040723 -0.25314403 0.90373653
0.24119684 -0.25065553 0.89485246
0.2433784 -0.24965914 0.89129525
0.24663144 -0.24977325 0.89170265
0.24988747 -0.24988747 0.89211041
0.2531465 -0.25000182 0.89251864
0.25640851 -0.25011629 0.89292729
0.25967351 -0.25023085 0.8933363
0.26294151 -0.2503455 0.89374566
0.26621249 -0.25046027 0.89415538
0.26948649 -0.25057516 0.89456546
0.27276346 -0.25069013 0.89497596
0.27604347 -0.2508052 0.89538682
0.2793265 -0.25092041 0.89579809
0.28261253 -0.25103572 0.89620972
0.2342992 -0.27248129 0.98516345
0.23522557 -0.26956508 0.97461981
0.23613234 -0.26671064 0.9642995
0.23702237 -0.26391852 0.95420456
0.23789471 -0.26118511 0.94432181
0.23873614 -0.2584936 0.93459064
0.23957543 -0.25587308 0.925116
0.24039125 -0.25329816 0.91580635
0.24119149 -0.25077525 0.9066847
0.24197589 -0.24830206 0.89774281
0.24372548 -0.24687032 0.89256632
0.24698333 -0.24698333 0.89297491
0.25024417 -0.24709645 0.89338386
0.25350797 -0.24720965 0.89379317
0.25677481 -0.24732299 0.89420295
0.26004466 -0.24743643 0.89461309
0.2633175 -0.24754998 0.89502364
0.26659334 -0.24766363 0.89543456
0.26987219 -0.24777739 0.89584583
0.27315405 -0.24789123 0.89625746
0.27643892 -0.2480052 0.89666951
0.27972683 -0.24811928 0.89708197
0.28301775 -0.24823345 0.89749473
0.23513249 -0.26996693 0.98866719
0.23605318 -0.26706746 0.97804886
0.2369543 -0.26422963 0.96765614
0.23783869 -0.26145387 0.95749086
0.23869912 -0.25872982 0.94751489
0.23954868 -0.2560693 0.93777156
0.24037777 -0.25345954 0.92821425
0.24118595 -0.25089812 0.91883385
0.24198082 -0.2483909 0.90965194
0.24275997 -0.24593329 0.90065175
0.24407357 -0.24407357 0.89384109
0.24733622 -0.24418545 0.89425081
0.25060189 -0.24429743 0.89466089
0.25387052 -0.24440952 0.89507139
0.25714219 -0.24452172 0.8954823
0.2604169 -0.24463405 0.89589363
0.26369458 -0.24474648 0.89630538
0.26697528 -0.24485898 0.89671743
0.27025899 -0.24497162 0.89712989
0.27354577 -0.24508436 0.89754277
0.27683553 -0.24519719 0.89795601
0.28012836 -0.24531013 0.89836961
0.2834242 -0.24542318 0.89878362
0.23597172 -0.26743463 0.99219596
0.23688664 -0.26455221 0.98150212
0.23778202 -0.2617313 0.97103631
0.23866034 -0.25897184 0.96079868
0.23951702 -0.25626647 0.95076156
0.24035703 -0.25361809 0.94093597
0.24118261 -0.25102678 0.9313221
0.24198587 -0.24848214 0.92188132
0.24277538 -0.24599095 0.91263884
0.24354917 -0.24354917 0.90357971
0.24442263 -0.2412688 0.89511943
0.24769013 -0.24137954 0.89553034
0.25096062 -0.24149041 0.89594162
0.25423411 -0.24160135 0.89635324
0.25751063 -0.24171244 0.89676535
0.26079017 -0.24182361 0.89717782
0.26407272 -0.2419349 0.8975907
0.26735833 -0.2420463 0.898004
0.27064693 -0.24215779 0.89841765
0.2739386 -0.24226938 0.89883167
0.27723327 -0.24238108 0.8992461
0.28053099 -0.24249288 0.89966089
0.28383178 -0.24260481 0.90007609
0.31910545 -0.26974109 1.000753
0.23772599 -0.26201916 0.98497987
0.23861551 -0.25921541 0.9744401
0.23948766 -0.25647262 0.96412933
0.24034117 -0.25378683 0.95403302
0.24117137 -0.25115088 0.94412398
0.24199308 -0.24857794 0.93445176
0.24279159 -0.24605055 0.92495084
0.24357514 -0.24357514 0.9156453
0.2443435 -0.24114947 0.90652674
0.24509671 -0.23877163 0.89758801
0.24804503 -0.23856561 0.89681351
0.25132036 -0.23867533 0.89722598
0.25459874 -0.23878515 0.8976388
0.25788015 -0.2388951 0.89805216
0.26116455 -0.23900512 0.89846575
0.26445195 -0.23911524 0.89887971
0.26774246 -0.23922551 0.8992942
0.27103597 -0.23933586 0.89970905
0.27433252 -0.23944631 0.90012425
0.27763215 -0.23955688 0.90053988
0.28093478 -0.23966753 0.90095586
0.28424048 -0.2397783 0.90137225
0.31563058 -0.26331612 0.98985541
0.31797922 -0.26237628 0.9863224
0.32031113 -0.26144314 0.98281455
0.2385713 -0.25946805 0.9884823
0.23945491 -0.25668189 0.97786796
0.24032077 -0.25395599 0.96748328
0.24116868 -0.25128764 0.95731777
0.24199337 -0.24866904 0.94734186
0.24280836 -0.24611187 0.9375999
0.24360277 -0.24360277 0.9280411
0.24438021 -0.24114339 0.91867173
0.24514304 -0.23873408 0.90949309
0.24589077 -0.23637241 0.90049601
0.24840096 -0.23574358 0.89810038
0.25168118 -0.23585217 0.89851403
0.25496441 -0.23596086 0.89892811
0.25825071 -0.23606966 0.8993426
0.26154 -0.23617853 0.89975739
0.26483232 -0.2362875 0.90017253
0.26812768 -0.2363966 0.9005881
0.27142611 -0.23650579 0.90100414
0.27472761 -0.23661512 0.90142059
0.27803215 -0.23672451 0.90183735
0.28133976 -0.23683403 0.90225458
0.28465039 -0.23694363 0.90267211
0.31223056 -0.25702956 0.9791925
0.31456599 -0.25612202 0.97573507
0.31688496 -0.25522086 0.97230196
0.3191877 -0.25432602 0.96889293
0.32147431 -0.25343743 0.96550769
0.32374501 -0.25255501 0.96214604
0.23942266 -0.25689876 0.99200976
0.24030021 -0.25413042 0.9813199
0.24115968 -0.25142181 0.97086054
0.24200189 -0.24877118 0.96062523
0.24282099 -0.24617025 0.95058179
0.2436277 -0.2436277 0.94076377
0.2444199 -0.24113908 0.93115407
0.24519059 -0.23869549 0.92171812
0.24594781 -0.23630279 0.9124788
0.24668998 -0.23395759 0.90342283
0.24875793 -0.23291346 0.899391
0.25204301 -0.2330209 0.89980584
0.25533116 -0.23312846 0.90022117
0.25862232 -0.23323607 0.90063673
0.26191652 -0.23334381 0.90105271
0.26521376 -0.23345163 0.90146911
0.26851407 -0.23355958 0.90188593
0.27181742 -0.23366761 0.9023031
0.27512383 -0.23377575 0.90272069
0.27843335 -0.23388401 0.9031387
0.28174591 -0.23399237 0.90355712
0.28506154 -0.23410082 0.9039759
0.28838027 -0.23420937 0.9043951
0.31122521 -0.2500006 0.96537256
0.31353131 -0.24913028 0.96201187
0.31582138 -0.248266 0.95867449
0.31809562 -0.24740769 0.95536017
0.32035419 -0.24655533 0.95206875
0.32259724 -0.24570878 0.94879985
0.32482496 -0.24486804 0.94555336
0.32703748 -0.24403304 0.94232899
0.24028014 -0.25431108 0.99556255
0.24115151 -0.25156093 0.9847964
0.24200448 -0.24886985 0.97426152
0.2428409 -0.24623728 0.96395564
0.2436543 -0.2436543 0.95384395
0.24445544 -0.24112952 0.94396007
0.24524112 -0.23865747 0.93428266
0.24600661 -0.23623152 0.92478567
0.24675791 -0.23385553 0.91548431
0.24749443 -0.23152705 0.90636891
0.24911591 -0.23007521 0.90068531
0.25240588 -0.23018147 0.90110129
0.25569895 -0.23028786 0.90151781
0.25899503 -0.23039433 0.90193462
0.26229414 -0.23050091 0.9023518
0.2655963 -0.23060757 0.90276939
0.26890156 -0.23071437 0.90318745
0.27220985 -0.23082122 0.90360576
0.27552122 -0.2309282 0.90402454
0.27883568 -0.23103528 0.90444374
0.28215322 -0.23114246 0.90486336
0.28547382 -0.23124975 0.90528333
0.28879753 -0.23135713 0.90570372
0.30795473 -0.24400786 0.95522803
0.31024793 -0.24316728 0.95193744
0.31252533 -0.24233247 0.94866937
0.31478721 -0.2415034 0.94542378
0.31703365 -0.24067999 0.9422003
0.3192648 -0.23986216 0.9389987
0.32148087 -0.23904988 0.93581885
0.32368198 -0.23824307 0.9326604
0.32586825 -0.2374417 0.92952323
0.32803991 -0.2366457 0.9264071
0.33019701 -0.23585501 0.92331177
0.24114373 -0.25170478 0.99914074
0.24200885 -0.24897313 0.98829752
0.24285537 -0.24630013 0.97768706
0.24368571 -0.24368571 0.96730912
0.24449368 -0.24112135 0.9571299
0.24528648 -0.23861201 0.94716913
0.24606787 -0.2361591 0.93743229
0.24682654 -0.23374964 0.92786795
0.24757333 -0.23139207 0.9185096
0.24830411 -0.22908057 0.90933412
0.24947493 -0.22722875 0.90198332
0.25276983 -0.22733386 0.90240055
0.25606778 -0.22743909 0.90281826
0.25936878 -0.2275444 0.90323627
0.26267284 -0.22764979 0.90365463
0.26597995 -0.22775529 0.90407342
0.26929018 -0.22786091 0.90449268
0.27260342 -0.22796661 0.90491223
0.27591977 -0.2280724 0.90533221
0.27923918 -0.22817829 0.90575254
0.28256169 -0.22828431 0.90617335
0.2858873 -0.22839043 0.90659457
0.28921604 -0.22849664 0.90701622
0.30475223 -0.23813972 0.94529432
0.30703256 -0.23732787 0.94207174
0.30929741 -0.23652154 0.93887103
0.31154692 -0.23572069 0.93569201
0.3137812 -0.2349252 0.93253434
0.31600052 -0.23413509 0.929398
0.31820494 -0.23335028 0.9262827
0.32039461 -0.23257071 0.92318821
0.32256973 -0.23179634 0.92011434
0.3247304 -0.2310271 0.91706085
0.32687679 -0.23026295 0.91402757
0.32940418 -0.2297795 0.91210848
0.24287233 -0.24636689 0.99182373
0.24371304 -0.24371304 0.98113984
0.24453643 -0.24111634 0.97068608
0.24534325 -0.23857516 0.96045578
0.24612521 -0.23607928 0.95040786
0.24690022 -0.23364381 0.9406032
0.247656 -0.23125494 0.93098605
0.24839418 -0.22891228 0.92155498
0.24911916 -0.22661808 0.91231894
0.24983497 -0.22437409 0.90328509
0.25313479 -0.22447802 0.90370351
0.25643769 -0.22458208 0.90412241
0.25974363 -0.22468622 0.90454167
0.26305264 -0.22479045 0.90496129
0.26636472 -0.22489476 0.90538126
0.2696799 -0.2249992 0.90580171
0.27299815 -0.22510374 0.90622252
0.27631947 -0.22520836 0.90664369
0.27964386 -0.22531305 0.90706521
0.28297141 -0.2254179 0.90748727
0.286302 -0.22552282 0.90790963
0.28963572 -0.22562782 0.90833241
0.30161563 -0.23239237 0.93556511
0.30388317 -0.23160826 0.93240839
0.30613545 -0.2308294 0.92927289
0.30837265 -0.23005579 0.92615849
0.31059489 -0.22928731 0.92306477
0.31280231 -0.22852398 0.91999173
0.31499514 -0.22776571 0.91693908
0.31717339 -0.22701243 0.91390651
0.31978023 -0.22657795 0.91215742
0.3231453 -0.22668402 0.91258442
0.32651356 -0.2267902 0.91301191
0.32988495 -0.22689646 0.91343969
0.24374194 -0.24374194 0.99537504
0.24457678 -0.24110761 0.98461711
0.24539313 -0.23852898 0.9740867
0.24618943 -0.23600228 0.96376836
0.2469697 -0.23352917 0.95366883
0.24773252 -0.23110618 0.94377398
0.24848793 -0.22874054 0.93411344
0.24922049 -0.22641601 0.92462063
0.24993952 -0.22413932 0.91532326
0.2506443 -0.221908 0.9062112
0.25350082 -0.22161393 0.90501028
0.25680867 -0.22171681 0.90543044
0.26011956 -0.22181976 0.90585083
0.26343355 -0.2219228 0.90627164
0.2667506 -0.22202595 0.90669286
0.27007076 -0.22212921 0.90711457
0.27339399 -0.22223255 0.90753657
0.27672032 -0.22233598 0.90795892
0.28004974 -0.2224395 0.9083817
0.28338227 -0.22254315 0.90880495
0.28671792 -0.22264688 0.90922856
0.29005668 -0.22275071 0.90965259
0.29854295 -0.22676213 0.92603415
0.3007977 -0.22600476 0.92294127
0.30303749 -0.22525246 0.91986907
0.30526239 -0.22450514 0.91681719
0.30747259 -0.22376278 0.91378558
0.31015524 -0.22337605 0.91220629
0.31351599 -0.22348063 0.91263336
0.31687993 -0.22358532 0.9130609
0.32024696 -0.22369009 0.91348875
0.32361719 -0.22379497 0.91391706
0.32699057 -0.22389995 0.91434574
0.33036709 -0.224005 0.91477478
0.33374682 -0.22411019 0.91520429
0.24461783 -0.24109815 0.99895191
0.24544643 -0.2384834 0.98811811
0.24625584 -0.23592344 0.97751129
0.24704792 -0.23341769 0.96712911
0.24781999 -0.23096149 0.95695221
0.24858038 -0.22856049 0.94700408
0.24932548 -0.22620921 0.93726194
0.25005132 -0.22390215 0.92770302
0.25076535 -0.22164421 0.9183476
0.25146413 -0.21943048 0.90917534
0.25386792 -0.21874154 0.90632081
0.25718072 -0.21884322 0.90674216
0.26049659 -0.218945 0.9071638
0.26381555 -0.21904686 0.90758586
0.26713759 -0.21914881 0.90800828
0.27046275 -0.21925087 0.90843117
0.27379102 -0.21935302 0.90885442
0.27712235 -0.21945527 0.90927804
0.28045678 -0.2195576 0.909702
0.28379437 -0.21966004 0.91012651
0.28713503 -0.21976258 0.91055131
0.29047883 -0.2198652 0.91097653
0.29553229 -0.22124547 0.91669548
0.29777434 -0.22051398 0.91366464
0.30052921 -0.22017382 0.91225523
0.30388564 -0.22027689 0.91268229
0.30724522 -0.2203801 0.9131099
0.31060794 -0.22048335 0.91353774
0.31397384 -0.22058676 0.91396618
0.31734288 -0.22069022 0.91439486
0.3207151 -0.22079381 0.91482407
0.32409042 -0.22089745 0.91525352
0.32746896 -0.22100122 0.91568345
0.33085069 -0.2211051 0.91611385
0.33423558 -0.22120905 0.91654456
0.24550006 -0.23843531 1.0025547
0.24632181 -0.23584004 0.99164224
0.24712466 -0.23329951 0.98096001
0.24791037 -0.2308131 0.97050536
0.24867615 -0.22837606 0.96025831
0.24942821 -0.22599201 0.950234
0.25016871 -0.22366077 0.94043177
0.25089094 -0.22137436 0.93081808
0.25159663 -0.21913254 0.92139184
0.25228941 -0.21693675 0.91215914
0.25423607 -0.21586081 0.90763515
0.25755385 -0.21596131 0.90805769
0.26087472 -0.21606189 0.90848058
0.26419866 -0.21616255 0.90890384
0.26752573 -0.21626331 0.90932751
0.2708559 -0.21636418 0.90975165
0.27418914 -0.21646513 0.9101761
0.27752554 -0.21656616 0.91060096
0.28086501 -0.21666729 0.91102618
0.28420767 -0.21676855 0.91145194
0.2875534 -0.21686988 0.91187799
0.29090226 -0.21697129 0.9123044
0.29425433 -0.21707286 0.91273147
0.29760951 -0.21717452 0.91315889
0.30096787 -0.21727628 0.9135868
0.30432945 -0.21737817 0.91401523
0.30769414 -0.21748014 0.91444397
0.31106201 -0.21758224 0.91487324
0.31443301 -0.21768439 0.91530275
0.31780717 -0.21778664 0.91573268
0.32118455 -0.21788901 0.91616315
0.32456505 -0.21799146 0.91659391
0.32794881 -0.21809404 0.91702521
0.33133566 -0.21819666 0.91745675
0.33472577 -0.21829942 0.91788882
0.24638867 -0.23575319 1.0061835
0.24720344 -0.23317772 0.99519151
0.24799962 -0.230657 0.98443317
0.24877873 -0.22819014 0.97390479
0.24953827 -0.22577272 0.96358734
0.25028387 -0.22340776 0.95349377
0.25101763 -0.22109501 0.94362307
0.2517336 -0.21882723 0.93394434
0.25243345 -0.21660417 0.92445642
0.25312006 -0.21442655 0.91516238
0.25460532 -0.21297175 0.90895337
0.25792807 -0.21307102 0.9093771
0.26125392 -0.21317039 0.90980119
0.2645829 -0.21326986 0.91022569
0.26791498 -0.21336943 0.91065067
0.27125019 -0.21346907 0.91107595
0.27458847 -0.21356882 0.91150165
0.2779299 -0.21366866 0.91192776
0.28127447 -0.2137686 0.91235435
0.28462216 -0.21386863 0.91278124
0.28797296 -0.21396874 0.91320848
0.29132694 -0.21406896 0.91363627
0.29468411 -0.21416934 0.91406465
0.29804441 -0.21426977 0.91449332
0.30140793 -0.21437034 0.91492254
0.30477458 -0.214471 0.91535211
0.30814439 -0.21457174 0.91578209
0.31151736 -0.2146726 0.9162125
0.31489351 -0.21477354 0.91664332
0.31827289 -0.21487458 0.91707462
0.32165539 -0.21497571 0.91750622
0.32504112 -0.21507697 0.91793835
0.32843 -0.21517828 0.91837078
0.3318221 -0.2152797 0.91880363
0.33521742 -0.21538123 0.91923696
0.24809143 -0.23049629 0.99876636
0.24888077 -0.22799566 0.98793089
0.24965319 -0.22554874 0.97732806
0.25040638 -0.22315125 0.96693951
0.25114542 -0.2208057 0.95677596
0.25187239 -0.2185118 0.94683623
0.25258192 -0.21626295 0.93709171
0.25327671 -0.21405968 0.92754465
0.25395623 -0.2118998 0.91818565
0.25497562 -0.21007425 0.91027534
0.2583034 -0.21017233 0.91070032
0.26163426 -0.21027048 0.91112566
0.26496825 -0.21036872 0.91155136
0.26830539 -0.21046709 0.91197759
0.27164561 -0.21056552 0.91240412
0.27498895 -0.21066406 0.91283107
0.27833545 -0.21076268 0.91325843
0.28168508 -0.21086141 0.91368622
0.28503785 -0.21096022 0.91411436
0.28839377 -0.21105912 0.91454291
0.2917529 -0.21115817 0.91497213
0.2951152 -0.21125732 0.91540176
0.29848066 -0.21135657 0.9158318
0.30184925 -0.21145588 0.91626215
0.30522102 -0.21155532 0.91669297
0.30859599 -0.21165484 0.91712421
0.31197414 -0.21175447 0.91755593
0.31535542 -0.21185416 0.91798788
0.31873992 -0.21195395 0.91842031
0.32212767 -0.21205388 0.91885334
0.32551855 -0.21215388 0.91928661
0.32891262 -0.21225396 0.91972029
0.33230996 -0.21235417 0.92015451
0.33571047 -0.21245445 0.92058903
0.2489858 -0.22779551 1.0023669
0.24976823 -0.22531539 0.99145365
0.25053382 -0.22288869 0.98077548
0.25128055 -0.2205115 0.9703151
0.25201291 -0.21818568 0.9600808
0.25273311 -0.21591108 0.95007187
0.25343603 -0.21368136 0.94026047
0.25412473 -0.21149737 0.93065029
0.25479794 -0.20935626 0.92122883
0.2554585 -0.20725879 0.91199934
0.25867981 -0.20726518 0.91202742
0.2620157 -0.20736212 0.91245395
0.26535472 -0.20745915 0.91288096
0.2686969 -0.20755631 0.91330844
0.27204219 -0.20765351 0.91373616
0.27539062 -0.20775081 0.91416436
0.27874216 -0.20784821 0.91459292
0.28209692 -0.20794572 0.91502202
0.28545478 -0.20804331 0.91545141
0.28881583 -0.20814103 0.9158814
0.29218009 -0.20823886 0.91631186
0.29554752 -0.20833677 0.91674274
0.29891813 -0.20843481 0.9171741
0.30229187 -0.20853288 0.9176057
0.3056688 -0.20863108 0.91803777
0.30904892 -0.20872937 0.91847032
0.31243223 -0.20882776 0.91890323
0.3158187 -0.20892622 0.9193365
0.31920841 -0.20902479 0.91977024
0.32260132 -0.20912346 0.9202044
0.32599738 -0.2092222 0.92063886
0.32939672 -0.20932107 0.92107391
0.33279926 -0.20942001 0.92150933
0.33620504 -0.20951907 0.92194521
0.24988666 -0.22507522 1.0059936
0.25066203 -0.22261593 0.99500161
0.25142068 -0.22020984 0.98424733
0.25216082 -0.21785323 0.97371429
0.25288644 -0.2155475 0.96340865
0.25359684 -0.21329007 0.95331883
0.25429589 -0.21108221 0.94345057
0.25497809 -0.20891754 0.93377542
0.25564525 -0.20679584 0.92429233
0.25629947 -0.20471719 0.91500157
0.25905728 -0.20434953 0.91335833
0.26239824 -0.20444526 0.91378617
0.26574233 -0.20454106 0.91421437
0.26908958 -0.20463699 0.91464311
0.27243993 -0.20473297 0.91507214
0.27579343 -0.20482904 0.91550153
0.2791501 -0.20492522 0.9159314
0.28250995 -0.2050215 0.91636175
0.28587297 -0.2051179 0.91679257
0.28923917 -0.20521438 0.91722381
0.29260856 -0.20531099 0.91765559
0.29598111 -0.20540766 0.91808772
0.29935688 -0.20550445 0.91852033
0.30273578 -0.20560129 0.91895318
0.30611789 -0.20569825 0.91938657
0.3095032 -0.20579532 0.91982037
0.31289166 -0.20589244 0.92025453
0.31628335 -0.20598967 0.92068905
0.31967828 -0.20608701 0.9211241
0.32307637 -0.20618442 0.92155951
0.32647771 -0.20628193 0.92199534
0.32988223 -0.20637952 0.92243153
0.33328998 -0.20647721 0.92286819
0.33670101 -0.20657501 0.92330527
0.25079405 -0.22233514 1.0096465
0.25156227 -0.21989709 0.99857509
0.25231379 -0.21751189 0.98774368
0.25305048 -0.21517898 0.97714967
0.253766 -0.21289095 0.9667595
0.25446963 -0.21065366 0.95659977
0.25516161 -0.20846537 0.94666249
0.2558372 -0.20632033 0.93692166
0.25649905 -0.20421898 0.92737925
0.25714597 -0.20215878 0.91802365
0.25943589 -0.20142537 0.91469318
0.26278189 -0.20151986 0.91512221
0.26613107 -0.20161444 0.91555172
0.26948339 -0.20170912 0.91598171
0.27283886 -0.20180388 0.916412
0.27619743 -0.20189871 0.91684264
0.27955922 -0.20199366 0.91727376
0.28292421 -0.20208871 0.91770548
0.2862924 -0.20218389 0.91813767
0.28966373 -0.20227915 0.91857022
0.29303825 -0.20237449 0.91900319
0.29641598 -0.20246994 0.91943663
0.29979691 -0.20256548 0.9198705
0.30318096 -0.20266108 0.9203046
0.30656829 -0.20275681 0.92073929
0.30995879 -0.20285261 0.92117435
0.3133525 -0.2029485 0.92160982
0.31674939 -0.20304447 0.92204565
0.32014951 -0.20314056 0.92248195
0.32355285 -0.20323671 0.92291862
0.32695943 -0.20333298 0.92335576
0.3303692 -0.20342931 0.92379326
0.33378223 -0.20352575 0.92423117
0.33741507 -0.20375305 0.9252634
0.25170806 -0.21957511 1.0133262
0.25246897 -0.21715863 1.0021743
0.25321335 -0.21479477 0.99126518
0.25394097 -0.21248122 0.98058826
0.25465176 -0.21021588 0.9701339
0.25534847 -0.20799908 0.95990348
0.25603324 -0.20583065 0.94989628
0.25670213 -0.20370555 0.94008911
0.25735736 -0.20162392 0.93048245
0.25799814 -0.19958346 0.92106587
0.2598156 -0.19849266 0.9160319
0.2631667 -0.19858591 0.91646224
0.26652092 -0.19867924 0.91689295
0.26987836 -0.1987727 0.91732424
0.27323893 -0.1988662 0.91775578
0.27660266 -0.1989598 0.91818774
0.27996957 -0.19905351 0.91862017
0.28333971 -0.19914734 0.91905326
0.28671306 -0.19924128 0.91948676
0.29008958 -0.19933529 0.91992062
0.29346925 -0.19942938 0.92035478
0.29685214 -0.19952357 0.92078948
0.30023825 -0.19961786 0.92122465
0.30362755 -0.19971223 0.92166018
0.30702001 -0.19980668 0.92209601
0.31041571 -0.19990122 0.92253232
0.31381464 -0.19999586 0.9229691
0.31721681 -0.2000906 0.9234063
0.32062215 -0.2001854 0.9238438
0.32403076 -0.20028031 0.92428184
0.32768419 -0.20052315 0.92540252
0.33172363 -0.2009951 0.92758054
0.33578232 -0.20146939 0.92976934
0.33986035 -0.20194601 0.93196887
0.25338227 -0.21440038 1.0057995
0.25411931 -0.21205817 0.99481177
0.2548404 -0.20976658 0.98406142
0.25554368 -0.20752205 0.97353178
0.25623336 -0.20532607 0.96322995
0.25690925 -0.2031766 0.95314634
0.25757292 -0.20107304 0.94327807
0.25822139 -0.1990114 0.93360645
0.25885591 -0.19699097 0.92412817
0.26019642 -0.19555134 0.91737455
0.26355261 -0.19564334 0.91780615
0.26691195 -0.19573542 0.91823816
0.27027452 -0.19582763 0.91867071
0.27364019 -0.19591989 0.9191035
0.27700907 -0.19601226 0.91953683
0.28038114 -0.19610474 0.91997063
0.28375646 -0.19619732 0.92040497
0.28713495 -0.19628999 0.92083973
0.29051664 -0.19638276 0.9212749
0.2939015 -0.19647558 0.92171037
0.29728958 -0.19656852 0.92214638
0.30068088 -0.19666155 0.92258275
0.30407539 -0.19675466 0.92301959
0.30747306 -0.19684784 0.92345673
0.31087402 -0.19694112 0.92389435
0.31427819 -0.19703451 0.92433244
0.31795037 -0.19729228 0.9255417
0.32196751 -0.19775669 0.92772037
0.32600361 -0.19822331 0.92990935
0.33005893 -0.1986922 0.932109
0.33413368 -0.19916342 0.93431962
0.33822775 -0.19963686 0.93654066
0.25430214 -0.21162207 1.009451
0.25503176 -0.20930195 0.99838388
0.25574553 -0.2070321 0.98755658
0.25644189 -0.20480931 0.97695369
0.25712442 -0.20263447 0.96657962
0.25779262 -0.20050536 0.95642364
0.25844964 -0.19842263 0.9464888
0.25909126 -0.19638129 0.93675148
0.25971988 -0.19438154 0.9272126
0.26057836 -0.1926014 0.9187212
0.26393965 -0.19269215 0.91915405
0.26730415 -0.192783 0.91958743
0.27067178 -0.19287391 0.92002112
0.27404261 -0.19296491 0.92045516
0.27741671 -0.19305606 0.92088997
0.28079394 -0.19314729 0.92132509
0.28417441 -0.19323862 0.92176074
0.28755808 -0.19333002 0.92219675
0.29094496 -0.19342151 0.92263317
0.29433501 -0.19351308 0.92306995
0.29772833 -0.19360475 0.92350727
0.30112484 -0.19369651 0.92394495
0.30452454 -0.19378835 0.92438304
0.30821365 -0.19406046 0.92568099
0.3122085 -0.19451733 0.92786032
0.31622213 -0.19497634 0.93004984
0.3202548 -0.19543755 0.93224984
0.3243067 -0.19590101 0.93446052
0.32837805 -0.19636677 0.93668228
0.33246881 -0.19683477 0.93891466
0.33657905 -0.19730496 0.94115752
0.34070906 -0.19777746 0.94341135
0.25595081 -0.20652582 1.0019816
0.25665712 -0.20427813 0.99107671
0.25734642 -0.20207739 0.98039961
0.25802171 -0.1999241 0.9699527
0.25868276 -0.19781624 0.95972615
0.25933233 -0.19575408 0.9497214
0.25996703 -0.19373339 0.93991786
0.26058877 -0.191754 0.9303146
0.26119718 -0.18981411 0.92090297
0.26432785 -0.18973225 0.92050588
0.26769748 -0.18982185 0.92094058
0.27107027 -0.1899115 0.92137551
0.27444628 -0.19000126 0.92181104
0.27782553 -0.19009116 0.92224717
0.28120795 -0.19018111 0.92268354
0.28459361 -0.19027115 0.92312044
0.28798249 -0.19036131 0.92355776
0.29137456 -0.19045152 0.92399549
0.29476982 -0.19054182 0.92443359
0.29847398 -0.19082764 0.92582023
0.30244648 -0.19127697 0.92800021
0.30643773 -0.19172843 0.9301905
0.3104479 -0.19218203 0.93239123
0.31447703 -0.19263776 0.9346022
0.31852534 -0.19309568 0.9368239
0.32259324 -0.19355594 0.93905687
0.32668057 -0.19401841 0.94130057
0.33078745 -0.19448307 0.943555
0.33491412 -0.19495 0.94582033
0.33906054 -0.19541913 0.94809639
0.34322706 -0.19589056 0.95038354
0.2568765 -0.20372963 1.0056055
0.25757524 -0.20150444 0.99462193
0.25825736 -0.19932616 0.98386997
0.25892526 -0.19719474 0.97334933
0.25957903 -0.19510843 0.96305138
0.26022109 -0.19306725 0.95297617
0.26084873 -0.19106755 0.94310564
0.26146352 -0.18910885 0.93343753
0.26206544 -0.18718961 0.9239642
0.26471716 -0.18676364 0.92186171
0.26809195 -0.18685198 0.92229766
0.27146992 -0.18694036 0.92273396
0.27485114 -0.18702888 0.92317092
0.27823558 -0.1871175 0.9236083
0.28162324 -0.18720619 0.9240461
0.28501406 -0.18729495 0.92448419
0.2887314 -0.18759385 0.92595953
0.29268155 -0.18803562 0.92814016
0.29665035 -0.1884795 0.93033111
0.30063796 -0.18892549 0.93253249
0.30464444 -0.18937357 0.93474424
0.30867001 -0.18982379 0.93696654
0.31271473 -0.19027615 0.93919933
0.31677902 -0.19073083 0.94144362
0.32086286 -0.19118771 0.94369876
0.32496625 -0.19164675 0.94596463
0.32908943 -0.19210805 0.94824153
0.33323249 -0.19257154 0.95052934
0.33739564 -0.1930373 0.95282835
0.34157893 -0.1935053 0.95513839
0.25849995 -0.19871084 0.99819273
0.25917479 -0.19655538 0.98736501
0.25983521 -0.19444621 0.97676998
0.2604816 -0.19238183 0.96639991
0.26111594 -0.19036195 0.95625335
0.26173645 -0.18838355 0.94631517
0.26234415 -0.18644585 0.93658143
0.26293951 -0.18454762 0.92704594
0.26510766 -0.18378629 0.92322153
0.26848763 -0.18387334 0.92365885
0.27187079 -0.18396048 0.92409658
0.27525723 -0.18404773 0.92453486
0.27898586 -0.18435909 0.92609888
0.28291366 -0.18479331 0.92828017
0.28685999 -0.1852296 0.93047178
0.29082504 -0.18566796 0.93267381
0.29480886 -0.18610838 0.93488622
0.29881164 -0.18655092 0.93710917
0.3028335 -0.18699555 0.93934274
0.30687457 -0.1874423 0.94158697
0.3109352 -0.18789132 0.94384253
0.31501538 -0.18834253 0.94610906
0.31911525 -0.18879592 0.94838667
0.32323489 -0.18925151 0.95067525
0.32737449 -0.18970931 0.95297492
0.33153409 -0.19016929 0.95528555
0.33571395 -0.19063154 0.95760757
0.3399142 -0.19109605 0.95994097
0.34413496 -0.19156282 0.9622857
0.2594313 -0.1958971 1.0017891
0.26009873 -0.19376484 0.99088496
0.26075152 -0.19167827 0.9802146
0.26139042 -0.18963617 0.96977162
0.26201582 -0.18763714 0.95954883
0.26263022 -0.18568125 0.94954669
0.2632308 -0.18376489 0.93974674
0.26381907 -0.18188769 0.93014699
0.26549932 -0.18080015 0.92458552
0.26923743 -0.18112336 0.92623836
0.27314284 -0.18155004 0.92842031
0.27706671 -0.18197872 0.9306125
0.28100914 -0.18240944 0.93281513
0.28497028 -0.18284221 0.93502825
0.28895029 -0.18327704 0.93725193
0.29294926 -0.18371393 0.93948615
0.29696733 -0.18415292 0.94173104
0.30100465 -0.18459401 0.94398671
0.30506149 -0.18503729 0.9462536
0.309138 -0.1854828 0.94853187
0.31323418 -0.18593046 0.9508211
0.31735018 -0.18638027 0.95312136
0.32148618 -0.18683228 0.95543289
0.32564226 -0.18728648 0.95775563
0.32981864 -0.1877429 0.96008974
0.33401537 -0.18820156 0.96243519
0.26102969 -0.19095461 0.99443156
0.26167437 -0.18889077 0.98368376
0.26230562 -0.18687132 0.97316712
0.26292348 -0.18489458 0.96287286
0.26353014 -0.18296041 0.95280027
0.26412341 -0.18106572 0.94293338
0.26470453 -0.17920989 0.93326879
0.26727045 -0.17872687 0.93075335
0.27119032 -0.17914996 0.9329567
0.27512872 -0.17957504 0.93517035
0.27908593 -0.18000217 0.93739468
0.28306198 -0.18043132 0.93962961
0.28705704 -0.18086252 0.94187516
0.29107124 -0.1812958 0.94413155
0.29510474 -0.18173116 0.94639879
0.29915771 -0.18216866 0.94867712
0.30323043 -0.18260838 0.95096707
0.30732286 -0.18305023 0.95326805
0.31143516 -0.18349423 0.95558023
0.31556743 -0.18394038 0.95790368
0.31971991 -0.18438873 0.96023852
0.32389259 -0.18483923 0.96258461
0.26196679 -0.18812381 0.99800164
0.26260373 -0.18608344 0.98717737
0.26322722 -0.18408702 0.97658634
0.26383749 -0.18213297 0.96622008
0.26443619 -0.18022084 0.9560762
0.26502207 -0.1783482 0.94614172
0.26559591 -0.17651404 0.93641156
0.26921856 -0.1767263 0.93753755
0.27317169 -0.1771477 0.93977308
0.27714372 -0.17757112 0.94201934
0.28113478 -0.17799658 0.94427639
0.28514504 -0.17842409 0.94654435
0.28917459 -0.17885365 0.94882315
0.29322359 -0.17928527 0.95111299
0.29729244 -0.17971916 0.95341474
0.30138102 -0.18015514 0.95572764
0.30548954 -0.18059325 0.95805186
0.30961803 -0.18103349 0.96038729
0.31376669 -0.18147588 0.96273416
0.26291049 -0.18527249 1.0015967
0.26353976 -0.18325612 0.99069607
0.26415533 -0.18128307 0.98002964
0.26475784 -0.17935209 0.9695906
0.26534852 -0.1774624 0.95937479
0.2659269 -0.17561209 0.94937193
0.26722738 -0.17427872 0.94216365
0.27119529 -0.17469636 0.94442141
0.27518225 -0.17511599 0.9466899
0.27918842 -0.17553765 0.94896942
0.28321397 -0.17596135 0.95125997
0.28725898 -0.17638709 0.9535616
0.29132381 -0.17681503 0.9558751
0.29540846 -0.17724507 0.95819992
0.29951304 -0.17767723 0.96053618
0.30363768 -0.17811149 0.96288383
0.26448244 -0.18040855 0.99423981
0.26509005 -0.17845932 0.9834975
0.26568466 -0.17655174 0.97298479
0.26626673 -0.17468454 0.96269453
0.26683792 -0.17285727 0.95262438
0.26919925 -0.17222065 0.94911587
0.27320126 -0.17263637 0.95140702
0.27722266 -0.17305414 0.95370936
0.28126356 -0.17347392 0.9560228
0.28532431 -0.17389587 0.95834816
0.2894049 -0.17431992 0.96068507
0.29350549 -0.17474605 0.9630335
0.26661798 -0.17373171 0.97640276
0.26719213 -0.17188793 0.96604037
0.26775518 -0.17008348 0.95589906
0.27120042 -0.17013194 0.95617133
0.27523711 -0.1705457 0.95849681
0.27929366 -0.17096157 0.96083409
0.28337014 -0.17137955 0.96318316
0.26812401 -0.16907184 0.96940964
0.26917943 -0.16760229 0.96098369
0.27323166 -0.16801202 0.96333295
