# .PCD v0.7 - Point Cloud Data file format
VERSION 0.7
FIELDS x y z
SIZE 4 4 4
TYPE F F F
COUNT 1 1 1
WIDTH 1125
HEIGHT 1
VIEWPOINT 0 0 0 1 0 0 0
POINTS 1125
DATA ascii
0.18056804 -0.1767666 1.0789182
0.18412672 -0.17653388 1.0774977
0.18767597 -0.17630167 1.0760804
0.1912159 -0.17607009 1.074667
0.19474655 -0.17583913 1.0732572
0.19826795 -0.17560875 1.0718511
0.20178013 -0.17537899 1.0704488
0.20528314 -0.17514984 1.0690501
0.208777 -0.17492126 1.067655
0.21226175 -0.1746933 1.0662636
0.21573743 -0.17446592 1.0648757
0.17288479 -0.17288479 1.0784168
0.17645186 -0.17265719 1.0769972
0.18000953 -0.17243019 1.0755811
0.18355787 -0.17220378 1.0741688
0.18709692 -0.17197798 1.0727603
0.19062677 -0.17175284 1.0713559
0.19414753 -0.1715284 1.0699559
0.1976589 -0.17130437 1.0685586
0.2011611 -0.17108093 1.0671648
0.20465416 -0.17085807 1.0657746
0.20813815 -0.17063579 1.064388
0.21161309 -0.17041408 1.0630051
0.21507899 -0.17019294 1.0616257
0.21853593 -0.16997239 1.0602499
0.22198391 -0.1697524 1.0588777
0.22542299 -0.169533 1.0575091
0.22885317 -0.16931413 1.0561439
0.23227452 -0.16909584 1.0547823
0.23568708 -0.16887814 1.0534242
0.23909082 -0.16866097 1.0520695
0.24248584 -0.16844437 1.0507184
0.24587215 -0.16822831 1.0493708
0.24924979 -0.16801281 1.0480266
0.25261879 -0.16779788 1.0466858
0.25597915 -0.16758348 1.0453484
0.25933096 -0.16736962 1.0440145
0.26267415 -0.16715626 1.0426836
0.16520873 -0.16900662 1.0779161
0.16878422 -0.16878422 1.0764977
0.17235032 -0.1685624 1.0750829
0.17590706 -0.16834117 1.0736719
0.17945449 -0.16812053 1.0722647
0.18299264 -0.16790046 1.0708611
0.18652153 -0.16768098 1.0694612
0.19004118 -0.16746204 1.0680648
0.1935517 -0.1672437 1.0666723
0.19705364 -0.16702642 1.0652865
0.20054585 -0.16680916 1.0639008
0.20402904 -0.16659251 1.0625191
0.20750321 -0.16637644 1.061141
0.21096839 -0.16616094 1.0597665
0.21442458 -0.16594598 1.0583955
0.21787184 -0.16573158 1.0570281
0.22131023 -0.16551773 1.0556642
0.22473976 -0.16530445 1.0543039
0.22816043 -0.16509169 1.0529469
0.23157233 -0.1648795 1.0515935
0.23497546 -0.16466784 1.0502436
0.23836987 -0.16445673 1.0488971
0.2417556 -0.16424617 1.0475543
0.24513264 -0.16403612 1.0462146
0.24850109 -0.16382664 1.0448785
0.25186092 -0.16361769 1.0435457
0.25521219 -0.16340923 1.0422163
0.25855502 -0.16320139 1.0408907
0.26188886 -0.16299376 1.0395664
0.26521489 -0.16278708 1.0382482
0.15753976 -0.16513203 1.0774158
0.16112369 -0.16491483 1.0759987
0.16469821 -0.16469821 1.0745853
0.16826335 -0.16448215 1.0731755
0.17181915 -0.16426666 1.0717696
0.17536566 -0.16405174 1.0703673
0.17890288 -0.16383737 1.0689687
0.18243086 -0.16362356 1.0675737
0.18594965 -0.16341031 1.0661823
0.18945929 -0.16319762 1.0647945
0.19295982 -0.16298547 1.0634104
0.19645123 -0.16277388 1.0620298
0.19993365 -0.16256286 1.0606531
0.20340793 -0.16235311 1.0592846
0.2068719 -0.16214284 1.0579126
0.2103276 -0.16193365 1.0565476
0.21377414 -0.16172479 1.055185
0.2172118 -0.16151646 1.0538257
0.22064064 -0.16130871 1.0524702
0.22406062 -0.16110145 1.0511179
0.22747187 -0.16089474 1.0497693
0.23087436 -0.16068855 1.048424
0.23426814 -0.1604829 1.0470822
0.23765327 -0.16027778 1.0457439
0.24102972 -0.16007318 1.0444089
0.24439758 -0.15986909 1.0430773
0.24775684 -0.15966552 1.0417491
0.2511076 -0.1594625 1.0404245
0.25444981 -0.15925996 1.039103
0.25778362 -0.15905797 1.0377852
0.26110825 -0.15885606 1.0364678
0.26442537 -0.15865521 1.0351573
0.26773414 -0.1584549 1.0338503
0.14987792 -0.16126105 1.076916
0.15347026 -0.16104904 1.0755001
0.15705319 -0.16083759 1.0740881
0.16062668 -0.16062668 1.0726796
0.16419086 -0.16041635 1.071275
0.16774568 -0.16020656 1.0698739
0.17129125 -0.15999731 1.0684767
0.17482753 -0.15978861 1.0670829
0.17835462 -0.15958045 1.0656928
0.18187255 -0.15937285 1.0643064
0.18538132 -0.15916577 1.0629236
0.18888097 -0.15895922 1.0615442
0.19237156 -0.15875323 1.0601685
0.19585311 -0.15854776 1.0587964
0.1993257 -0.15834284 1.0574279
0.20278926 -0.15813841 1.0560627
0.20624395 -0.15793455 1.0547013
0.2096909 -0.15773208 1.0533493
0.2131273 -0.15752888 1.0519922
0.21655574 -0.15732682 1.0506428
0.21997505 -0.15712504 1.0492953
0.22338563 -0.15692379 1.0479513
0.22678745 -0.15672304 1.0466107
0.23018059 -0.15652281 1.0452735
0.23356509 -0.15632309 1.0439398
0.23694094 -0.15612388 1.0426095
0.2403082 -0.15592515 1.0412824
0.24366692 -0.15572698 1.039959
0.2470171 -0.15552928 1.0386387
0.25035876 -0.15533209 1.0373218
0.25369218 -0.15513551 1.0360091
0.2570163 -0.15493891 1.0346961
0.26033229 -0.15474297 1.0333877
0.26364055 -0.15454791 1.0320851
0.26694047 -0.15435335 1.0307857
0.27023214 -0.15415926 1.0294896
0.14582394 -0.15718684 1.0750022
0.14941522 -0.15698054 1.0735914
0.15299711 -0.1567748 1.0721843
0.1565696 -0.1565696 1.0707809
0.16013275 -0.15636493 1.0693811
0.16368662 -0.15616079 1.0679851
0.1672312 -0.15595718 1.0665926
0.17076656 -0.15575412 1.0652038
0.17429274 -0.15555158 1.0638187
0.17780973 -0.15534955 1.0624369
0.18131761 -0.15514806 1.061059
0.18481641 -0.15494709 1.0596845
0.18830614 -0.15474664 1.0583136
0.19178687 -0.15454671 1.0569463
0.19525863 -0.1543473 1.0555825
0.19872142 -0.15414838 1.0542222
0.20217529 -0.15394999 1.0528654
0.2056203 -0.15375212 1.0515121
0.20905647 -0.15355475 1.0501623
0.21248382 -0.15335789 1.048816
0.2159037 -0.15316245 1.0474794
0.21931279 -0.15296607 1.0461363
0.22271465 -0.1527712 1.0448036
0.22610714 -0.15257636 1.0434711
0.22949098 -0.15238202 1.0421419
0.23286623 -0.15218817 1.0408162
0.23623288 -0.15199479 1.0394938
0.239591 -0.15180193 1.0381747
0.24294057 -0.15160953 1.0368589
0.2462817 -0.15141763 1.0355465
0.2496144 -0.15122624 1.0342376
0.25293764 -0.15103471 1.0329278
0.25625357 -0.15084431 1.0316255
0.25956094 -0.15065426 1.0303258
0.26286036 -0.15046491 1.0290308
0.26615155 -0.15027604 1.0277392
0.26943442 -0.15008762 1.0264506
0.2727091 -0.14989971 1.0251654
0.1417844 -0.15312715 1.0730957
0.14537461 -0.15292655 1.0716898
0.14895542 -0.15272644 1.0702876
0.15252687 -0.15252687 1.068889
0.15608901 -0.15232784 1.0674942
0.15964186 -0.15212931 1.0661029
0.16318546 -0.1519313 1.0647153
0.16672017 -0.15173408 1.0633333
0.17024557 -0.15153727 1.061954
0.17376119 -0.1513404 1.0605743
0.17726816 -0.15114443 1.059201
0.18076608 -0.15094899 1.0578314
0.18425497 -0.15075406 1.0564654
0.18773483 -0.15055962 1.0551027
0.19120574 -0.15036568 1.0537436
0.19466773 -0.15017225 1.0523881
0.19812082 -0.14997931 1.051036
0.20156504 -0.14978686 1.0496874
0.20500045 -0.14959492 1.0483422
0.20842706 -0.14940347 1.0470005
0.21184491 -0.14921249 1.0456623
0.21525402 -0.14902201 1.0443274
0.21865447 -0.14883204 1.042996
0.22204766 -0.14864346 1.0416746
0.22542985 -0.1484538 1.0403454
0.22880477 -0.1482655 1.0390258
0.23217152 -0.14807789 1.0377111
0.23552902 -0.14789031 1.0363966
0.23887801 -0.1477032 1.0350853
0.24221857 -0.14751658 1.0337775
0.24555071 -0.14733043 1.032473
0.24887449 -0.14714476 1.0311719
0.25218987 -0.14695957 1.0298741
0.25549528 -0.14677389 1.0285728
0.25879413 -0.14658968 1.0272819
0.26208478 -0.14640598 1.0259945
0.26536721 -0.14622276 1.0247105
0.26864144 -0.14603998 1.0234296
0.27190748 -0.14585765 1.0221519
0.27516538 -0.14567579 1.0208775
0.27841517 -0.14549439 1.0196062
0.14134829 -0.14888687 1.069795
0.14492804 -0.14869241 1.0683978
0.14849846 -0.14849846 1.0670042
0.15205957 -0.14830501 1.0656142
0.15561141 -0.14811206 1.0642278
0.15915403 -0.14791963 1.0628451
0.16268745 -0.1477277 1.061466
0.16621171 -0.14753623 1.0600903
0.16972685 -0.14734529 1.0587183
0.1732329 -0.14715482 1.0573498
0.1767299 -0.14696486 1.0559849
0.18021789 -0.14677539 1.0546235
0.18369743 -0.14658685 1.0532687
0.18716788 -0.14639863 1.0519164
0.19062896 -0.14621057 1.050565
0.19408105 -0.14602289 1.0492165
0.19752385 -0.14583537 1.0478691
0.20095846 -0.14564879 1.0465285
0.20438431 -0.14546271 1.0451914
0.20780143 -0.1452771 1.0438578
0.2112098 -0.14509195 1.0425274
0.21460955 -0.1449073 1.0412006
0.21800064 -0.1447231 1.0398772
0.22138308 -0.14453937 1.0385569
0.224757 -0.14435612 1.0372403
0.22812389 -0.14417431 1.0359339
0.23148033 -0.14399171 1.0346218
0.2348287 -0.14380983 1.0333149
0.2381693 -0.14362882 1.0320144
0.24150085 -0.14344788 1.0307143
0.24482453 -0.14326768 1.0294195
0.24813759 -0.14308664 1.0281187
0.2514441 -0.14290708 1.0268285
0.25474167 -0.1427276 1.0255389
0.25803185 -0.14254905 1.024256
0.26131377 -0.14237095 1.0229763
0.26458752 -0.1421933 1.0216998
0.26785302 -0.14201602 1.020426
0.27111059 -0.14183933 1.0191563
0.27436036 -0.14166319 1.0178908
0.27760127 -0.14148709 1.0166255
0.14091487 -0.1446726 1.0665146
0.14448422 -0.14448422 1.0651259
0.14804429 -0.14429633 1.0637408
0.15159512 -0.14410894 1.0623593
0.15513672 -0.14392202 1.0609814
0.15866917 -0.1437356 1.0596071
0.16219246 -0.14354965 1.0582364
0.16570666 -0.14336419 1.0568691
0.16921178 -0.14317919 1.0555054
0.17270787 -0.14299469 1.0541452
0.17619495 -0.14281064 1.0527885
0.17967308 -0.14262708 1.0514352
0.18314227 -0.142444 1.0500855
0.18660259 -0.14226137 1.0487393
0.19005401 -0.14207922 1.0473964
0.19349664 -0.14189754 1.0460571
0.19693045 -0.14171632 1.0447211
0.20035584 -0.14153579 1.0433903
0.20377265 -0.1413558 1.0420635
0.20718114 -0.14117654 1.0407419
0.21058007 -0.14099708 1.0394191
0.21397045 -0.14081816 1.0381
0.21735151 -0.14063922 1.0367808
0.22072388 -0.14046066 1.0354645
0.22408859 -0.14028309 1.0341556
0.2274448 -0.14010599 1.03285
0.23079254 -0.13992934 1.0315477
0.23413353 -0.13975412 1.030256
0.23746462 -0.13957845 1.0289609
0.24111442 -0.13959256 1.029065
0.24506573 -0.13977823 1.0304338
0.24874182 -0.1398038 1.0306222
0.25215372 -0.13968228 1.0297264
0.25527552 -0.13940577 1.027688
0.25799793 -0.13892196 1.0241214
0.26054752 -0.13835973 1.0199766
0.26381412 -0.13818835 1.0187132
0.26707029 -0.13801619 1.0174441
0.27031869 -0.13784464 1.0161794
0.27355987 -0.13767391 1.0149209
0.27679253 -0.13750339 1.0136638
0.13691582 -0.14066693 1.0646381
0.14048409 -0.14048409 1.0632544
0.1440431 -0.14030172 1.061874
0.14759289 -0.14011984 1.0604974
0.15113349 -0.13993841 1.0591244
0.15466493 -0.13975747 1.0577549
0.15818726 -0.13957699 1.0563889
0.16170047 -0.13939695 1.0550263
0.16520466 -0.13921741 1.0536674
0.16869982 -0.13903831 1.0523119
0.17218603 -0.1388597 1.0509601
0.17566326 -0.13868153 1.0496116
0.1791316 -0.1385038 1.0482665
0.18259105 -0.13832656 1.0469249
0.18604164 -0.13814974 1.0455867
0.18948343 -0.13797337 1.0442519
0.19291645 -0.13779747 1.0429206
0.19634072 -0.13762201 1.0415926
0.19975631 -0.137447 1.0402681
0.20316321 -0.13727243 1.0389469
0.20656143 -0.1370983 1.0376289
0.20995104 -0.13692459 1.0363142
0.21333213 -0.13675137 1.0350032
0.21670471 -0.1365786 1.0336956
0.22006996 -0.136407 1.0323968
0.22342514 -0.13623483 1.0310938
0.22677374 -0.13606425 1.0298027
0.23011234 -0.13589312 1.0285075
0.23344229 -0.13572226 1.0272144
0.23758994 -0.13602477 1.0295039
0.24195357 -0.13643998 1.0326464
0.24595359 -0.13664088 1.0341669
0.24967755 -0.13668479 1.0344993
0.25313061 -0.13658126 1.0337157
0.25629196 -0.13632551 1.03178
0.25907046 -0.13587612 1.0283788
0.26116195 -0.13508376 1.0223819
0.26304254 -0.13420539 1.0157338
0.26629168 -0.13403943 1.0144778
0.26953185 -0.13387343 1.0132215
0.27276403 -0.13370787 1.0119684
0.27598828 -0.13354272 1.0107185
0.136498 -0.136498 1.0613893
0.14005597 -0.13632114 1.060014
0.1436047 -0.13614471 1.0586421
0.14714426 -0.13596874 1.0572739
0.15067469 -0.13579324 1.0559092
0.15419601 -0.13561818 1.0545479
0.15770826 -0.13544357 1.0531901
0.16121149 -0.1352694 1.0518359
0.16470571 -0.1350957 1.0504851
0.16819097 -0.13492243 1.0491378
0.17166731 -0.13474961 1.047794
0.17513475 -0.13457723 1.0464536
0.17859334 -0.1344053 1.0451167
0.18204308 -0.13423379 1.0437831
0.18548405 -0.13406272 1.0424529
0.18891625 -0.1338921 1.0411261
0.19233972 -0.1337219 1.0398027
0.19575451 -0.13355213 1.0384827
0.19916062 -0.1333828 1.0371659
0.20255812 -0.13321389 1.0358526
0.20594701 -0.13304542 1.0345424
0.20932737 -0.13287738 1.0332358
0.21269919 -0.13270974 1.0319324
0.21606249 -0.13254254 1.0306321
0.21941738 -0.13237578 1.0293354
0.22276379 -0.13220941 1.0280417
0.22610182 -0.13204347 1.0267514
0.22943145 -0.13187791 1.0254642
0.23302913 -0.1318692 1.0253963
0.23835336 -0.13282286 1.0328119
0.24279365 -0.13326268 1.0362319
0.24684708 -0.13348027 1.0379238
0.25061274 -0.13353817 1.0383741
0.25411096 -0.13345397 1.0377192
0.25731611 -0.1332204 1.0359031
0.26014736 -0.1328025 1.0326536
0.26233849 -0.13207386 1.0269878
0.26227653 -0.13024616 1.0127759
0.26551726 -0.13008565 1.0115277
0.26874903 -0.12992503 1.0102787
0.27197281 -0.1297648 1.0090328
0.27554977 -0.12977506 1.0091126
0.13608274 -0.13235445 1.0581603
0.13963041 -0.13218346 1.0567932
0.14316893 -0.1320129 1.0554297
0.14669834 -0.13184281 1.0540698
0.15021864 -0.13167313 1.0527132
0.1537299 -0.13150388 1.0513601
0.15723217 -0.13133509 1.0500107
0.16072543 -0.13116673 1.0486646
0.16420975 -0.13099879 1.0473219
0.16768517 -0.13083129 1.0459827
0.17115171 -0.13066421 1.044647
0.17460939 -0.13049755 1.0433146
0.1780583 -0.13033132 1.0419856
0.18149841 -0.13016552 1.04066
0.18492976 -0.13000013 1.0393378
0.18835244 -0.12983517 1.0380189
0.19176647 -0.12967066 1.0367037
0.195172 -0.12950665 1.0353924
0.19856891 -0.12934305 1.0340844
0.20195733 -0.12917991 1.0327802
0.20533715 -0.12901714 1.0314789
0.20870842 -0.12885477 1.0301807
0.2120712 -0.12869278 1.0288856
0.21542527 -0.12853104 1.0275925
0.21877089 -0.12836969 1.0263026
0.22210817 -0.12820877 1.0250161
0.22543737 -0.12804843 1.0237341
0.22875825 -0.12788847 1.0224552
0.23346716 -0.12849744 1.0273238
0.23910853 -0.12959318 1.0360842
0.24363245 -0.13005944 1.0398118
0.24774799 -0.13029709 1.0417119
0.25155419 -0.1303675 1.0422748
0.25509387 -0.13029975 1.0417331
0.25834244 -0.13008733 1.0400349
0.26122329 -0.12969828 1.0369245
0.26351374 -0.12903087 1.0315886
0.26151595 -0.12631042 1.0098389
0.26474738 -0.1261548 1.0085946
0.26797074 -0.1259995 1.0073531
0.27118617 -0.12584455 1.0061144
0.27615833 -0.12649833 1.0113412
0.28540084 -0.12906662 1.0318744
0.1321234 -0.12840161 1.056313
0.13566998 -0.12823601 1.0549507
0.13920744 -0.12807085 1.053592
0.14273579 -0.1279061 1.0522367
0.14625508 -0.12774178 1.0508848
0.14976534 -0.12757789 1.0495366
0.15326673 -0.12741451 1.0481925
0.1567592 -0.1272516 1.0468522
0.16024251 -0.12708889 1.0455137
0.16371709 -0.12692674 1.0441798
0.16718288 -0.12676504 1.0428495
0.17063986 -0.12660377 1.0415229
0.1740877 -0.12644264 1.0401974
0.17752676 -0.12628192 1.0388751
0.18095723 -0.12612171 1.0375571
0.18437909 -0.12596194 1.0362428
0.18779229 -0.12580259 1.0349319
0.19119686 -0.12564364 1.0336243
0.19459286 -0.12548512 1.0323201
0.19798028 -0.12532698 1.0310191
0.20135917 -0.1251692 1.0297213
0.20472959 -0.12501188 1.0284269
0.20809151 -0.12485491 1.0271356
0.21144503 -0.12469835 1.0258477
0.21479012 -0.12454217 1.0245628
0.21812686 -0.12438639 1.0232813
0.22145528 -0.12423101 1.0220031
0.22477537 -0.12407601 1.0207279
0.22808734 -0.12392146 1.0194565
0.23139268 -0.12376818 1.0181955
0.23985408 -0.12633535 1.0393147
0.2444768 -0.12683383 1.0434154
0.24864276 -0.12708408 1.0454742
0.25250101 -0.12717204 1.0461978
0.25608391 -0.12712078 1.0457761
0.25937226 -0.12692685 1.0441808
0.26230872 -0.12656854 1.0412331
0.25752899 -0.12254828 1.0081599
0.26075679 -0.12239604 1.0069075
0.26398197 -0.12224668 1.0056787
0.26719695 -0.12209663 1.0044442
0.27040404 -0.12194692 1.0032127
0.27676958 -0.1232071 1.0135797
0.2860454 -0.12571421 1.0342048
0.13195217 -0.12451824 1.054944
0.13525982 -0.12414258 1.0517614
0.13878715 -0.12398319 1.050411
0.1423054 -0.12382419 1.0490639
0.14581467 -0.12366562 1.0477204
0.14931495 -0.12350743 1.0463803
0.1528063 -0.12334966 1.0450436
0.15628873 -0.12319229 1.0437104
0.15976229 -0.12303533 1.0423806
0.16322701 -0.12287875 1.041054
0.16668293 -0.1227226 1.039731
0.17013004 -0.12256681 1.0384111
0.17356844 -0.12241143 1.0370947
0.17699815 -0.12225645 1.0357817
0.18041916 -0.12210186 1.034472
0.18383154 -0.12194766 1.0331656
0.18723531 -0.12179384 1.0318624
0.1906305 -0.12164041 1.0305625
0.19401714 -0.12148736 1.0292659
0.19739531 -0.12133473 1.0279727
0.20076497 -0.12118246 1.0266826
0.20412618 -0.12103056 1.0253958
0.20747897 -0.12087905 1.0241121
0.21082337 -0.12072792 1.0228317
0.21415944 -0.12057716 1.0215545
0.21748786 -0.12042716 1.0202836
0.22080824 -0.12027766 1.019017
0.22411849 -0.12012751 1.0177449
0.22742109 -0.11997806 1.0164787
0.23071584 -0.11982916 1.0152172
0.23400244 -0.11968064 1.0139589
0.24531333 -0.1235789 1.0469857
0.24954328 -0.1238474 1.0492606
0.25344911 -0.12394957 1.0501262
0.25707576 -0.12391421 1.0498266
0.25031477 -0.1189439 1.0077171
0.25355396 -0.118798 1.0064811
0.25678346 -0.11865167 1.0052413
0.26000571 -0.11850601 1.0040072
0.26321954 -0.11836047 1.0027741
0.26642761 -0.11821622 1.0015521
0.26962647 -0.11807172 1.0003278
0.27738354 -0.11990127 1.0158281
0.28669286 -0.12234663 1.0365458
0.13496153 -0.12017123 1.0494419
0.13836937 -0.11992011 1.047249
0.14187759 -0.1197668 1.0459101
0.14537686 -0.11961388 1.0445746
0.14886722 -0.11946134 1.0432426
0.15234868 -0.11930921 1.041914
0.15582126 -0.11915744 1.0405886
0.15928504 -0.11900607 1.0392667
0.16274004 -0.11885508 1.0379481
0.16618626 -0.11870448 1.0366329
0.16962376 -0.11855425 1.035321
0.17305259 -0.1184044 1.0340124
0.17647277 -0.11825494 1.0327072
0.1798843 -0.11810585 1.0314052
0.18328723 -0.11795713 1.0301064
0.18668161 -0.11780879 1.028811
0.19006748 -0.11766083 1.0275189
0.19344486 -0.11751324 1.02623
0.19681376 -0.117366 1.0249442
0.20017424 -0.11721915 1.0236617
0.2035263 -0.11707265 1.0223824
0.20687115 -0.11692718 1.021112
0.21020645 -0.11678136 1.0198386
0.21353252 -0.1166354 1.018564
0.21685146 -0.11649045 1.0172981
0.22016202 -0.11634579 1.0160347
0.22346435 -0.11620147 1.0147744
0.22675852 -0.11605751 1.0135173
0.23004451 -0.11591391 1.0122632
0.23332243 -0.11577067 1.0110123
0.23659386 -0.11562858 1.0097715
0.23985383 -0.11548518 1.0085192
0.2431082 -0.11534331 1.0072802
0.24635401 -0.11520152 1.006042
0.24959187 -0.11506008 1.0048069
0.2528218 -0.11491901 1.0035748
0.25604326 -0.11477801 1.0023435
0.2592577 -0.11463776 1.0011188
0.26246417 -0.11449779 0.99989641
0.2656621 -0.11435787 0.99867445
0.26902413 -0.1142913 0.99809319
0.27800027 -0.11658075 1.0180867
0.28734329 -0.11896378 1.0388974
0.13585103 -0.11724129 1.0563585
0.1379541 -0.11588144 1.044106
0.14145234 -0.11573374 1.0427752
0.14494169 -0.11558641 1.0414478
0.14842217 -0.11543946 1.0401237
0.15189378 -0.11529286 1.0388029
0.1553566 -0.11514665 1.0374855
0.15881065 -0.11500081 1.0361714
0.16225594 -0.11485533 1.0348606
0.16569255 -0.11471023 1.0335532
0.16912049 -0.1145655 1.0322492
0.17253977 -0.11442111 1.0309483
0.17595047 -0.11427711 1.0296508
0.17935257 -0.11413345 1.0283564
0.18274616 -0.11399018 1.0270655
0.18613121 -0.11384725 1.0257777
0.1895078 -0.11370467 1.0244931
0.19287595 -0.11356247 1.0232118
0.19623657 -0.11342113 1.0219383
0.19958687 -0.11327904 1.020658
0.20293012 -0.11313803 1.0193876
0.20626479 -0.11299723 1.018119
0.20959117 -0.11285678 1.0168535
0.21290928 -0.11271668 1.0155911
0.2162192 -0.11257694 1.0143321
0.2195209 -0.11243753 1.0130759
0.22281444 -0.11229847 1.0118231
0.22609982 -0.11215975 1.0105731
0.22937711 -0.11202137 1.0093263
0.2326463 -0.11188334 1.0080826
0.23590885 -0.1117463 1.0068479
0.23916116 -0.11160854 1.0056067
0.24240629 -0.11147151 1.004372
0.24564362 -0.11133488 1.0031409
0.24887304 -0.11119859 1.001913
0.25209454 -0.11106263 1.000688
0.25530818 -0.110927 0.99946588
0.25851399 -0.11079171 0.99824691
0.26171196 -0.11065673 0.99703074
0.26490214 -0.11052208 0.99581754
0.26961163 -0.11101655 1.0002728
0.27861938 -0.11324529 1.020354
0.28799626 -0.11556537 1.0412582
0.13675261 -0.11427273 1.063369
0.13884404 -0.11292649 1.0508416
0.14102964 -0.11172478 1.039659
0.14450911 -0.11158298 1.0383395
0.14797972 -0.11144152 1.0370232
0.15144159 -0.11130044 1.0357103
0.15489466 -0.1111597 1.0344007
0.15833905 -0.11101934 1.0330945
0.16177474 -0.11087932 1.0317916
0.16520178 -0.11073966 1.0304919
0.16862017 -0.11060033 1.0291954
0.17203 -0.11046138 1.0279024
0.17543125 -0.11032275 1.0266124
0.17882401 -0.11018448 1.0253258
0.18220827 -0.11004658 1.0240425
0.18558447 -0.10990925 1.0227646
0.18895149 -0.10977182 1.0214857
0.19231044 -0.10963493 1.0202118
0.19566104 -0.10949837 1.0189412
0.19900328 -0.10936216 1.0176736
0.20233725 -0.10922631 1.0164094
0.20566292 -0.10909077 1.0151482
0.20898035 -0.10895557 1.01389
0.21228956 -0.1088207 1.012635
0.21559061 -0.10868617 1.0113832
0.21888348 -0.10855197 1.0101343
0.22216827 -0.10841811 1.0088887
0.22544493 -0.10828458 1.0076461
0.22871356 -0.10815137 1.0064065
0.23197412 -0.10801849 1.00517
0.23522769 -0.10788638 1.0039407
0.23847194 -0.10775398 1.0027087
0.24170846 -0.10762201 1.0014806
0.24493733 -0.10749049 1.0002567
0.24815832 -0.10735928 0.99903566
0.25137144 -0.10722838 0.99781764
0.25457674 -0.1070978 0.99660254
0.25777426 -0.10696756 0.99539053
0.26136395 -0.10700135 0.99570495
0.26551247 -0.10726 0.99811184
0.27020112 -0.10772724 1.0024598
0.27924085 -0.10989479 1.02263
0.13766654 -0.11126474 1.0704757
0.13976036 -0.10994481 1.0577767
0.14180596 -0.10865652 1.045382
0.14407907 -0.10760336 1.0352496
0.14753994 -0.10746737 1.0339413
0.1509921 -0.10733173 1.0326363
0.15443552 -0.10719641 1.0313344
0.15787026 -0.10706145 1.0300359
0.16129638 -0.10692682 1.0287406
0.1647139 -0.10679253 1.0274487
0.16812283 -0.10665856 1.0261598
0.17152362 -0.10652519 1.0248766
0.17491521 -0.10639172 1.0235925
0.17829859 -0.10625876 1.0223132
0.18167359 -0.10612615 1.0210375
0.18504013 -0.10599386 1.0197647
0.18839832 -0.10586191 1.0184952
0.19174814 -0.10573029 1.0172288
0.19508962 -0.10559897 1.0159655
0.19842285 -0.105468 1.0147054
0.20174782 -0.10533736 1.0134485
0.20506454 -0.10520703 1.0121945
0.20837307 -0.10507702 1.0109438
0.21167342 -0.10494733 1.009696
0.21496567 -0.10481797 1.0084515
0.21824978 -0.10468892 1.0072099
0.22152585 -0.1045602 1.0059714
0.22479384 -0.10443179 1.0047359
0.22805381 -0.10430367 1.0035034
0.23130582 -0.1041759 1.0022742
0.23455042 -0.10404868 1.0010501
0.23778629 -0.10392141 0.99982572
0.24101461 -0.10379462 0.99860579
0.24423507 -0.10366812 0.99738878
0.2474477 -0.10354194 0.99617481
0.25065249 -0.10341606 0.99496371
0.25403821 -0.10336728 0.99449438
0.25816399 -0.10361684 0.99689543
0.26230973 -0.10386761 0.99930811
0.26647556 -0.10411959 1.0017323
0.27079326 -0.10442355 1.0046567
0.27986512 -0.1065293 1.0249162
0.13859278 -0.10821628 1.077678
0.14068897 -0.10692362 1.0648049
0.14273693 -0.1056624 1.052245
0.14473727 -0.10443069 1.039979
0.14710277 -0.10351676 1.0308776
0.15054524 -0.10338649 1.0295802
0.15397905 -0.10325654 1.0282861
0.15740424 -0.10312692 1.0269953
0.16082087 -0.10299764 1.0257078
0.16422893 -0.10286867 1.0244235
0.16762845 -0.10274002 1.0231423
0.17101948 -0.10261168 1.0218643
0.17440204 -0.10248367 1.0205895
0.1777762 -0.10235599 1.019318
0.18114193 -0.10222862 1.0180495
0.18449931 -0.10210156 1.0167842
0.18784837 -0.10197483 1.0155221
0.1911891 -0.10184839 1.014263
0.19452156 -0.10172229 1.0130072
0.19784579 -0.10159649 1.0117544
0.2011618 -0.101471 1.0105047
0.20446962 -0.10134581 1.009258
0.20776932 -0.10122095 1.0080146
0.21106087 -0.10109638 1.0067741
0.21434434 -0.10097213 1.0055367
0.21761975 -0.10084818 1.0043023
0.22088712 -0.10072453 1.003071
0.2241465 -0.10060118 1.0018426
0.22739789 -0.10047814 1.0006173
0.23064135 -0.10035539 0.99939489
0.23387724 -0.1002331 0.99817705
0.23710482 -0.10011093 0.99696034
0.24032472 -0.099989116 0.99574733
0.24353682 -0.099867612 0.99453729
0.24674112 -0.099746414 0.9933303
0.25083345 -0.09998256 0.995682
0.25495639 -0.10022424 0.99808878
0.25909933 -0.10046709 1.0005072
0.26326239 -0.10071111 1.0029373
0.26744574 -0.10095634 1.0053794
0.27164948 -0.10120276 1.0078334
0.28049219 -0.10314874 1.0272126
0.14163049 -0.10386235 1.0719308
0.1436802 -0.10262872 1.0591987
0.14568253 -0.10142455 1.0467709
0.14763843 -0.10024831 1.0346314
0.15017129 -0.099511102 1.0270228
0.15352593 -0.099340312 1.0252602
0.15694097 -0.09921556 1.0239726
0.1603481 -0.09909153 1.0226926
0.16374674 -0.098967813 1.0214157
0.16713691 -0.098844402 1.0201421
0.17051861 -0.098721296 1.0188715
0.17389192 -0.098598503 1.0176042
0.17725684 -0.098476022 1.0163401
0.1806134 -0.098353833 1.015079
0.18396164 -0.098231949 1.0138211
0.18730162 -0.09811037 1.0125663
0.19063331 -0.09798909 1.0113146
0.19395679 -0.097868107 1.010066
0.19727208 -0.09774743 1.0088205
0.20057918 -0.097627036 1.007578
0.20387816 -0.097506948 1.0063386
0.20716904 -0.097387157 1.0051023
0.21045184 -0.097267658 1.0038689
0.21372657 -0.097148441 1.0026386
0.21699333 -0.097029544 1.0014114
0.22025208 -0.096910916 1.0001872
0.22350287 -0.096792579 0.99896586
0.22674571 -0.096674532 0.99774748
0.22998069 -0.096556775 0.9965322
0.23320805 -0.096439421 0.99532098
0.23642723 -0.096322201 0.99411124
0.23963881 -0.096205361 0.99290532
0.24352069 -0.096357107 0.99447149
0.24762098 -0.096589744 0.99687243
0.25174111 -0.096823506 0.99928498
0.25588122 -0.097058393 1.0017092
0.26004148 -0.097294427 1.0041453
0.26422203 -0.097531617 1.0065932
0.26842296 -0.097769953 1.009053
0.27264455 -0.098009475 1.011525
0.28112206 -0.099752992 1.0295193
0.1425847 -0.10075985 1.0791527
0.14463603 -0.099554673 1.0662451
0.14664023 -0.098378889 1.0536523
0.14859764 -0.097230554 1.0413535
0.15081142 -0.096301273 1.0314007
0.15417917 -0.096135251 1.0296226
0.15753542 -0.095969848 1.0278511
0.1608801 -0.095805004 1.0260856
0.16421334 -0.095640741 1.0243263
0.16753517 -0.095477037 1.022573
0.17084564 -0.095313884 1.0208256
0.17414483 -0.095151305 1.0190843
0.17743278 -0.094989263 1.0173489
0.18070954 -0.094827786 1.0156194
0.18397519 -0.094666846 1.0138958
0.18722975 -0.094506443 1.0121778
0.19047332 -0.094346598 1.0104659
0.19370593 -0.094187289 1.0087596
0.19692767 -0.094028525 1.0070592
0.20013855 -0.09387029 1.0053645
0.20333861 -0.093712576 1.0036753
0.20657223 -0.093575455 1.0022068
0.2098463 -0.093460955 1.0009805
0.2131124 -0.093346752 0.99975735
0.21637052 -0.093232825 0.99853718
0.21962067 -0.093119167 0.99731988
0.22286291 -0.093005784 0.99610549
0.22609729 -0.092892684 0.99489421
0.22932379 -0.092779852 0.99368578
0.23254254 -0.092667326 0.99248064
0.23622572 -0.092740469 0.99326396
0.24030343 -0.092964098 0.99565905
0.24440084 -0.093188807 0.99806577
0.24851811 -0.093414612 1.0004841
0.25265536 -0.093641497 1.0029141
0.25681278 -0.0938695 1.0053561
0.26099047 -0.094098598 1.0078098
0.26518863 -0.094328843 1.0102757
0.26940739 -0.094560206 1.0127536
0.27364689 -0.094792709 1.0152438
0.28175476 -0.096341953 1.0318364
0.14355183 -0.097615249 1.0864725
0.14560521 -0.096439816 1.0733898
0.1476106 -0.095292926 1.0606247
0.14956942 -0.094173335 1.0481635
0.15148273 -0.093079753 1.0359918
0.15483807 -0.092902839 1.0340227
0.1582074 -0.092742264 1.0322355
0.16156518 -0.092582293 1.030455
0.16491139 -0.092422873 1.0286806
0.16824612 -0.092264004 1.0269123
0.17156941 -0.092105679 1.0251502
0.17488131 -0.091947906 1.0233941
0.17818186 -0.091790654 1.0216439
0.18147117 -0.091633961 1.0198998
0.18474926 -0.091477789 1.0181617
0.18801618 -0.091322146 1.0164293
0.19127201 -0.091167033 1.0147029
0.19451681 -0.091012448 1.0129824
0.19775061 -0.090858392 1.0112677
0.20097348 -0.090704843 1.0095587
0.20418549 -0.090551823 1.0078555
0.20738667 -0.090399317 1.0061581
0.21057709 -0.090247326 1.0044664
0.21375678 -0.090095833 1.0027803
0.21692584 -0.089944862 1.0010999
0.22008429 -0.089794397 0.99942523
0.22323219 -0.089644425 0.99775606
0.2263696 -0.089494959 0.9960925
0.22949657 -0.089345992 0.99443448
0.23300363 -0.089347258 0.99444854
0.23707846 -0.089562975 0.99684948
0.24117297 -0.08977972 0.99926192
0.24528734 -0.089997515 1.001686
0.24942176 -0.090216383 1.004122
0.25357628 -0.090436302 1.0065697
0.25775114 -0.090657301 1.0090295
0.26194644 -0.090879381 1.0115013
0.26616237 -0.091102555 1.0139853
0.27039906 -0.091326833 1.0164815
0.27465665 -0.091552213 1.01899
0.14453219 -0.094427697 1.0938923
0.14658754 -0.093282975 1.0806314
0.14859389 -0.092165835 1.0676899
0.15055399 -0.091075867 1.0550632
0.15246825 -0.090011381 1.0427318
0.15550265 -0.089642704 1.0384609
0.15888524 -0.089487091 1.0366582
0.16225611 -0.089332014 1.0348617
0.16561539 -0.089177527 1.033072
0.16896313 -0.08902359 1.0312887
0.17229931 -0.088870168 1.0295115
0.17562401 -0.088717282 1.0277404
0.17893729 -0.088564925 1.0259753
0.18223922 -0.08841309 1.0242164
0.18552986 -0.088261776 1.0224636
0.18880922 -0.088110968 1.0207165
0.19207741 -0.087960683 1.0189756
0.19533446 -0.087810911 1.0172405
0.19858046 -0.087661646 1.0155114
0.20181543 -0.087512888 1.0137881
0.20503944 -0.087364629 1.0120707
0.20825253 -0.087216869 1.0103589
0.21145481 -0.087069623 1.0086532
0.21464625 -0.086922862 1.006953
0.21782699 -0.086776607 1.0052587
0.22099702 -0.086630829 1.00357
0.22415642 -0.08648555 1.001887
0.22730525 -0.086340748 1.0002096
0.23044354 -0.086196437 0.99853778
0.23384568 -0.086153671 0.99804235
0.23793726 -0.086362414 1.0004605
0.24204876 -0.086572185 1.0028906
0.24618027 -0.086782977 1.0053325
0.25033194 -0.086994782 1.0077862
0.25450394 -0.087207638 1.010252
0.25869638 -0.087421536 1.0127299
0.26290944 -0.087636486 1.0152199
0.26714328 -0.087852493 1.0177222
0.27139804 -0.088069558 1.0202368
0.27567387 -0.088287704 1.022764
0.14758322 -0.090083264 1.0879714
0.14959076 -0.088997036 1.0748527
0.1515516 -0.087937348 1.0620544
0.15346667 -0.086902812 1.04956
0.15617296 -0.086354464 1.0429373
0.15956894 -0.08620391 1.041119
0.16295311 -0.086053886 1.0393071
0.16632551 -0.085904382 1.0375015
0.16968627 -0.085755423 1.0357025
0.17303546 -0.085607015 1.03391
0.17637306 -0.085459113 1.0321238
0.17969917 -0.085311733 1.0303438
0.18301383 -0.085164845 1.0285698
0.18631707 -0.085018471 1.0268019
0.18960899 -0.084872596 1.0250401
0.19288963 -0.08472722 1.0232844
0.19615905 -0.084582344 1.0215347
0.19941731 -0.084437959 1.0197909
0.20266446 -0.084294066 1.0180531
0.20590055 -0.084150657 1.0163211
0.20912567 -0.084007747 1.014595
0.21233983 -0.083865315 1.0128748
0.21554317 -0.083723381 1.0111606
0.21873562 -0.083581902 1.009452
0.22191733 -0.083440915 1.0077492
0.22508831 -0.083300397 1.0060521
0.22824864 -0.083160356 1.0043608
0.23139834 -0.083020777 1.0026751
0.23469378 -0.082936898 1.001662
0.23880237 -0.0831386 1.0040981
0.24293092 -0.083341263 1.0065457
0.24707969 -0.083544932 1.0090054
0.25124878 -0.083749592 1.0114772
0.25543833 -0.083955251 1.0139611
0.2596485 -0.08416193 1.0164572
0.26387948 -0.084369622 1.0189656
0.26813138 -0.084578358 1.0214865
0.27240437 -0.084788114 1.0240198
0.14859252 -0.08683978 1.0954119
0.15060137 -0.08578559 1.0821142
0.15256253 -0.084756963 1.0691389
0.15447824 -0.083753258 1.056478
0.15684907 -0.083037741 1.0474523
0.16025853 -0.082892343 1.0456183
0.16365609 -0.082747459 1.0437907
0.16704179 -0.08260309 1.0419695
0.17041571 -0.082459211 1.0401547
0.17377791 -0.082315847 1.0383463
0.17712852 -0.082173027 1.0365447
0.18046755 -0.082030706 1.0347494
0.18379502 -0.081888869 1.0329603
0.18711099 -0.081747517 1.0311773
0.19041555 -0.081606664 1.0294005
0.19370872 -0.081466287 1.0276297
0.19699061 -0.081326403 1.0258652
0.20026124 -0.081186987 1.0241066
0.20352066 -0.081048049 1.022354
0.20676894 -0.080909587 1.0206075
0.21000616 -0.080771603 1.0188669
0.21323237 -0.080634087 1.0171323
0.21644759 -0.080497041 1.0154035
0.21965188 -0.080360442 1.0136805
0.22284533 -0.08022432 1.0119634
0.226028 -0.08008866 1.0102521
0.2291999 -0.079953454 1.0085466
0.23236112 -0.079818711 1.0068469
0.23554811 -0.07969673 1.0053083
0.23967375 -0.07989125 1.007762
0.24381955 -0.080086716 1.0102276
0.24798569 -0.080283143 1.0127053
0.25217235 -0.080480538 1.0151954
0.2563796 -0.080678895 1.0176975
0.26060766 -0.080878243 1.0202121
0.2648567 -0.081078582 1.0227392
0.14961569 -0.083551623 1.1029547
0.15162574 -0.082530461 1.0894746
0.15358722 -0.081533961 1.0763198
0.15550323 -0.080561914 1.063488
0.15753105 -0.079692177 1.0520067
0.16095412 -0.07955204 1.0501567
0.16436519 -0.079412393 1.0483133
0.16776431 -0.079273239 1.0464764
0.17115149 -0.079134561 1.0446457
0.17452689 -0.078996375 1.0428215
0.17789052 -0.078858681 1.0410038
0.18124253 -0.078721501 1.0391929
0.18458292 -0.078584805 1.0373884
0.18791173 -0.078448586 1.0355902
0.191229 -0.078312829 1.0337981
0.19453482 -0.078177549 1.0320122
0.19782925 -0.078042731 1.0302325
0.20111234 -0.077908389 1.0284591
0.20438415 -0.077774502 1.0266917
0.20764469 -0.077641062 1.0249301
0.21089409 -0.077508084 1.0231748
0.2141324 -0.077375576 1.0214255
0.21735963 -0.077243507 1.019682
0.22057585 -0.077111885 1.0179446
0.22378117 -0.076980717 1.0162131
0.22697558 -0.076849997 1.0144874
0.23015913 -0.076719716 1.0127676
0.23333195 -0.076589875 1.0110536
0.236494 -0.076460466 1.0093453
0.2405515 -0.076620109 1.0114527
0.24471471 -0.076808266 1.0139365
0.24889839 -0.076997347 1.0164325
0.25310272 -0.077187352 1.0189408
0.25732785 -0.07737831 1.0214616
0.15065306 -0.080217868 1.1106021
0.1526641 -0.079230733 1.0969355
0.15462624 -0.078267604 1.0836011
0.15654191 -0.077327937 1.0705916
0.15841302 -0.076410986 1.0578966
0.16165578 -0.076182604 1.0547347
0.16508046 -0.0760483 1.0528753
0.16849306 -0.075914457 1.0510222
0.17189367 -0.075781077 1.0491756
0.17528236 -0.075648181 1.0473356
0.1786592 -0.07551574 1.0455021
0.18202423 -0.075383767 1.0436749
0.18537761 -0.075252295 1.0418547
0.18871935 -0.075121291 1.040041
0.19204943 -0.074990734 1.0382334
0.19536801 -0.07486064 1.0364323
0.19867507 -0.074730992 1.0346373
0.20197071 -0.074601792 1.0328486
0.20525497 -0.074473038 1.0310661
0.20852789 -0.074344732 1.0292896
0.21178956 -0.074216858 1.0275192
0.21504006 -0.07408943 1.025755
0.21827939 -0.073962435 1.0239968
0.22150764 -0.07383588 1.0222447
0.22472484 -0.073709749 1.0204984
0.22793111 -0.073584065 1.0187583
0.23112643 -0.073458791 1.0170239
0.23431091 -0.073333949 1.0152955
0.23748456 -0.073209524 1.0135729
0.24143575 -0.073324934 1.0151707
0.24561645 -0.073505655 1.0176728
0.2498178 -0.073687263 1.0201871
0.25404 -0.073869787 1.0227141
0.15371682 -0.075885519 1.1044996
0.15567943 -0.07495676 1.0909817
0.15759458 -0.074050464 1.0777907
0.15946555 -0.073166542 1.0649254
0.16236357 -0.072783671 1.0593528
0.16580197 -0.072654791 1.057477
0.1692282 -0.072526366 1.0556078
0.17264231 -0.072398387 1.053745
0.17604443 -0.07227087 1.0518891
0.17943457 -0.072143793 1.0500395
0.18281281 -0.072017163 1.0481964
0.18617922 -0.071890987 1.0463599
0.19207142 -0.072726078 1.0585145
0.19846393 -0.073715173 1.0729107
0.19620836 -0.071515195 1.0408903
0.19952817 -0.071390815 1.03908
0.20283642 -0.071266852 1.0372758
0.20613323 -0.071143329 1.0354779
0.20941864 -0.071020231 1.0336863
0.21269268 -0.070897557 1.0319008
0.21595544 -0.070775308 1.0301214
0.21920694 -0.070653476 1.0283482
0.22244731 -0.070532069 1.0265812
0.22567655 -0.070411086 1.0248202
0.22889473 -0.070290506 1.0230652
0.23210187 -0.070170335 1.0213162
0.23529808 -0.070050575 1.0195731
0.23848344 -0.069931231 1.0178361
0.2423265 -0.070005432 1.018916
0.24652486 -0.070178606 1.0214366
0.15674706 -0.071600512 1.0984635
0.1586622 -0.070728935 1.0850922
0.16053215 -0.069878697 1.0720483
0.16307761 -0.069354847 1.0640116
0.1665298 -0.069231495 1.0621191
0.16996975 -0.069108583 1.0602335
0.17339751 -0.068986103 1.0583545
0.17681311 -0.068864055 1.0564821
0.1802167 -0.068742447 1.0546165
0.18360826 -0.06862127 1.0527574
0.18698806 -0.068500571 1.0509057
0.19235758 -0.069099329 1.0600915
0.19876361 -0.070040509 1.0745307
0.20534657 -0.071007691 1.0893688
0.23949072 -0.066625237 1.0221351
0.15974435 -0.067362078 1.0924931
0.16161312 -0.066546582 1.0792671
0.16379794 -0.065895721 1.0687114
0.16726407 -0.06577801 1.0668023
0.17071785 -0.065660708 1.0648999
0.17415933 -0.06554383 1.0630044
0.17758858 -0.065427378 1.0611156
0.1810057 -0.065311335 1.0592337
0.18441084 -0.065195754 1.0573591
0.18780395 -0.065080576 1.0554912
0.19264457 -0.065461747 1.061673
0.19906421 -0.066354737 1.0761558
0.16084138 -0.063948981 1.0999956
0.16270925 -0.063169472 1.0865872
0.16453327 -0.06240917 1.0735091
0.16800486 -0.062293932 1.0715269
0.17147255 -0.062182356 1.0696076
0.17492789 -0.062071186 1.0676954
0.17837088 -0.06196041 1.0657899
0.18180178 -0.06185009 1.0638922
0.18522048 -0.06174016 1.0620013
0.18862702 -0.06163061 1.060117
0.19293241 -0.061813295 1.0632594
0.19936571 -0.062657796 1.0777857
0.16382056 -0.059746325 1.0940087
0.16564269 -0.059022106 1.0807476
0.16875221 -0.058778856 1.0762935
0.17223397 -0.05867311 1.0743572
0.17570326 -0.058567755 1.072428
0.17916025 -0.058462821 1.0705066
0.18260489 -0.058358267 1.0685921
0.18603723 -0.058254082 1.0666844
0.18945733 -0.058150269 1.0647835
0.19322114 -0.058153935 1.0648506
0.19966814 -0.058949642 1.0794207
0.16676749 -0.055589166 1.0880865
0.16950622 -0.055232368 1.0811026
0.17300221 -0.055132572 1.0791492
0.1764857 -0.055033177 1.0772038
0.17995666 -0.054934137 1.0752652
0.18341514 -0.054835457 1.0733336
0.18686123 -0.054737128 1.071409
0.19029497 -0.054639149 1.0694911
0.19371644 -0.054541521 1.0675802
0.17026708 -0.051654056 1.0859553
0.17377746 -0.051560346 1.0839851
0.17727512 -0.051466972 1.0820221
0.18076016 -0.05137394 1.0800662
0.18423261 -0.051281244 1.0781174
0.18769257 -0.051188879 1.0761756
0.19114006 -0.051096845 1.0742407
0.19457518 -0.05100514 1.0723127
