# .PCD v0.7 - Point Cloud Data file format
VERSION 0.7
FIELDS x y z
SIZE 4 4 4
TYPE F F F
COUNT 1 1 1
WIDTH 1379
HEIGHT 1
VIEWPOINT 0 0 0 1 0 0 0
POINTS 1379
DATA ascii
-0.15601709 -0.38295105 0.89455748
-0.15369 -0.38501722 0.89938396
-0.22897509 -0.35148406 0.8278656
-0.22534826 -0.35038018 0.82526565
-0.22259863 -0.35062921 0.82585216
-0.21984512 -0.35087863 0.82643962
-0.21708775 -0.35112849 0.82702816
-0.21432643 -0.35137871 0.82761747
-0.21156116 -0.35162923 0.82820755
-0.20879196 -0.35188013 0.82879853
-0.20601879 -0.3521314 0.82939035
-0.20324166 -0.35238302 0.829983
-0.20046055 -0.352635 0.83057648
-0.19767548 -0.35288736 0.83117086
-0.19488642 -0.35314006 0.83176607
-0.19209336 -0.35339311 0.83236212
-0.18929629 -0.35364655 0.83295906
-0.1864952 -0.35390031 0.83355677
-0.18382145 -0.35440776 0.83475196
-0.18179037 -0.35619089 0.83895183
-0.16664036 -0.38247931 0.90087008
-0.16296256 -0.38130075 0.89809418
-0.15930738 -0.38012949 0.89533544
-0.15572134 -0.37907922 0.89286172
-0.15339707 -0.38112053 0.89766973
-0.15104765 -0.38318405 0.90252995
-0.23247223 -0.34943938 0.82993716
-0.22877716 -0.34826586 0.82714999
-0.22510684 -0.34710023 0.82438153
-0.22231825 -0.34728146 0.82481194
-0.219568 -0.34752816 0.82539791
-0.21681383 -0.34777522 0.82598466
-0.21405581 -0.3480227 0.82657248
-0.21129383 -0.34827054 0.82716107
-0.20852794 -0.34851873 0.82775056
-0.20575811 -0.34876728 0.82834089
-0.2029843 -0.34901619 0.82893205
-0.20020656 -0.34926546 0.8295241
-0.19742483 -0.34951508 0.83011693
-0.19463913 -0.34976506 0.83071065
-0.19184943 -0.35001537 0.83130515
-0.18905574 -0.35026604 0.83190054
-0.18625803 -0.35051709 0.83249676
-0.18349631 -0.35084495 0.83327544
-0.18146722 -0.35260704 0.83746052
-0.17941764 -0.3543869 0.8416878
-0.17020509 -0.38017774 0.90294236
-0.16650786 -0.37900361 0.90015376
-0.16283341 -0.37783673 0.89738238
-0.15918151 -0.37667701 0.89462799
-0.15555196 -0.3755244 0.89189047
-0.15310527 -0.37723878 0.89596218
-0.15075874 -0.37927729 0.90080374
-0.14838675 -0.381338 0.90569806
-0.14598881 -0.38342115 0.91064566
-0.23972826 -0.34856194 0.83483928
-0.2359869 -0.34738445 0.83201909
-0.23227078 -0.34621492 0.82921797
-0.22857958 -0.34505326 0.82643563
-0.22491306 -0.34389931 0.82367188
-0.22203857 -0.34394211 0.82377434
-0.21929158 -0.34418613 0.82435882
-0.21654069 -0.34443051 0.82494408
-0.2137859 -0.34467521 0.82553023
-0.2110272 -0.34492034 0.82611728
-0.2082646 -0.34516582 0.82670522
-0.20549808 -0.34541169 0.82729411
-0.20272762 -0.34565789 0.82788378
-0.19995318 -0.34590441 0.82847428
-0.1971748 -0.34615132 0.82906562
-0.19439246 -0.34639859 0.82965785
-0.19160612 -0.34664619 0.83025086
-0.1888158 -0.34689415 0.83084476
-0.18602151 -0.34714249 0.83143955
-0.18322317 -0.34739116 0.83203512
-0.18114519 -0.34903586 0.8359744
-0.17909767 -0.35079458 0.84018672
-0.17702939 -0.35257113 0.84444165
-0.17494003 -0.35436571 0.84873986
-0.17752622 -0.37904248 0.90784311
-0.17378627 -0.37786558 0.90502429
-0.17006947 -0.37669593 0.90222287
-0.16637559 -0.37553346 0.89943868
-0.16270445 -0.3743782 0.89667171
-0.15905581 -0.37322998 0.89392161
-0.15542951 -0.37208882 0.89118844
-0.15281457 -0.37337169 0.894261
-0.15047097 -0.37538549 0.89908427
-0.14810196 -0.37742111 0.90395975
-0.1457071 -0.37947893 0.90888846
-0.14328599 -0.38155931 0.91387117
-0.24328206 -0.34649265 0.83694595
-0.23951927 -0.34531918 0.83411151
-0.23578191 -0.3441537 0.83129632
-0.23206969 -0.34299609 0.82850009
-0.22838232 -0.34184614 0.82572246
-0.22471964 -0.34070396 0.82296354
-0.2217596 -0.34061116 0.82273936
-0.21901585 -0.3408525 0.8233223
-0.21626826 -0.34109423 0.82390618
-0.21351673 -0.34133628 0.82449085
-0.21076128 -0.3415786 0.82507622
-0.20800196 -0.3418214 0.82566267
-0.20523871 -0.34206453 0.82624996
-0.20247157 -0.34230804 0.82683814
-0.19970046 -0.34255189 0.82742715
-0.19692542 -0.34279609 0.828017
-0.19414639 -0.34304062 0.82860768
-0.19136342 -0.34328553 0.82919925
-0.18857647 -0.3435308 0.82979167
-0.18578555 -0.3437764 0.83038491
-0.18299061 -0.34402233 0.83097899
-0.18082432 -0.34547737 0.83449358
-0.1787788 -0.34721503 0.83869088
-0.17671263 -0.34897032 0.84293073
-0.17462544 -0.35074341 0.84721363
-0.17251693 -0.35253459 0.85154015
-0.18114385 -0.37671509 0.90994769
-0.17738399 -0.3755427 0.90711576
-0.17364746 -0.37437755 0.9043014
-0.16993403 -0.37321961 0.9015044
-0.16624354 -0.37206885 0.89872479
-0.16257571 -0.37092516 0.89596218
-0.15893035 -0.36978841 0.89321643
-0.15530726 -0.36865863 0.89048749
-0.15252498 -0.36951926 0.89256632
-0.15018427 -0.37150848 0.89737117
-0.14781825 -0.37351924 0.90222818
-0.14542647 -0.37555188 0.90713793
-0.14300852 -0.37760675 0.91210145
-0.14056396 -0.37968427 0.91711968
-0.24685386 -0.34441286 0.83906329
-0.24306946 -0.34324354 0.83621454
-0.23931068 -0.34208214 0.83338511
-0.23557726 -0.34092858 0.83057481
-0.23186891 -0.33978274 0.82778329
-0.22818543 -0.33864462 0.8250106
-0.22452652 -0.33751407 0.82225633
-0.22148132 -0.33728853 0.82170689
-0.21874084 -0.33752725 0.82228845
-0.21599649 -0.33776632 0.82287085
-0.21324821 -0.33800566 0.82345396
-0.21049605 -0.33824539 0.82403797
-0.20774001 -0.33848548 0.82462287
-0.20498002 -0.33872586 0.82520849
-0.20221615 -0.33896664 0.82579511
-0.19944836 -0.3392078 0.82638264
-0.19667664 -0.33944932 0.82697099
-0.19390096 -0.33969116 0.82756019
-0.19112135 -0.3399334 0.82815033
-0.18833774 -0.34017593 0.82874119
-0.18555018 -0.34041885 0.82933295
-0.18275861 -0.34066206 0.82992548
-0.18050459 -0.34193146 0.833018
-0.1784611 -0.34364823 0.83720046
-0.17639701 -0.34538236 0.84142518
-0.17431197 -0.34713408 0.84569275
-0.17220567 -0.34890366 0.85000378
-0.17007779 -0.35069138 0.85435903
-0.16792801 -0.35249752 0.85875922
-0.17350887 -0.37089512 0.90357965
-0.16979885 -0.36974889 0.90078723
-0.16611166 -0.3686097 0.89801192
-0.16244714 -0.36747751 0.89525366
-0.15880506 -0.36635226 0.89251232
-0.15518521 -0.36523387 0.88978767
-0.15223648 -0.36568144 0.89087802
-0.14989869 -0.36764625 0.89566475
-0.14753564 -0.36963227 0.90050316
-0.14514692 -0.37163991 0.90539414
-0.14273211 -0.37366948 0.91033858
-0.1402909 -0.3757216 0.91533804
-0.25427601 -0.34349567 0.84407407
-0.25044379 -0.34232256 0.84119135
-0.24663758 -0.34115738 0.83832812
-0.24285723 -0.34000012 0.83548445
-0.23910245 -0.33885071 0.83265996
-0.23537296 -0.33770901 0.82985449
-0.2316685 -0.336575 0.82706785
-0.22798885 -0.33544856 0.82429987
-0.22433376 -0.33432966 0.82155037
-0.22120376 -0.3339743 0.82067716
-0.21846652 -0.33421037 0.82125723
-0.21572539 -0.33444676 0.82183808
-0.21298039 -0.33468348 0.82241976
-0.21023151 -0.33492056 0.82300234
-0.20747872 -0.33515793 0.82358569
-0.20472203 -0.33539566 0.82416987
-0.20196144 -0.33563378 0.82475495
-0.19919692 -0.33587217 0.82534081
-0.19642852 -0.33611104 0.82592773
-0.19365618 -0.3363502 0.82651544
-0.19087988 -0.33658969 0.82710397
-0.18809964 -0.33682957 0.8276934
-0.1853154 -0.33706975 0.82828361
-0.18252721 -0.33731031 0.82887471
-0.18018599 -0.33839807 0.83154768
-0.17814453 -0.34009409 0.83571535
-0.17608251 -0.34180722 0.83992499
-0.17399961 -0.34353769 0.84417731
-0.17189552 -0.34528577 0.84847289
-0.1697699 -0.34705174 0.85281241
-0.16762243 -0.34883589 0.85719657
-0.16545278 -0.35063848 0.86162609
-0.16966386 -0.36628368 0.90007114
-0.16598003 -0.36515605 0.89730024
-0.1623188 -0.36403534 0.89454633
-0.15867996 -0.36292151 0.89180928
-0.15506335 -0.3618145 0.88908899
-0.15194908 -0.3618581 0.88919616
-0.14961417 -0.36379865 0.89396471
-0.14725408 -0.36576015 0.8987847
-0.14486842 -0.36774293 0.90365696
-0.14245689 -0.36974767 0.90858322
-0.1400189 -0.37177432 0.91356331
-0.25790635 -0.34139046 0.84622759
-0.25405192 -0.34022158 0.8433302
-0.25022379 -0.33906063 0.84045243
-0.24642169 -0.33790758 0.83759433
-0.2426454 -0.3367624 0.83475566
-0.23889457 -0.33562487 0.831936
-0.23516902 -0.33449507 0.82913548
-0.23146844 -0.3333728 0.82635361
-0.22779265 -0.33225808 0.82359046
-0.22414134 -0.33115077 0.82084572
-0.2209269 -0.33066836 0.81964993
-0.21819286 -0.33090177 0.82022852
-0.21545498 -0.33113551 0.82080793
-0.21271326 -0.33136964 0.82138824
-0.20996763 -0.33160406 0.82196933
-0.2072181 -0.33183876 0.82255113
-0.2044647 -0.33207387 0.82313389
-0.20170739 -0.33230931 0.82371747
-0.19894616 -0.33254504 0.82430184
-0.19618101 -0.33278114 0.82488704
-0.19341199 -0.33301762 0.82547325
-0.19063902 -0.33325446 0.8260603
-0.18786211 -0.33349165 0.82664824
-0.18508123 -0.33372915 0.82723695
-0.1822964 -0.333967 0.8278265
-0.17986849 -0.3348771 0.83008248
-0.17782907 -0.33655256 0.83423549
-0.17576914 -0.33824483 0.83843023
-0.17368838 -0.33995417 0.84266734
-0.17158648 -0.34168091 0.84694749
-0.16946313 -0.34342527 0.85127139
-0.167318 -0.3451876 0.85563976
-0.16515072 -0.34696802 0.860053
-0.16296098 -0.34876695 0.86451215
-0.16074841 -0.35058463 0.86901772
-0.16219065 -0.36059859 0.89384007
-0.15855508 -0.35949618 0.89110738
-0.15494166 -0.3584004 0.88839126
-0.15166274 -0.35804915 0.88752055
-0.14933072 -0.35996565 0.8922711
-0.14697362 -0.3619028 0.89707285
-0.14459111 -0.36386114 0.90192717
-0.14218271 -0.36584088 0.90683448
-0.13974795 -0.36784229 0.9117955
-0.25767833 -0.33810973 0.84547949
-0.25382814 -0.33695316 0.84258735
-0.25000417 -0.33580443 0.83971483
-0.24620619 -0.33466351 0.83686185
-0.24243388 -0.33353025 0.83402801
-0.23868705 -0.33240467 0.83121336
-0.23496541 -0.33128664 0.8284176
-0.23126873 -0.33017612 0.82564062
-0.22759676 -0.32907301 0.82288224
-0.22394922 -0.32797727 0.82014215
-0.2206507 -0.32737064 0.81862527
-0.21791992 -0.32760146 0.81920242
-0.21518527 -0.32783261 0.81978041
-0.21244678 -0.32806405 0.82035923
-0.2097044 -0.32829586 0.82093883
-0.20695814 -0.32852796 0.82151926
-0.20420802 -0.32876042 0.82210052
-0.20145397 -0.32899317 0.82268256
-0.19869605 -0.32922629 0.82326549
-0.19593421 -0.32945973 0.82384926
-0.19316843 -0.3296935 0.8244338
-0.19039877 -0.32992765 0.8250193
-0.18762518 -0.33016214 0.82560569
-0.18484765 -0.33039698 0.82619292
-0.18206619 -0.33063218 0.82678109
-0.17955212 -0.33136857 0.82862246
-0.17751472 -0.33302346 0.83276075
-0.17545687 -0.33469501 0.83694065
-0.17337826 -0.33638346 0.84116274
-0.17127857 -0.33808899 0.84542763
-0.16915746 -0.33981189 0.84973592
-0.16701466 -0.3415525 0.85408849
-0.16484977 -0.34331101 0.85848582
-0.16266248 -0.34508768 0.86292857
-0.16045244 -0.34688288 0.86741769
-0.15821926 -0.3486968 0.87195361
-0.15596262 -0.35052982 0.87653726
-0.15482019 -0.35499176 0.88769478
-0.15137747 -0.35425451 0.8858512
-0.14904836 -0.35614714 0.89058393
-0.14669432 -0.3580603 0.89536804
-0.14431487 -0.35999426 0.90020406
-0.1419096 -0.36194918 0.9050926
-0.13947803 -0.36392543 0.91003442
-0.25360474 -0.33369043 0.84184569
-0.24978489 -0.33255386 0.83897829
-0.24599098 -0.33142498 0.83613032
-0.24222273 -0.33030373 0.8333016
-0.2384799 -0.32919005 0.83049196
-0.23476216 -0.32808378 0.82770103
-0.23106937 -0.32698494 0.82492888
-0.2274012 -0.32589343 0.82217515
-0.22375745 -0.32480919 0.81943983
-0.2203752 -0.32408115 0.81760311
-0.21764764 -0.32430938 0.81817889
-0.21491623 -0.32453793 0.81875545
-0.21218096 -0.32476678 0.81933278
-0.20944183 -0.32499593 0.81991094
-0.20669883 -0.32522544 0.82048994
-0.20395195 -0.32545525 0.82106972
-0.2012012 -0.32568541 0.82165033
-0.19844657 -0.3259159 0.82223183
-0.19568801 -0.32614666 0.82281405
-0.19292554 -0.32637781 0.82339716
-0.19015917 -0.32660928 0.82398111
-0.18738885 -0.32684103 0.82456577
-0.18461467 -0.32707325 0.82515162
-0.18183655 -0.32730576 0.82573825
-0.17923687 -0.32787234 0.82716757
-0.17720148 -0.3295069 0.83129132
-0.17514572 -0.33115786 0.83545643
-0.17306922 -0.33282542 0.83966345
-0.17097174 -0.33450991 0.84391314
-0.16885291 -0.33621153 0.84820604
-0.1667124 -0.33793056 0.85254282
-0.16454992 -0.33966726 0.85692424
-0.16236506 -0.34142187 0.86135083
-0.16015753 -0.34319469 0.86582339
-0.15792696 -0.34498608 0.87034273
-0.15567298 -0.34679624 0.87490946
-0.15339521 -0.34862545 0.87952429
-0.15111381 -0.35052171 0.88430822
-0.14876714 -0.35234323 0.88890362
-0.14641608 -0.35423246 0.89366984
-0.14403968 -0.35614204 0.89848739
-0.14163752 -0.35807237 0.90335727
-0.13920917 -0.36002371 0.90828019
-0.13675421 -0.36199644 0.91325706
-0.2533817 -0.33043343 0.84110534
-0.24956596 -0.32930893 0.83824295
-0.2457761 -0.32819203 0.83539993
-0.24201187 -0.32708272 0.83257622
-0.23827302 -0.32598087 0.82977152
-0.23455924 -0.32488638 0.82698554
-0.23087034 -0.32379928 0.82421833
-0.22720598 -0.32271934 0.82146937
-0.223566 -0.32164657 0.8187387
-0.22010039 -0.32079992 0.81658357
-0.21737604 -0.32102555 0.81715792
-0.21464783 -0.32125145 0.81773293
-0.21191581 -0.32147771 0.81830889
-0.20917992 -0.3217043 0.81888562
-0.20644017 -0.32193115 0.81946313
-0.20369656 -0.3221584 0.82004154
-0.20094907 -0.32238594 0.82062072
-0.19819768 -0.32261375 0.82120061
-0.19544242 -0.32284194 0.82178146
-0.19268328 -0.32307044 0.82236314
-0.18992019 -0.32329926 0.82294554
-0.18715321 -0.32352841 0.82352883
-0.18438229 -0.32375789 0.82411295
-0.18160747 -0.32398772 0.82469803
-0.1789227 -0.3243883 0.82571769
-0.17688936 -0.32600269 0.82982707
-0.17483565 -0.3276332 0.83397746
-0.17276131 -0.32928011 0.83816957
-0.17066601 -0.33094364 0.84240407
-0.16854945 -0.33262414 0.84668165
-0.16641127 -0.33432174 0.85100281
-0.16425115 -0.33603674 0.85536832
-0.16206875 -0.33776945 0.85977888
-0.15986374 -0.33952013 0.86423516
-0.15763579 -0.34128913 0.86873811
-0.15538448 -0.34307665 0.87328809
-0.15310948 -0.34488294 0.877886
-0.15081038 -0.34670839 0.8825326
-0.14848702 -0.34855375 0.88722986
-0.14613891 -0.3504191 0.89197803
-0.14376554 -0.35230455 0.89677739
-0.14136648 -0.35421041 0.90162867
-0.13894135 -0.35613701 0.90653276
-0.13648964 -0.35808462 0.91149032
-0.25315908 -0.3271822 0.84036636
-0.24934742 -0.32606971 0.83750892
-0.24556163 -0.32496479 0.83467096
-0.24180137 -0.32386729 0.83185202
-0.23806646 -0.32277724 0.82905221
-0.23435661 -0.32169449 0.82627118
-0.23067154 -0.32061893 0.82350862
-0.22701105 -0.3195506 0.8207646
-0.22337487 -0.31848934 0.81803876
-0.21982628 -0.31752685 0.8155666
-0.21710511 -0.31774986 0.8161394
-0.21438013 -0.3179732 0.81671309
-0.21165131 -0.31819686 0.81728756
-0.20891865 -0.31842083 0.81786281
-0.20618215 -0.31864515 0.81843895
-0.2034418 -0.31886977 0.81901592
-0.20069756 -0.31909466 0.81959355
-0.19794945 -0.31931993 0.82017213
-0.19519748 -0.31954548 0.82075149
-0.19244158 -0.31977135 0.82133162
-0.1896818 -0.31999755 0.82191259
-0.18691812 -0.32022408 0.82249445
-0.18415055 -0.32045093 0.82307714
-0.18137901 -0.32067809 0.82366055
-0.17860965 -0.32091653 0.82427299
-0.17657831 -0.32251081 0.82836789
-0.17452672 -0.32412106 0.8325038
-0.17245455 -0.32574749 0.83668131
-0.17036147 -0.32739031 0.8409009
-0.16824719 -0.32904983 0.84516335
-0.16611135 -0.33072621 0.84946913
-0.16395363 -0.33241975 0.85381901
-0.16177373 -0.33413079 0.85821378
-0.15957125 -0.33585948 0.86265391
-0.15734585 -0.33760616 0.86714023
-0.15509719 -0.33937109 0.87167346
-0.15282491 -0.34115461 0.87625444
-0.15052862 -0.34295696 0.88088375
-0.14820793 -0.34477845 0.88556224
-0.14586277 -0.34662014 0.89029264
-0.14349243 -0.34848163 0.89507383
-0.14109649 -0.35036319 0.89990664
-0.13867453 -0.35226518 0.90479189
-0.13622613 -0.35418794 0.90973049
-0.25293681 -0.32393664 0.83962858
-0.24912925 -0.32283613 0.83677614
-0.2453475 -0.32174313 0.83394313
-0.24159127 -0.32065752 0.83112925
-0.23786029 -0.31957915 0.82833421
-0.23415433 -0.31850806 0.82555795
-0.23047309 -0.31744409 0.82280016
-0.22681642 -0.31638721 0.82006085
-0.22318399 -0.31533739 0.81733972
-0.22022827 -0.3152287 0.81705803
-0.21752517 -0.31548351 0.81771851
-0.21481772 -0.3157388 0.81838018
-0.21210587 -0.31599447 0.81904286
-0.20938963 -0.31625053 0.81970656
-0.20666897 -0.31650704 0.82037139
-0.20394389 -0.31676391 0.82103723
-0.2012144 -0.31702125 0.82170421
-0.19848044 -0.31727895 0.8223722
-0.19574207 -0.31753713 0.82304138
-0.19299921 -0.31779569 0.82371157
-0.1902519 -0.31805471 0.8243829
-0.18750013 -0.31831416 0.82505542
-0.18474384 -0.31857401 0.82572889
-0.1819831 -0.31883439 0.8264038
-0.17921755 -0.31909466 0.8270784
-0.17644772 -0.31935579 0.82775521
-0.17421909 -0.3206217 0.83103639
-0.17214906 -0.32222772 0.83519918
-0.17005818 -0.32384992 0.83940381
-0.16794612 -0.32548851 0.84365094
-0.16581261 -0.32714379 0.8479414
-0.16365726 -0.32881597 0.85227561
-0.16147979 -0.33050537 0.85665441
-0.15927979 -0.33221215 0.86107832
-0.157057 -0.33393672 0.86554837
-0.15481098 -0.33567926 0.87006491
-0.1525414 -0.33744007 0.87462884
-0.1502479 -0.33921948 0.87924099
-0.14793006 -0.34101772 0.88390195
-0.14558768 -0.34283552 0.88861358
-0.14322037 -0.34467316 0.89337671
-0.14082752 -0.34653062 0.89819115
-0.13840875 -0.34840822 0.90305781
-0.1359636 -0.35030624 0.90797734
-0.25271499 -0.3206968 0.83889216
-0.24891153 -0.3196083 0.83604485
-0.24513376 -0.3185271 0.83321661
-0.24138151 -0.31745327 0.83040762
-0.23765448 -0.31638664 0.82761747
-0.23395239 -0.31532714 0.82484597
-0.23027502 -0.3142747 0.82209301
-0.22671978 -0.3133643 0.81971151
-0.2240134 -0.31361875 0.82037717
-0.22130187 -0.31387258 0.82104111
-0.21858646 -0.31412756 0.82170808
-0.21586695 -0.31438342 0.82237738
-0.21314269 -0.31463921 0.82304651
-0.21041401 -0.31489545 0.82371676
-0.20768087 -0.31515208 0.82438809
-0.20494325 -0.31540912 0.82506049
-0.20220119 -0.31566662 0.82573402
-0.19945464 -0.3159245 0.82640862
-0.1967036 -0.31618282 0.82708436
-0.19394808 -0.3164416 0.82776123
-0.19118801 -0.31670076 0.82843918
-0.18842344 -0.31696036 0.82911825
-0.18565425 -0.31722024 0.8297981
-0.18288022 -0.31748006 0.83047771
-0.18010202 -0.31774095 0.83116019
-0.17731926 -0.31800228 0.83184379
-0.17453188 -0.31826401 0.83252841
-0.17184463 -0.31872037 0.83372217
-0.16975592 -0.32032204 0.8379119
-0.16764614 -0.32193992 0.84214401
-0.16551493 -0.32357422 0.8464191
-0.16336195 -0.32522517 0.85073769
-0.16118692 -0.32689309 0.85510069
-0.15898944 -0.32857817 0.85950863
-0.15676919 -0.33028069 0.86396217
-0.15452582 -0.33200103 0.86846226
-0.15225895 -0.33373931 0.87300932
-0.14996821 -0.33549589 0.87760431
-0.14765324 -0.33727109 0.88224792
-0.14531365 -0.33906519 0.88694102
-0.14294933 -0.34087917 0.89168608
-0.14055957 -0.34271264 0.89648217
-0.13814397 -0.34456602 0.90133029
-0.13570212 -0.34643954 0.90623111
-0.2524935 -0.31746259 0.838157
-0.24869412 -0.31638601 0.83531463
-0.24492042 -0.31531671 0.83249146
-0.24117213 -0.31425461 0.8296873
-0.23744902 -0.31319961 0.82690197
-0.23375078 -0.31215167 0.82413518
-0.23054355 -0.31174126 0.82305169
-0.22782926 -0.31199548 0.82372284
-0.22511053 -0.31225011 0.82439506
-0.22238603 -0.31250325 0.82506341
-0.2196586 -0.31275892 0.82573849
-0.21692672 -0.31301507 0.8264147
-0.21418999 -0.31327108 0.82709062
-0.21144848 -0.31352705 0.82776642
-0.20870273 -0.31378382 0.82844436
-0.2059525 -0.31404102 0.82912344
-0.20319773 -0.31429863 0.82980359
-0.20043845 -0.31455672 0.83048493
-0.19767465 -0.31481519 0.83116734
-0.19490629 -0.31507409 0.83185089
-0.19213367 -0.31533387 0.83253676
-0.18935499 -0.31559163 0.83321732
-0.18657313 -0.31585214 0.8339051
-0.1837865 -0.31611276 0.83459318
-0.18099526 -0.31637383 0.83528244
-0.17819941 -0.31663534 0.83597285
-0.17539893 -0.31689724 0.83666432
-0.17259382 -0.31715959 0.83735698
-0.16978407 -0.31742239 0.83805084
-0.16734721 -0.31840399 0.84064239
-0.16521831 -0.32001743 0.84490222
-0.1630677 -0.32164729 0.84920532
-0.16089509 -0.32329386 0.85355258
-0.15870011 -0.32495737 0.85794449
-0.15648244 -0.3266381 0.86238194
-0.1542417 -0.32833627 0.8668654
-0.15197752 -0.3300522 0.87139571
-0.14968958 -0.33178622 0.87597382
-0.14737746 -0.33353847 0.88060009
-0.1450408 -0.33530936 0.88527554
-0.1426793 -0.33709946 0.89000171
-0.14029264 -0.33890921 0.8947798
-0.13788024 -0.34073851 0.89960945
-0.13544162 -0.34258762 0.90449142
-0.25227246 -0.31423411 0.83742321
-0.24847712 -0.31316939 0.83458573
-0.24470744 -0.31211188 0.8317675
-0.2409631 -0.31106144 0.82896817
-0.23724391 -0.31001809 0.82618767
-0.23439863 -0.31010503 0.82641929
-0.23167637 -0.31035891 0.82709593
-0.22894967 -0.31061324 0.82777369
-0.22621849 -0.310868 0.82845259
-0.22348092 -0.31112051 0.82912552
-0.22074102 -0.31137642 0.82980752
-0.21799473 -0.31163007 0.8304835
-0.21524584 -0.31188682 0.83116776
-0.21249378 -0.31214604 0.83185852
-0.20973471 -0.31240204 0.83254081
-0.2069717 -0.31265938 0.83322662
-0.20420414 -0.31291714 0.83391351
-0.20143202 -0.31317532 0.83460158
-0.19865398 -0.31343186 0.83528519
-0.19587448 -0.31369373 0.8359831
-0.19308688 -0.31395042 0.83666718
-0.19029665 -0.31421074 0.83736092
-0.18750152 -0.31447107 0.83805466
-0.18470179 -0.31473184 0.83874965
-0.18189742 -0.31499308 0.83944583
-0.17908837 -0.31525475 0.84014314
-0.17627466 -0.31551683 0.84084159
-0.17345624 -0.31577933 0.84154111
-0.17063315 -0.31604227 0.84224188
-0.16780536 -0.31630567 0.84294385
-0.16497284 -0.31656951 0.84364694
-0.1627745 -0.3180823 0.84767848
-0.16060433 -0.31970769 0.85201007
-0.15841185 -0.32134974 0.85638613
-0.15619673 -0.32300878 0.86080736
-0.15395863 -0.32468504 0.86527455
-0.15169716 -0.32637873 0.86978823
-0.14941198 -0.32809022 0.87434924
-0.14710271 -0.32981977 0.87895846
-0.14476895 -0.33156762 0.88361639
-0.14241034 -0.33333412 0.88832402
-0.14002672 -0.33512014 0.89308375
-0.13761747 -0.33692554 0.89789504
-0.13518211 -0.33875048 0.90275848
-0.25205177 -0.31101125 0.8366906
-0.2482605 -0.30995837 0.83385813
-0.2444948 -0.30891258 0.83104473
-0.24101117 -0.30820218 0.82913357
-0.23828541 -0.30845535 0.82981467
-0.23555513 -0.30870891 0.83049679
-0.23282039 -0.30896291 0.83118016
-0.23008114 -0.30921733 0.8318646
-0.22733738 -0.30947217 0.83255017
-0.22458664 -0.30972403 0.83322775
-0.22183338 -0.30997908 0.83391386
-0.21907592 -0.31023502 0.83460242
-0.22551769 -0.32370228 0.87083232
-0.21354556 -0.31074563 0.835976
-0.21077715 -0.31100684 0.83667874
-0.20800105 -0.31126398 0.83737051
-0.20522057 -0.31152186 0.83806431
-0.20243599 -0.31178096 0.83876133
-0.19964588 -0.31203911 0.83945578
-0.19685 -0.31229585 0.84014654
-0.19405115 -0.31255567 0.84084547
-0.19124754 -0.31281573 0.8415451
-0.18843924 -0.3130762 0.84224582
-0.18562625 -0.31333712 0.84294772
-0.18280859 -0.31359848 0.84365088
-0.17998622 -0.31386027 0.84435517
-0.17715915 -0.31412253 0.84506065
-0.17432733 -0.31438518 0.84576726
-0.17149079 -0.3146483 0.84647512
-0.16864948 -0.31491184 0.84718412
-0.16580342 -0.31517586 0.84789437
-0.16295257 -0.3154403 0.84860575
-0.1603146 -0.31613442 0.85047311
-0.15812463 -0.31775519 0.85483336
-0.15591207 -0.31939268 0.85923856
-0.15367658 -0.3210471 0.86368936
-0.15141781 -0.32271877 0.86818647
-0.14913541 -0.32440796 0.87273079
-0.14682896 -0.32611486 0.87732279
-0.14449814 -0.32783988 0.88196343
-0.14214253 -0.32958323 0.88665348
-0.13976182 -0.33134544 0.8913942
-0.13735573 -0.33312711 0.89618731
-0.13492362 -0.33492804 0.90103221
-0.25183147 -0.307794 0.83595932
-0.24804424 -0.30675295 0.83313179
-0.24493797 -0.30653915 0.83255112
-0.24220419 -0.30679199 0.83323783
-0.23946594 -0.30704528 0.83392578
-0.23672312 -0.30729896 0.83461475
-0.23397577 -0.30755305 0.83530486
-0.23122387 -0.30780756 0.83599615
-0.2284674 -0.30806249 0.83668852
-0.23298503 -0.31826061 0.86438626
-0.23062874 -0.31921461 0.86697733
-0.22803028 -0.31985456 0.86871541
-0.2252349 -0.32023191 0.86974031
-0.22226532 -0.32036862 0.87011158
-0.21911815 -0.32024962 0.86978835
-0.21576814 -0.31982654 0.86863929
-0.21214294 -0.3189775 0.86633337
-0.20344865 -0.31037059 0.8429572
-0.20064455 -0.31062749 0.84365499
-0.19783702 -0.31088674 0.8443591
-0.19502485 -0.3111465 0.84506458
-0.19220796 -0.3114067 0.84577125
-0.18938635 -0.31166729 0.84647906
-0.18656002 -0.31192836 0.84718806
-0.18372896 -0.31218985 0.8478983
-0.18089314 -0.31245178 0.84860969
-0.17805256 -0.31271416 0.84932232
-0.1752072 -0.31297696 0.85003603
-0.17235705 -0.31324023 0.85075104
-0.16950212 -0.31350392 0.85146725
-0.16664238 -0.31376809 0.85218471
-0.1637778 -0.31403267 0.85290331
-0.16090839 -0.31429768 0.85362309
-0.15803413 -0.31456318 0.85434419
-0.15562843 -0.31578973 0.85767543
-0.15339556 -0.31742251 0.86211002
-0.1511395 -0.31907228 0.86659074
-0.14885984 -0.32073924 0.87111819
-0.14655626 -0.32242379 0.87569332
-0.14422834 -0.32412606 0.88031667
-0.14187571 -0.3258464 0.88498908
-0.13949797 -0.32758513 0.88971138
-0.13709497 -0.32934308 0.89448595
-0.1346661 -0.33112016 0.89931244
-0.13221085 -0.3329165 0.9041912
-0.2516346 -0.30461031 0.83530581
-0.24889663 -0.30486155 0.83599478
-0.24615453 -0.3051137 0.83668625
-0.24340783 -0.30536619 0.83737862
-0.2406566 -0.30561912 0.83807218
-0.23790081 -0.30587247 0.83876693
-0.23514041 -0.30612618 0.8394627
-0.23237549 -0.30638042 0.84015983
-0.23457666 -0.31327334 0.85906172
-0.23262803 -0.31473204 0.86306179
-0.23030195 -0.31571195 0.86574882
-0.22772582 -0.31637076 0.8675555
-0.22495322 -0.31677085 0.86865264
-0.22200617 -0.31693295 0.86909711
-0.21887963 -0.31683975 0.86884153
-0.21555774 -0.31645709 0.86779225
-0.21197364 -0.31567299 0.86564201
-0.20788492 -0.31410348 0.86133814
-0.201655 -0.30920434 0.84790361
-0.19883388 -0.30946326 0.84861368
-0.19600835 -0.30972314 0.84932625
-0.19317809 -0.30998343 0.85004008
-0.19034305 -0.31024417 0.8507551
-0.18750322 -0.31050533 0.85147125
-0.18465863 -0.31076697 0.85218871
-0.18180923 -0.31102902 0.8529073
-0.17895505 -0.31129155 0.8536272
-0.17609602 -0.31155449 0.85434824
-0.17323215 -0.31181785 0.85507047
-0.17036344 -0.31208169 0.85579395
-0.16748989 -0.31234601 0.85651875
-0.16461144 -0.31261072 0.85724467
-0.16172814 -0.31287593 0.85797191
-0.1588399 -0.31314152 0.85870022
-0.15594678 -0.3134076 0.8594299
-0.15311559 -0.31381115 0.86053646
-0.15086222 -0.31543916 0.86500084
-0.14858532 -0.31708413 0.86951166
-0.14628455 -0.31874633 0.87406981
-0.14395954 -0.32042608 0.878676
-0.14160989 -0.32212362 0.883331
-0.13923523 -0.32383922 0.8880356
-0.1368352 -0.32557341 0.89279109
-0.13440955 -0.32732677 0.89759922
-0.13195762 -0.32909912 0.90245932
-0.25013897 -0.30342302 0.84016758
-0.24738425 -0.30367526 0.84086609
-0.24462409 -0.30392689 0.84156281
-0.24185984 -0.30417955 0.84226239
-0.23909217 -0.30443412 0.84296733
-0.23631909 -0.30468813 0.84367067
-0.23354036 -0.30494121 0.84437144
-0.23416446 -0.30970138 0.85755217
-0.23227178 -0.31121382 0.86174005
-0.22997378 -0.31221604 0.86451519
-0.22742218 -0.31289628 0.86639875
-0.22467177 -0.31331778 0.86756581
-0.22174276 -0.31349841 0.86806595
-0.21863873 -0.31343314 0.86788529
-0.2153441 -0.31308895 0.86693221
-0.21180059 -0.3123678 0.86493534
-0.20779873 -0.3109397 0.86098105
-0.20267509 -0.30776587 0.85219282
-0.19984093 -0.30802551 0.85291171
-0.19700186 -0.30828536 0.8536312
-0.19415805 -0.30854574 0.85435224
-0.19130945 -0.3088066 0.85507452
-0.18845603 -0.30906788 0.85579801
-0.18559776 -0.3093296 0.85652274
-0.18273467 -0.3095918 0.85724872
-0.17986672 -0.30985442 0.8579759
-0.17699388 -0.31011748 0.85870433
-0.17411616 -0.310381 0.85943395
-0.17123355 -0.31064492 0.86016482
-0.16834605 -0.31090936 0.860897
-0.16545361 -0.31117424 0.86163044
-0.16255625 -0.31143954 0.86236507
-0.15965393 -0.31170529 0.86310089
-0.15674667 -0.31197152 0.86383808
-0.15383443 -0.31223819 0.86457652
-0.15091722 -0.31250533 0.86531621
-0.14831178 -0.31344241 0.86791092
-0.14601384 -0.31508252 0.87245232
-0.14369173 -0.31673983 0.8770414
-0.14134508 -0.31841475 0.88167912
-0.13897347 -0.32010743 0.88636613
-0.1365765 -0.32181817 0.89110315
-0.13415398 -0.32354784 0.8958925
-0.13170537 -0.3252964 0.90073419
-0.25139338 -0.30196956 0.84438086
-0.24862584 -0.30222183 0.84508628
-0.24585371 -0.30247456 0.84579301
-0.24307692 -0.3027277 0.84650081
-0.24029407 -0.30297947 0.84720486
-0.23750809 -0.30323359 0.84791541
-0.23471783 -0.30348864 0.84862864
-0.23375446 -0.30614293 0.85605067
-0.23191555 -0.30770496 0.86041844
-0.22964583 -0.30872917 0.86328238
-0.22711805 -0.30942929 0.8652401
-0.22438774 -0.30986878 0.86646903
-0.22147843 -0.3100698 0.86703116
-0.21839745 -0.31003273 0.8669275
-0.21512875 -0.30972436 0.8660652
-0.2116196 -0.30905595 0.86419618
-0.20770039 -0.30776042 0.86057353
-0.20370534 -0.30631247 0.85652471
-0.2008581 -0.30657288 0.8572529
-0.19800696 -0.3068352 0.85798645
-0.19514801 -0.30709338 0.85870832
-0.19228508 -0.30735329 0.85943514
-0.18941854 -0.3076157 0.86016887
-0.18654653 -0.3078776 0.86090124
-0.18366957 -0.30813983 0.86163449
-0.18078771 -0.30840257 0.86236918
-0.17790096 -0.30866575 0.86310506
-0.17500925 -0.30892935 0.86384219
-0.1721126 -0.30919343 0.86458057
-0.16921102 -0.30945799 0.86532032
-0.16630444 -0.30972296 0.86606127
-0.1633929 -0.30998841 0.86680353
-0.16047636 -0.31025431 0.86754704
-0.15755479 -0.31052062 0.86829174
-0.15462823 -0.31078744 0.86903781
-0.15169662 -0.31105468 0.86978513
-0.14875998 -0.31132242 0.87053376
-0.14581826 -0.31159061 0.87128371
-0.14342494 -0.31306735 0.875413
-0.14108124 -0.31471971 0.88003337
-0.13871267 -0.31638959 0.8847028
-0.13631885 -0.3180773 0.88942206
-0.13389939 -0.31978327 0.89419234
-0.13145407 -0.32150814 0.89901555
-0.25266039 -0.30050144 0.84863657
-0.24987999 -0.30075374 0.84934914
-0.2470949 -0.30100653 0.85006297
-0.24430513 -0.3012597 0.85077798
-0.24151067 -0.30151334 0.85149425
-0.23871146 -0.30176732 0.85221153
-0.23590755 -0.30202177 0.85293013
-0.23332776 -0.30257341 0.85448802
-0.23155038 -0.30419365 0.85906363
-0.22931732 -0.3052502 0.86204743
-0.22681163 -0.30596736 0.86407274
-0.22410162 -0.30642468 0.86536419
-0.2212137 -0.30664796 0.86599481
-0.21815579 -0.30663854 0.86596823
-0.21491292 -0.30636522 0.86519635
-0.2114352 -0.30574441 0.86344314
-0.20760566 -0.30458933 0.86018109
-0.20474762 -0.30484644 0.8609072
-0.20188721 -0.30510774 0.8616451
-0.19902147 -0.30536881 0.86238241
-0.19615014 -0.30562928 0.86311799
-0.1932739 -0.3058902 0.86385483
-0.19039206 -0.30615044 0.86458975
-0.18750452 -0.30640984 0.86532229
-0.18461411 -0.30667302 0.86606556
-0.18171942 -0.30693784 0.86681348
-0.17881675 -0.30719802 0.86754817
-0.17591149 -0.30746266 0.86829561
-0.17300072 -0.30772695 0.86904192
-0.17008491 -0.30799159 0.8697893
-0.16716407 -0.30825669 0.87053794
-0.1642382 -0.30852222 0.87128782
-0.16130729 -0.30878824 0.87203908
-0.1583713 -0.30905467 0.87279153
-0.15543026 -0.30932161 0.87354535
-0.15248413 -0.309589 0.87430048
-0.14953291 -0.30985686 0.87505692
-0.14657657 -0.31012517 0.87581468
-0.1436151 -0.3103939 0.87657362
-0.14081839 -0.3110384 0.87839371
-0.13845287 -0.3126857 0.88304579
-0.13606216 -0.31435049 0.88774729
-0.13364586 -0.31603315 0.89249921
-0.13120374 -0.31773436 0.89730352
-0.25394028 -0.29901844 0.85293543
-0.25114682 -0.29927078 0.85365522
-0.24834871 -0.29952359 0.85437638
-0.24554582 -0.29977679 0.85509861
-0.24273817 -0.30003041 0.85582203
-0.23992582 -0.3002845 0.85654682
-0.23710865 -0.30053899 0.85727274
-0.23428459 -0.3007912 0.85799211
-0.23145775 -0.30104637 0.85872
-0.22898321 -0.30177256 0.86079144
-0.22650306 -0.3025108 0.86289722
-0.22381476 -0.30298734 0.8642565
-0.22094949 -0.3032341 0.86496043
-0.21791059 -0.3032462 0.86499494
-0.2146904 -0.30300277 0.86430055
-0.21153677 -0.30284759 0.86385792
-0.20866825 -0.30310205 0.86458373
-0.20579922 -0.30336329 0.86532891
-0.20292583 -0.30362588 0.8660779
-0.20004468 -0.30388466 0.8668161
-0.19715902 -0.30414453 0.86755735
-0.1942703 -0.30440781 0.86830831
-0.19137517 -0.30466926 0.86905414
-0.18847504 -0.30493116 0.86980116
-0.18556991 -0.30519348 0.87054944
-0.18265978 -0.30545628 0.87129903
-0.17974465 -0.30571952 0.87204993
-0.17682447 -0.30598322 0.87280208
-0.17389928 -0.30624738 0.87355566
-0.17096783 -0.30650991 0.87430447
-0.16803268 -0.30677524 0.87506133
-0.16509242 -0.30704105 0.8758195
-0.16214676 -0.30730674 0.87657738
-0.15919632 -0.30757347 0.87733823
-0.15624066 -0.3078405 0.87809992
-0.15327986 -0.308108 0.87886298
-0.15031391 -0.30837598 0.87962735
-0.1473428 -0.30864441 0.88039303
-0.1443665 -0.30891326 0.88115996
-0.14138502 -0.30918261 0.88192827
-0.13839833 -0.30945244 0.88269794
-0.13580644 -0.31063774 0.88607889
-0.13339335 -0.31229734 0.89081287
-0.13095436 -0.31397489 0.89559799
-0.25523317 -0.29752031 0.85727799
-0.25242662 -0.29777271 0.85800523
-0.24961527 -0.29802549 0.85873359
-0.24679916 -0.29827872 0.85946327
-0.24397825 -0.2985324 0.86019415
-0.24115257 -0.29878652 0.86092639
-0.23832196 -0.29904091 0.86165947
-0.23548485 -0.29929364 0.86238766
-0.232645 -0.29954946 0.86312473
-0.22980087 -0.29980642 0.8638652
-0.22695026 -0.30006176 0.8646009
-0.22409527 -0.30031815 0.8653397
-0.22123359 -0.30057254 0.86607265
-0.21836953 -0.30083075 0.8668167
-0.21549977 -0.30108833 0.8675589
-0.21262558 -0.30134705 0.86830431
-0.20974706 -0.30160707 0.8690536
-0.20686086 -0.30186361 0.86979282
-0.20397165 -0.30212343 0.87054139
-0.20107761 -0.3023839 0.87129194
-0.19818109 -0.30264866 0.87205482
-0.19527653 -0.30290926 0.87280571
-0.19236615 -0.30316904 0.87355429
-0.18945341 -0.30343351 0.87431628
-0.18653405 -0.30369592 0.87507242
-0.18360962 -0.30395877 0.87582982
-0.18068013 -0.30422208 0.87658852
-0.17774557 -0.30448589 0.8773486
-0.17480591 -0.30475011 0.87810999
-0.17186113 -0.30501479 0.87887263
-0.16891123 -0.30527994 0.87963665
-0.16595623 -0.30554557 0.88040203
-0.16299607 -0.30581167 0.88116878
-0.16003074 -0.3060782 0.88193673
-0.15706024 -0.30634522 0.88270611
-0.15408453 -0.30661267 0.88347673
-0.15110315 -0.30687958 0.88424587
-0.14811695 -0.30714777 0.88501859
-0.14512582 -0.30741706 0.88579452
-0.1421293 -0.30768651 0.88657093
-0.13912752 -0.30795643 0.88734871
-0.1361205 -0.30822685 0.88812792
-0.13314177 -0.30857563 0.88913286
-0.13070603 -0.31022996 0.89389968
-0.25653929 -0.29600689 0.86166501
-0.25371948 -0.29625925 0.8623997
-0.25089481 -0.29651207 0.86313558
-0.24806537 -0.2967653 0.86387277
-0.24522996 -0.29701766 0.86460733
-0.24239032 -0.29727113 0.86534524
-0.23954734 -0.29752696 0.86608988
-0.23669858 -0.29778209 0.86683255
-0.23384412 -0.29803661 0.8675735
-0.23098521 -0.29829216 0.86831737
-0.22812138 -0.29854813 0.86906248
-0.22525267 -0.29880458 0.86980897
-0.22237848 -0.2990607 0.87055457
-0.21949919 -0.29931709 0.87130088
-0.21661527 -0.29957432 0.87204969
-0.21372731 -0.29983327 0.87280351
-0.21083497 -0.30009356 0.8735612
-0.20793517 -0.30035082 0.87431002
-0.20503283 -0.30061203 0.87507045
-0.20212324 -0.30087048 0.87582272
-0.19920987 -0.30113122 0.87658173
-0.19629145 -0.30139238 0.87734199
-0.19336861 -0.30165505 0.87810659
-0.19044182 -0.30191997 0.87887776
-0.18750697 -0.30218065 0.87963665
-0.18456937 -0.30244562 0.88040793
-0.18162541 -0.30270901 0.88117468
-0.17867629 -0.30297285 0.88194269
-0.17572203 -0.30323714 0.88271201
-0.17276262 -0.30350187 0.88348269
-0.16979803 -0.30376711 0.88425475
-0.16682827 -0.30403283 0.88502824
-0.16385329 -0.30429897 0.88580298
-0.1608731 -0.30456558 0.8865791
-0.1578877 -0.30483267 0.88735658
-0.15489703 -0.30510023 0.88813537
-0.15190113 -0.30536824 0.8889156
-0.14889996 -0.30563676 0.88969725
-0.1458935 -0.30590573 0.89048016
-0.14288174 -0.30617517 0.8912645
-0.13986468 -0.30644506 0.89205021
-0.13684228 -0.30671546 0.89283729
-0.13381448 -0.30698618 0.89362532
-0.13078143 -0.30725759 0.89441538
-0.12800002 -0.30814821 0.89700794
-0.25502566 -0.29473025 0.86683947
-0.25218758 -0.29498306 0.86758298
-0.24934369 -0.29523516 0.86832446
-0.24649678 -0.29548994 0.86907375
-0.24364299 -0.29574275 0.86981732
-0.24078552 -0.2959975 0.87056655
-0.23792271 -0.29625216 0.87131554
-0.23505497 -0.29650727 0.87206584
-0.23218228 -0.29676279 0.8728174
-0.22930467 -0.2970188 0.87357038
-0.22642207 -0.29727525 0.87432456
-0.22353448 -0.29753211 0.87508005
-0.22063977 -0.29778653 0.87582839
-0.21774338 -0.2980459 0.87659121
-0.21484064 -0.2983039 0.87735003
-0.2119333 -0.29856297 0.87811196
-0.2090209 -0.29882246 0.8788752
-0.20610267 -0.2990813 0.87963647
-0.20318286 -0.29934573 0.88041419
-0.20025225 -0.29960221 0.88116848
-0.19731945 -0.2998634 0.88193673
-0.19438154 -0.30012509 0.88270634
-0.1914385 -0.30038723 0.88347739
-0.1884903 -0.30064982 0.88424969
-0.18553898 -0.30091617 0.88503301
-0.18258008 -0.30117911 0.88580638
-0.17961647 -0.30144328 0.88658333
-0.17664783 -0.30170825 0.8873626
-0.17367361 -0.30197304 0.88814139
-0.1706942 -0.30223835 0.88892174
-0.16770951 -0.30250409 0.88970327
-0.1647196 -0.30277029 0.89048624
-0.16172439 -0.30303696 0.89127058
-0.15872392 -0.30330411 0.89205629
-0.15571815 -0.30357176 0.89284343
-0.15270709 -0.30383986 0.89363199
-0.14969067 -0.30410844 0.89442188
-0.14666894 -0.30437747 0.89521319
-0.14364184 -0.304647 0.89600587
-0.14060938 -0.30491698 0.89679992
-0.13757156 -0.30518749 0.89759552
-0.13452832 -0.30545846 0.89839244
-0.1314797 -0.3057299 0.89919078
-0.12842563 -0.30600181 0.89999056
-0.25634533 -0.29318538 0.87132508
-0.25349319 -0.29343757 0.87207454
-0.25063673 -0.29369089 0.87282741
-0.247775 -0.29394427 0.8735804
-0.2449083 -0.29419804 0.87433457
-0.24203666 -0.29445225 0.87509006
-0.23916005 -0.29470688 0.87584686
-0.23627846 -0.29496199 0.87660503
-0.23339187 -0.29521754 0.87736446
-0.23050027 -0.29547352 0.87812519
-0.22760366 -0.29572991 0.87888724
-0.22470202 -0.2959868 0.87965065
-0.22179535 -0.29624414 0.88041544
-0.21888216 -0.29649994 0.8811757
-0.21596564 -0.29675853 0.88194424
-0.21304405 -0.2970176 0.88271415
-0.21011733 -0.29727712 0.88348538
-0.20718551 -0.29753709 0.88425797
-0.20424893 -0.29779807 0.88503361
-0.20130764 -0.29806015 0.88581252
-0.19835828 -0.29831836 0.88657987
-0.19540581 -0.29858008 0.88735771
-0.19244814 -0.29884222 0.8881368
-0.18948527 -0.29910484 0.88891727
-0.18651718 -0.2993679 0.8896991
-0.18354391 -0.29963151 0.89048243
-0.18056566 -0.299896 0.89126849
-0.17758323 -0.30016282 0.89206147
-0.17459324 -0.30042621 0.89284426
-0.17159985 -0.3006933 0.89363807
-0.16860013 -0.30095908 0.89442796
-0.16559508 -0.30122536 0.89521927
-0.16258474 -0.30149207 0.89601195
-0.15956904 -0.30175927 0.89680606
-0.15654802 -0.30202699 0.89760166
-0.15352163 -0.30229515 0.89839864
-0.15048984 -0.30256379 0.89919698
-0.14745267 -0.3028329 0.89999676
-0.14441007 -0.30310246 0.9007979
-0.14136209 -0.30337256 0.9016006
-0.13830864 -0.30364311 0.90240467
-0.13524975 -0.30391413 0.9032101
-0.13218538 -0.30418566 0.90401703
-0.12911555 -0.30445766 0.90482545
-0.25767863 -0.29162431 0.87585694
-0.25481302 -0.29187673 0.87661505
-0.25194246 -0.29212961 0.87737453
-0.24906693 -0.29238293 0.87813532
-0.24618638 -0.29263663 0.87889737
-0.24330086 -0.29289082 0.87966079
-0.24041033 -0.29314548 0.88042563
-0.23751473 -0.29340056 0.88119167
-0.2346141 -0.29365608 0.88195908
-0.23170842 -0.29391202 0.8827278
-0.22879764 -0.29416841 0.88349783
-0.22588184 -0.29442531 0.88426936
-0.2229609 -0.29468259 0.88504213
-0.22003485 -0.29494032 0.88581622
-0.21710283 -0.29519737 0.88658816
-0.21416645 -0.2954559 0.88736469
-0.21122533 -0.29571545 0.8881442
-0.208279 -0.29597542 0.88892496
-0.20532748 -0.29623583 0.88970709
-0.20237106 -0.29649714 0.89049184
-0.19940875 -0.29675791 0.89127511
-0.19644091 -0.29701865 0.89205819
-0.19346847 -0.29728082 0.89284557
-0.19049078 -0.29754347 0.89363438
-0.18750785 -0.29780659 0.89442462
-0.18451962 -0.29807016 0.89521623
-0.18152609 -0.29833418 0.89600921
-0.17852725 -0.29859868 0.89680356
-0.1755231 -0.29886365 0.8975994
-0.1725149 -0.29913133 0.89840335
-0.1694995 -0.29939631 0.89919919
-0.16647996 -0.2996639 0.9000029
-0.16345429 -0.29993069 0.9008041
-0.16042325 -0.30019796 0.9016068
-0.15738678 -0.30046567 0.90241086
-0.1543449 -0.30073386 0.90321636
-0.15129757 -0.30100253 0.90402329
-0.1482448 -0.30127168 0.90483165
-0.14518659 -0.30154139 0.90564162
-0.14212288 -0.30181149 0.90645289
-0.13905366 -0.30208209 0.9072656
-0.13597894 -0.30235317 0.90807974
-0.1328987 -0.30262476 0.90889543
-0.25326186 -0.29055196 0.88196927
-0.25037238 -0.29080519 0.88273799
-0.24747789 -0.2910589 0.88350809
-0.24457835 -0.29131305 0.88427961
-0.24167371 -0.29156765 0.88505238
-0.238764 -0.29182267 0.88582653
-0.2358492 -0.29207817 0.88660204
-0.23292929 -0.29233408 0.88737887
-0.23000428 -0.29259047 0.88815719
-0.2270741 -0.29284728 0.88893676
-0.22413878 -0.29310456 0.8897177
-0.22119829 -0.29336229 0.89050001
-0.21825114 -0.29361844 0.89127755
-0.21530107 -0.29387811 0.89206576
-0.21234505 -0.29413721 0.89285231
-0.2093841 -0.29439718 0.89364147
-0.20641789 -0.29465759 0.89443195
-0.20344643 -0.29491848 0.8952238
-0.20046973 -0.29517984 0.89601719
-0.19748715 -0.29544079 0.89680928
-0.19450003 -0.29570329 0.89760613
-0.19150704 -0.29596543 0.89840186
-0.18850908 -0.29622856 0.89920056
-0.18550575 -0.2964921 0.90000057
-0.1824971 -0.29675615 0.90080208
-0.17948309 -0.29702067 0.90160507
-0.17646368 -0.29728565 0.90240937
-0.17343888 -0.2975511 0.90321517
-0.17040868 -0.29781702 0.9040224
-0.16737305 -0.29808342 0.90483105
-0.16433302 -0.29835218 0.9056468
-0.16128662 -0.29861978 0.90645915
-0.15823457 -0.29888752 0.90727186
-0.15517704 -0.29915574 0.90808606
-0.15211402 -0.29942444 0.90890169
-0.14904551 -0.29969367 0.90971893
-0.14597148 -0.29996336 0.91053754
-0.14289188 -0.30023351 0.91135764
-0.13980675 -0.30050418 0.91217917
-0.13671604 -0.30077529 0.91300219
-0.13361976 -0.30104691 0.9138267
-0.24878302 -0.28946453 0.8881675
-0.24586931 -0.28971863 0.88894713
-0.24295045 -0.28997314 0.88972807
-0.24002647 -0.2902281 0.89051038
-0.23709737 -0.29048353 0.89129412
-0.23416311 -0.29073942 0.89207929
-0.23122364 -0.29099575 0.89286578
-0.22827901 -0.29125252 0.89365363
-0.22532916 -0.29150975 0.89444292
-0.22237413 -0.29176748 0.89523369
-0.21941383 -0.29202563 0.89602572
-0.21644722 -0.29228273 0.89681464
-0.21347667 -0.2925421 0.89761049
-0.21050099 -0.29280213 0.89840829
-0.20751993 -0.29306251 0.89920723
-0.20453358 -0.29332337 0.90000761
-0.20154193 -0.2935847 0.90080947
-0.19854492 -0.29384649 0.9016127
-0.1955432 -0.2941097 0.90242034
-0.19253612 -0.29437339 0.90322948
-0.18952104 -0.29463357 0.9040277
-0.18650249 -0.29489711 0.90483636
-0.18347856 -0.29516116 0.90564656
-0.18044919 -0.29542565 0.90645814
-0.17741439 -0.29569066 0.90727121
-0.17437413 -0.29595608 0.90808564
-0.17132841 -0.29622203 0.90890163
-0.16827723 -0.29648846 0.90971911
-0.16522054 -0.29675534 0.91053802
-0.16215836 -0.29702273 0.91135842
-0.15909128 -0.29729179 0.91218394
-0.15601815 -0.29756039 0.91300815
-0.15293936 -0.2978293 0.9138332
-0.14985491 -0.29809847 0.9146592
-0.14676489 -0.29836819 0.91548669
-0.14366928 -0.29863837 0.91631573
-0.14056805 -0.29890907 0.91714627
-0.13746119 -0.29918021 0.91797829
-0.13434869 -0.29945192 0.91881192
-0.24424078 -0.28836167 0.89445341
-0.24130242 -0.28861663 0.89524418
-0.23835883 -0.28887197 0.89603621
-0.23541005 -0.28912777 0.89682972
-0.23245603 -0.28938404 0.89762461
-0.22949678 -0.28964075 0.89842093
-0.2265323 -0.28989798 0.89921874
-0.22356251 -0.29015559 0.90001786
-0.22058743 -0.29041368 0.90081835
-0.21760707 -0.29067221 0.90162033
-0.21462084 -0.29093048 0.90242141
-0.21162982 -0.29118991 0.90322614
-0.20863381 -0.29145029 0.90403378
-0.2056324 -0.29171109 0.90484273
-0.20262563 -0.29197237 0.90565318
-0.19961348 -0.29223415 0.90646517
-0.19659591 -0.29249635 0.90727848
-0.19357291 -0.29275903 0.90809327
-0.19054492 -0.29302284 0.90891165
-0.18751001 -0.29328489 0.90972447
-0.18447062 -0.29354891 0.91054338
-0.18142577 -0.29381341 0.91136378
-0.17837539 -0.29407835 0.91218561
-0.17531952 -0.29434377 0.91300893
-0.17225814 -0.29460973 0.91383386
-0.16919123 -0.29487613 0.91466022
-0.16611874 -0.29514301 0.915488
-0.1630407 -0.29541036 0.91631734
-0.15995708 -0.29567823 0.91714823
-0.15686785 -0.29594657 0.91798055
-0.15377302 -0.29621539 0.91881442
-0.15067285 -0.29648528 0.91965157
-0.14756697 -0.29675555 0.92048991
-0.14445515 -0.29702574 0.92132801
-0.14133765 -0.29729643 0.92216766
-0.1382145 -0.29756767 0.92300898
-0.13508561 -0.29783934 0.92385167
-0.23963378 -0.28724316 0.90082902
-0.23667035 -0.28749886 0.901631
-0.23370162 -0.28775504 0.90243441
-0.23072763 -0.28801173 0.90323937
-0.22774829 -0.28826883 0.90404564
-0.22476365 -0.28852639 0.9048534
-0.22177367 -0.28878441 0.9056626
-0.21877834 -0.28904292 0.90647328
-0.2157772 -0.28930131 0.9072836
-0.21277073 -0.28956017 0.90809548
-0.20975968 -0.28982064 0.9089123
-0.20674311 -0.29008141 0.90973014
-0.20372106 -0.29034263 0.91054934
-0.20069359 -0.29060432 0.91137004
-0.19766067 -0.29086652 0.91219234
-0.19462225 -0.29112914 0.91301596
-0.19157834 -0.29139227 0.91384113
-0.18852854 -0.29165527 0.91466594
-0.18547347 -0.29191911 0.91549343
-0.18241294 -0.29218355 0.91632271
-0.17934687 -0.29244852 0.91715366
-0.17627522 -0.29271391 0.91798598
-0.173198 -0.29297981 0.91881984
-0.17011519 -0.29324618 0.9196552
-0.16702676 -0.29351303 0.92049211
-0.16393271 -0.29378042 0.92133063
-0.160833 -0.29404822 0.92217052
-0.15772764 -0.29431653 0.92301202
-0.15461661 -0.29458535 0.92385501
-0.1514999 -0.29485464 0.9246996
-0.14837751 -0.29512447 0.92554581
-0.14524941 -0.29539487 0.92639381
-0.14211577 -0.29566616 0.92724454
-0.1389761 -0.29593733 0.92809498
-0.13583064 -0.29620898 0.92894697
-0.23496066 -0.28610855 0.90729618
-0.23197173 -0.28636509 0.90810972
-0.22897743 -0.28662211 0.9089247
-0.22597776 -0.28687957 0.90974116
-0.22297272 -0.28713754 0.91055924
-0.21996225 -0.28739595 0.91137868
-0.21694636 -0.28765479 0.91219956
-0.21392429 -0.28791314 0.91301882
-0.21089779 -0.28817332 0.91384387
-0.20786588 -0.28843403 0.91467065
-0.20482841 -0.28869516 0.91549873
-0.20178546 -0.28895679 0.91632837
-0.19873701 -0.2892189 0.91715956
-0.19568302 -0.28948149 0.91799229
-0.19262347 -0.28974456 0.91882646
-0.18955834 -0.29000807 0.91966212
-0.18648791 -0.29027247 0.92050064
-0.18341094 -0.29053593 0.92133605
-0.18032898 -0.29080078 0.922176
-0.1772414 -0.29106614 0.9230175
-0.17414817 -0.29133201 0.92386055
-0.1710493 -0.29159832 0.92470509
-0.16794476 -0.29186517 0.9255513
-0.16483453 -0.29213247 0.92639899
-0.16171858 -0.29240027 0.92724818
-0.15859692 -0.29266852 0.92809892
-0.15546952 -0.29293731 0.92895126
-0.1523364 -0.29320663 0.92980528
-0.14919749 -0.29347637 0.93066072
-0.14605281 -0.29374665 0.93151778
-0.14290231 -0.2940174 0.93237638
-0.13974603 -0.29428869 0.93323666
-0.13658395 -0.29456058 0.9340989
-0.23021992 -0.28495753 0.91385674
-0.2272051 -0.28521493 0.91468221
-0.22418481 -0.28547275 0.91550905
-0.22115904 -0.28573102 0.91633737
-0.21812782 -0.28598979 0.91716725
-0.21509108 -0.28624904 0.91799861
-0.21204847 -0.28650823 0.91882986
-0.20900087 -0.28676865 0.91966498
-0.20594788 -0.28702971 0.92050225
-0.20288931 -0.28729126 0.921341
-0.19982514 -0.28755325 0.92218125
-0.19675542 -0.28781578 0.92302316
-0.19368006 -0.28807876 0.92386651
-0.19059907 -0.28834218 0.92471135
-0.18751247 -0.28860617 0.92555791
-0.1844202 -0.28887057 0.92640591
-0.1813229 -0.2891365 0.92725873
-0.17821822 -0.28940022 0.92810446
-0.17510882 -0.289666 0.92895681
-0.17199373 -0.28993231 0.92981082
-0.16887291 -0.29019907 0.93066633
-0.16574632 -0.29046631 0.93152338
-0.16261396 -0.29073405 0.93238205
-0.15947583 -0.2910023 0.93324232
-0.15633191 -0.29127103 0.93410414
-0.15318218 -0.29154027 0.93496758
-0.1500266 -0.29180998 0.93583256
-0.14686519 -0.29208022 0.93669915
-0.14369793 -0.29235098 0.93756747
-0.14052477 -0.29262218 0.93843722
-0.22844581 -0.28353205 0.91967708
-0.22541015 -0.28378975 0.92051297
-0.22236896 -0.28404793 0.92135042
-0.2193222 -0.28430656 0.92218935
-0.21626996 -0.28456572 0.92302996
-0.21321209 -0.28482533 0.92387199
-0.21014835 -0.28508496 0.92471421
-0.20707962 -0.28534591 0.92556065
-0.20400529 -0.2856074 0.92640877
-0.20092528 -0.2858693 0.92725831
-0.19783962 -0.28613168 0.92810935
-0.19474831 -0.28639457 0.92896211
-0.19165131 -0.28665793 0.92981637
-0.18854859 -0.28692177 0.93067217
-0.18544018 -0.28718615 0.93152964
-0.18232603 -0.28745094 0.9323886
-0.17920592 -0.28771591 0.9332481
-0.17608015 -0.28798157 0.93410975
-0.17294866 -0.28824776 0.93497318
-0.16981135 -0.28851444 0.93583816
-0.16666825 -0.28878161 0.93670481
-0.16351932 -0.28904933 0.93757313
-0.16036454 -0.28931746 0.93844295
