# .PCD v0.7 - Point Cloud Data file format
VERSION 0.7
FIELDS x y z
SIZE 4 4 4
TYPE F F F
COUNT 1 1 1
WIDTH 728
HEIGHT 1
VIEWPOINT 0 0 0 1 0 0 0
POINTS 728
DATA ascii
-0.38250718 -0.21999118 1.1250026
-0.37788501 -0.21960856 1.123046
-0.37327886 -0.21922727 1.1210961
-0.36869055 -0.21884839 1.1191586
-0.36411804 -0.21847083 1.1172278
-0.39622292 -0.21486716 1.1189606
-0.3916018 -0.21449545 1.1170249
-0.38699663 -0.21412504 1.1150959
-0.38240728 -0.21375586 1.1131734
-0.37783381 -0.21338801 1.1112577
-0.37327605 -0.21302141 1.1093485
-0.36873573 -0.21265712 1.1074514
-0.36421093 -0.21229407 1.1055608
-0.35970148 -0.21193223 1.1036764
-0.35520744 -0.21157165 1.1017987
-0.35072866 -0.21121228 1.0999272
-0.40056831 -0.20907712 1.1091595
-0.39598015 -0.2087186 1.1072575
-0.39140764 -0.20836128 1.1053619
-0.3868508 -0.2080052 1.1034729
-0.38230953 -0.20765035 1.1015904
-0.37778369 -0.2072967 1.0997143
-0.37327328 -0.20694426 1.0978446
-0.36877999 -0.20659404 1.0959866
-0.36430186 -0.20624496 1.0941348
-0.35983884 -0.20589709 1.0922893
-0.35539085 -0.20555039 1.09045
-0.35095778 -0.20520483 1.0886168
-0.34653965 -0.20486046 1.08679
-0.34213626 -0.20451722 1.084969
-0.39978421 -0.20476753 1.1069883
-0.3912175 -0.20235388 1.09394
-0.38670802 -0.20201166 1.0920899
-0.38221374 -0.20167057 1.090246
-0.37773457 -0.2013306 1.0884081
-0.3732706 -0.20099187 1.0865768
-0.36882335 -0.20065519 1.0847567
-0.36439097 -0.20031963 1.0829427
-0.35997334 -0.19998519 1.0811347
-0.35557047 -0.19965187 1.0793327
-0.35118228 -0.19931968 1.0775368
-0.34680861 -0.19898856 1.0757468
-0.34244949 -0.19865854 1.0739627
-0.33810478 -0.19832963 1.0721846
-0.33377445 -0.19800179 1.0704123
-0.32945839 -0.19767503 1.0686458
-0.40218723 -0.20207456 1.1136422
-0.39266068 -0.19923177 1.0979755
-0.38339853 -0.19646791 1.0827436
-0.3776865 -0.19548598 1.0773323
-0.37326798 -0.19516042 1.075538
-0.36886579 -0.1948368 1.0737545
-0.3644782 -0.19451427 1.0719771
-0.36010513 -0.19419283 1.0702056
-0.35574648 -0.19387242 1.0684398
-0.35140216 -0.19355306 1.0666798
-0.34707221 -0.1932348 1.0649259
-0.34275648 -0.19291759 1.0631777
-0.3384549 -0.19260141 1.0614352
-0.33416739 -0.19228627 1.0596985
-0.33030227 -0.1922098 1.0592771
-0.3269563 -0.19243714 1.0605299
-0.32360238 -0.19266501 1.0617857
-0.4046199 -0.19934931 1.1203781
-0.39500162 -0.1965279 1.1045213
-0.38565233 -0.1937855 1.0891086
-0.37326559 -0.18944636 1.0647218
-0.36890769 -0.1891354 1.0629742
-0.36456406 -0.18882549 1.0612324
-0.36023468 -0.1885166 1.0594964
-0.35591942 -0.1882087 1.057766
-0.35161823 -0.18790179 1.0560411
-0.34733105 -0.18759592 1.054322
-0.34308618 -0.18730651 1.0526955
-0.33977607 -0.18752669 1.0539329
-0.33645815 -0.18774736 1.0551732
-0.33313242 -0.18796857 1.0564164
-0.32979888 -0.18819031 1.0576626
-0.32645738 -0.18841253 1.0589116
-0.32310796 -0.18863527 1.0601634
-0.38629442 -0.1847495 1.0593009
-0.38193607 -0.18444718 1.0575675
-0.37759227 -0.18414599 1.0558405
-0.37326363 -0.18384627 1.054122
-0.36894906 -0.18354751 1.0524091
-0.36464843 -0.18324973 1.0507016
-0.36036181 -0.18295291 1.0489998
-0.35608903 -0.18265706 1.0473034
-0.35243732 -0.18267694 1.0474174
-0.34915474 -0.18289058 1.0486424
-0.3458645 -0.18310472 1.0498703
-0.34256652 -0.18331937 1.051101
-0.33926082 -0.18353455 1.0523347
-0.33594733 -0.18375021 1.0535712
-0.33262607 -0.18396637 1.0548106
-0.32929689 -0.18418302 1.0560528
-0.32595989 -0.18440017 1.0572979
-0.32261503 -0.18461785 1.0585461
-0.31926224 -0.18483603 1.059797
-0.39919177 -0.18010047 1.0539364
-0.39483446 -0.17980723 1.0522203
-0.39049134 -0.17951497 1.05051
-0.38616225 -0.17922363 1.0488051
-0.38184735 -0.17893331 1.0471061
-0.37754759 -0.17864446 1.0454159
-0.37326166 -0.17835656 1.0437311
-0.36898959 -0.17806959 1.0420518
-0.36494297 -0.17788677 1.0409819
-0.36169511 -0.17809354 1.0421919
-0.35843971 -0.17830078 1.0434047
-0.35517672 -0.17850851 1.0446203
-0.35190615 -0.17871673 1.0458388
-0.34862792 -0.17892544 1.0470601
-0.34534201 -0.17913464 1.0482843
-0.34204844 -0.17934431 1.0495113
-0.33874714 -0.17955449 1.0507413
-0.33543807 -0.17976515 1.0519741
-0.33212116 -0.17997627 1.0532095
-0.32879651 -0.18018791 1.054448
-0.32546398 -0.18040003 1.0556893
-0.32212362 -0.18061267 1.0569336
-0.31877536 -0.18082578 1.0581808
-0.40423897 -0.17535481 1.0477685
-0.39893314 -0.17464815 1.0435461
-0.39461911 -0.17436658 1.0418637
-0.39031899 -0.17408593 1.0401868
-0.38603267 -0.17380618 1.0385152
-0.38176134 -0.17352788 1.0368524
-0.37750378 -0.17325053 1.0351951
-0.37408215 -0.17335515 1.0358202
-0.37086102 -0.17355566 1.0370183
-0.36763242 -0.17375661 1.0382191
-0.36439633 -0.17395805 1.0394226
-0.36115274 -0.17415994 1.040629
-0.35790157 -0.1743623 1.0418382
-0.35464287 -0.17456515 1.0430502
-0.35137659 -0.17476846 1.044265
-0.34810269 -0.17497225 1.0454826
-0.34482113 -0.1751765 1.0467031
-0.34153193 -0.17538126 1.0479265
-0.33823496 -0.17558646 1.0491526
-0.33493027 -0.17579213 1.0503815
-0.3316178 -0.17599829 1.0516133
-0.32829759 -0.17620492 1.052848
-0.32496956 -0.17641205 1.0540856
-0.3216337 -0.17661965 1.0553261
-0.31828997 -0.17682776 1.0565696
-0.31493834 -0.17703635 1.0578159
-0.3968057 -0.17005958 1.037981
-0.39014998 -0.16876255 1.0300645
-0.38631868 -0.16867435 1.0295261
-0.38313121 -0.16886826 1.0307096
-0.37993637 -0.16906258 1.0318958
-0.3767342 -0.16925739 1.0330848
-0.37352464 -0.16945264 1.0342765
-0.37030762 -0.16964832 1.0354708
-0.36708319 -0.16984446 1.0366681
-0.36385137 -0.17004108 1.0378681
-0.36061195 -0.17023814 1.0390708
-0.35736507 -0.17043565 1.0402764
-0.35411066 -0.17063363 1.0414848
-0.35084862 -0.17083205 1.0426959
-0.34757903 -0.17103095 1.0439099
-0.34430182 -0.17123032 1.0451268
-0.34101695 -0.17143014 1.0463464
-0.33772433 -0.1716304 1.0475687
-0.33442402 -0.17183113 1.0487939
-0.33111599 -0.17203234 1.050022
-0.32780018 -0.172234 1.0512528
-0.32447663 -0.17243616 1.0524868
-0.32114524 -0.17263877 1.0537235
-0.31780604 -0.17284188 1.0549631
-0.31445897 -0.17304546 1.0562057
-0.39952293 -0.16754188 1.0450889
-0.38951027 -0.16486248 1.0283755
-0.38574642 -0.16480246 1.0280011
-0.38256299 -0.16499162 1.029181
-0.37937227 -0.16518122 1.0303637
-0.37617418 -0.16537125 1.0315491
-0.37296876 -0.16556174 1.0327373
-0.36975592 -0.16575265 1.0339282
-0.36653566 -0.16594401 1.0351218
-0.36330798 -0.1661358 1.0363182
-0.36007279 -0.16632804 1.0375173
-0.35683015 -0.16652074 1.0387193
-0.35357997 -0.16671388 1.039924
-0.35032228 -0.16690746 1.0411316
-0.34705696 -0.1671015 1.0423419
-0.34378403 -0.16729598 1.043555
-0.34050345 -0.16749088 1.0447708
-0.33721521 -0.16768625 1.0459895
-0.33391932 -0.16788208 1.0472111
-0.3306157 -0.16807836 1.0484354
-0.3273043 -0.1682751 1.0496626
-0.32398519 -0.1684723 1.0508927
-0.32065833 -0.16866998 1.0521258
-0.3173236 -0.16886811 1.0533617
-0.313981 -0.16906668 1.0546004
-0.31063059 -0.16926576 1.0558422
-0.40227762 -0.16498944 1.0522947
-0.3921524 -0.16233285 1.0353512
-0.38517582 -0.160942 1.0264804
-0.38199645 -0.16112646 1.0276569
-0.37880981 -0.16131136 1.0288361
-0.37561584 -0.16149665 1.030018
-0.37241453 -0.16168241 1.0312027
-0.36920583 -0.16186857 1.03239
-0.36598974 -0.16205516 1.0335801
-0.36276624 -0.16224219 1.0347729
-0.35953531 -0.16242965 1.0359685
-0.35629684 -0.16261753 1.0371668
-0.35305092 -0.16280586 1.038368
-0.34979749 -0.16299464 1.039572
-0.3465364 -0.16318381 1.0407785
-0.34326777 -0.16337343 1.0419879
-0.33999154 -0.16356349 1.0432001
-0.33670765 -0.16375399 1.0444151
-0.3334161 -0.16394493 1.045633
-0.3301169 -0.16413634 1.0468537
-0.32680991 -0.16432816 1.0480771
-0.32349527 -0.16452044 1.0493035
-0.32017282 -0.16471319 1.0505328
-0.31684259 -0.16490638 1.051765
-0.31350452 -0.16510001 1.053
-0.31015861 -0.16529411 1.054238
-0.39483094 -0.1597688 1.042423
-0.38492149 -0.15722145 1.0258026
-0.38143161 -0.15727276 1.0261374
-0.37824902 -0.15745294 1.027313
-0.37505913 -0.15763354 1.0284914
-0.37186193 -0.15781458 1.0296725
-0.36865738 -0.15799603 1.0308564
-0.36544546 -0.15817788 1.032043
-0.3622261 -0.15836015 1.0332322
-0.35899931 -0.15854284 1.0344242
-0.35576513 -0.15872598 1.035619
-0.35252342 -0.15890953 1.0368166
-0.34927419 -0.15909347 1.0380168
-0.34601739 -0.15927784 1.0392197
-0.34275305 -0.15946266 1.0404255
-0.33948115 -0.15964788 1.0416341
-0.33620161 -0.15983355 1.0428455
-0.33291444 -0.16001964 1.0440596
-0.32961959 -0.16020617 1.0452766
-0.32631704 -0.16039312 1.0464964
-0.32300681 -0.16058052 1.0477191
-0.31968883 -0.16076836 1.0489447
-0.31636307 -0.16095665 1.0501732
-0.3130295 -0.16114536 1.0514045
-0.30968809 -0.16133451 1.0526386
-0.30633888 -0.16152413 1.0538758
-0.39754629 -0.15716946 1.049592
-0.3875235 -0.15464553 1.0327369
-0.38086841 -0.1534304 1.0246222
-0.37768993 -0.15360595 1.0257945
-0.37450412 -0.15378189 1.0269694
-0.37131098 -0.15395822 1.028147
-0.36811054 -0.15413496 1.0293273
-0.36490279 -0.15431212 1.0305104
-0.36168757 -0.15448967 1.0316961
-0.35846502 -0.15466765 1.0328846
-0.35523501 -0.15484603 1.0340759
-0.35199749 -0.1550248 1.0352697
-0.34875244 -0.15520397 1.0364662
-0.34549993 -0.15538357 1.0376656
-0.34223992 -0.15556359 1.0388678
-0.3389723 -0.15574403 1.0400728
-0.33569708 -0.15592487 1.0412805
-0.33241424 -0.15610613 1.042491
-0.32912377 -0.15628782 1.0437043
-0.32582566 -0.15646996 1.0449206
-0.32251984 -0.1566525 1.0461396
-0.31920627 -0.15683544 1.0473614
-0.31588498 -0.15701884 1.0485861
-0.31255585 -0.15720265 1.0498136
-0.30921903 -0.15738693 1.0510442
-0.30602685 -0.15765019 1.0528023
-0.40029955 -0.15453424 1.056861
-0.39016286 -0.1520353 1.0397707
-0.3803556 -0.14961855 1.0232426
-0.37713242 -0.14977029 1.0242803
-0.37395069 -0.14994158 1.0254518
-0.37076169 -0.15011327 1.026626
-0.36756536 -0.15028535 1.0278028
-0.36436167 -0.15045781 1.0289823
-0.36115068 -0.15063068 1.0301646
-0.35793227 -0.15080395 1.0313495
-0.35470644 -0.15097761 1.0325372
-0.35147309 -0.15115164 1.0337274
-0.34823227 -0.15132608 1.0349203
-0.34498402 -0.15150091 1.0361161
-0.34172824 -0.15167616 1.0373147
-0.33846495 -0.15185183 1.038516
-0.33519405 -0.1520279 1.0397202
-0.33191556 -0.15220436 1.0409271
-0.32862946 -0.15238126 1.0421368
-0.32533574 -0.15255857 1.0433494
-0.3220343 -0.15273628 1.0445647
-0.3187263 -0.15291494 1.0457866
-0.3156606 -0.15321538 1.0478413
-0.31258276 -0.15351698 1.049904
-0.30949283 -0.15381978 1.0519749
-0.30639061 -0.15412377 1.0540538
-0.30327612 -0.15442894 1.0561409
-0.39283922 -0.14938956 1.0469031
-0.38292024 -0.14699781 1.0301421
-0.3765766 -0.14594595 1.0227708
-0.37339893 -0.14611262 1.0239388
-0.37021399 -0.14627968 1.0251094
-0.36702177 -0.14644711 1.0262828
-0.36382225 -0.14661494 1.0274589
-0.36061531 -0.14678313 1.0286375
-0.35740104 -0.14695171 1.0298189
-0.35417938 -0.14712067 1.031003
-0.35095027 -0.14729001 1.0321897
-0.34771368 -0.14745973 1.0333791
-0.34446964 -0.14762986 1.0345713
-0.34121814 -0.14780037 1.0357662
-0.33795911 -0.14797129 1.0369641
-0.33469257 -0.14814261 1.0381646
-0.3314184 -0.14831431 1.0393679
-0.32823673 -0.14853171 1.0408914
-0.32520396 -0.14882216 1.0429268
-0.32215935 -0.14911374 1.0449703
-0.3191027 -0.14940648 1.0470216
-0.31603408 -0.14970034 1.0490811
-0.31295338 -0.1499954 1.0511488
-0.30986041 -0.15029158 1.0532243
-0.30675524 -0.15058894 1.0553082
-0.30363777 -0.15088747 1.0574003
-0.39555258 -0.1467073 1.0541341
-0.38551971 -0.1443415 1.0371352
-0.37602243 -0.14213288 1.0212656
-0.37284875 -0.14229493 1.0224301
-0.36966792 -0.1424574 1.0235974
-0.36647978 -0.14262021 1.0247673
-0.36328435 -0.1427834 1.0259398
-0.36008155 -0.14294694 1.027115
-0.3568714 -0.14311087 1.0282928
-0.35365388 -0.14327517 1.0294733
-0.35042894 -0.14343983 1.0306565
-0.34719664 -0.14360489 1.0318425
-0.34395683 -0.14377032 1.0330311
-0.34070957 -0.14393613 1.0342225
-0.33765849 -0.1441893 1.0360416
-0.33465824 -0.14446995 1.0380582
-0.33164629 -0.1447517 1.0400826
-0.32862255 -0.14503454 1.0421149
-0.32558694 -0.14531846 1.044155
-0.32253945 -0.14560352 1.0462033
-0.31948 -0.14588971 1.0482596
-0.31640846 -0.14617701 1.0503238
-0.31332478 -0.14646544 1.0523963
-0.31022891 -0.14675499 1.0544769
-0.30712074 -0.1470457 1.0565656
-0.30400029 -0.14733756 1.0586628
-0.39830461 -0.14398806 1.0614682
-0.38815618 -0.14164941 1.044228
-0.3783401 -0.13938846 1.0275604
-0.37230027 -0.1384885 1.020926
-0.36912343 -0.13864636 1.0220897
-0.36593938 -0.1388046 1.0232562
-0.362748 -0.13896316 1.0244251
-0.35954934 -0.13912211 1.0255969
-0.35634333 -0.13928141 1.0267712
-0.35312995 -0.13944106 1.0279481
-0.34994969 -0.13961723 1.0292469
-0.34699291 -0.1398872 1.031237
-0.34402466 -0.14015819 1.0332348
-0.3410449 -0.14043026 1.0352404
-0.33805352 -0.14070337 1.0372537
-0.33505055 -0.14097755 1.0392751
-0.33203575 -0.14125277 1.041304
-0.32900921 -0.1415291 1.043341
-0.32597086 -0.14180653 1.0453862
-0.3229205 -0.14208502 1.0474392
-0.3198581 -0.14236459 1.0495002
-0.3167837 -0.14264528 1.0515695
-0.3136971 -0.14292708 1.0536468
-0.31059828 -0.14320998 1.0557324
-0.30748716 -0.14349401 1.0578262
-0.30436367 -0.14377916 1.0599283
-0.40109649 -0.14123115 1.0689085
-0.39083034 -0.13892072 1.051422
-0.38090199 -0.13668731 1.0345184
-0.37175333 -0.13469324 1.0194262
-0.36858055 -0.13484654 1.0205865
-0.36540055 -0.13500021 1.0217495
-0.36221325 -0.1351542 1.022915
-0.35916653 -0.13536426 1.0245049
-0.35624114 -0.1356248 1.0264767
-0.35330445 -0.13588633 1.0284561
-0.35035643 -0.13614887 1.0304432
-0.347397 -0.13641243 1.0324379
-0.34442604 -0.136677 1.0344403
-0.34144354 -0.1369426 1.0364505
-0.33844951 -0.13720927 1.0384687
-0.33544374 -0.13747694 1.0404947
-0.33242622 -0.13774566 1.0425285
-0.32939687 -0.13801545 1.0445703
-0.32635567 -0.13828629 1.0466202
-0.32330242 -0.13855818 1.048678
-0.32023716 -0.13883114 1.0507439
-0.31715983 -0.13910519 1.0528181
-0.31407028 -0.13938031 1.0549003
-0.31096849 -0.13965651 1.0569907
-0.30785438 -0.13993382 1.0590895
-0.30472794 -0.14021224 1.0611968
-0.30158895 -0.14049175 1.0633123
-0.39354151 -0.13615417 1.0587157
-0.38349885 -0.13394935 1.0415714
-0.37378284 -0.13181713 1.0249915
-0.36829883 -0.13115031 1.0198064
-0.36540437 -0.13140157 1.0217601
-0.36249882 -0.1316538 1.0237215
-0.35958201 -0.13190697 1.0256901
-0.35665405 -0.13216114 1.0276664
-0.35371473 -0.13241629 1.0296504
-0.35076407 -0.13267241 1.0316421
-0.34780195 -0.13292955 1.0336415
-0.34482834 -0.13318767 1.0356486
-0.34184319 -0.1334468 1.0376636
-0.33884639 -0.13370694 1.0396864
-0.33583787 -0.1339681 1.0417172
-0.33281752 -0.13423027 1.0437558
-0.32978541 -0.13449349 1.0458025
-0.32674134 -0.13475773 1.0478572
-0.32368523 -0.13502298 1.0499197
-0.32061711 -0.13528931 1.0519906
-0.31753683 -0.13555665 1.0540695
-0.31444436 -0.13582508 1.0561568
-0.31133962 -0.13609457 1.0582522
-0.30822256 -0.13636513 1.0603561
-0.30509305 -0.13663676 1.0624683
-0.30195105 -0.13690948 1.0645889
-0.39629221 -0.13334951 1.0661157
-0.38613227 -0.13117412 1.0487237
-0.37630746 -0.12907164 1.0319146
-0.36872292 -0.12770404 1.0209807
-0.36582595 -0.12794897 1.022939
-0.36291781 -0.12819485 1.0249047
-0.35999852 -0.12844168 1.0268781
-0.35706791 -0.12868945 1.028859
-0.35412604 -0.1289382 1.0308477
-0.35117272 -0.12918788 1.0328439
-0.34820792 -0.12943855 1.034848
-0.34523162 -0.12969019 1.0368598
-0.34224376 -0.12994282 1.0388795
-0.33924419 -0.13019642 1.040907
-0.3362329 -0.13045101 1.0429425
-0.33320981 -0.13070661 1.044986
-0.33017483 -0.13096319 1.0470374
-0.3271279 -0.13122079 1.0490968
-0.32406896 -0.1314794 1.0511644
-0.32099792 -0.13173904 1.0532401
-0.31791475 -0.1319997 1.0553241
-0.31481934 -0.13226138 1.0574162
-0.31171164 -0.1325241 1.0595167
-0.30859157 -0.13278788 1.0616256
-0.30545905 -0.13305272 1.0637429
-0.30231401 -0.1333186 1.0658686
-0.39908227 -0.13050558 1.0736216
-0.38880399 -0.12836112 1.05598
-0.37886652 -0.12628885 1.0389321
-0.36924636 -0.12428292 1.0224301
-0.36624852 -0.12448841 1.0241206
-0.36333781 -0.12472791 1.0260909
-0.36041594 -0.12496834 1.0280688
-0.35748276 -0.12520969 1.0300543
-0.35453823 -0.125452 1.0320476
-0.35158223 -0.1256952 1.0340484
-0.34861481 -0.12593938 1.0360572
-0.34563583 -0.12618451 1.0380738
-0.34264526 -0.1264306 1.0400983
-0.33964294 -0.12667765 1.0421306
-0.33662888 -0.12692565 1.0441709
-0.33360296 -0.12717462 1.046219
-0.33056518 -0.12742457 1.0482752
-0.32751539 -0.1276755 1.0503396
-0.32445359 -0.12792742 1.052412
-0.32137966 -0.12818033 1.0544926
-0.31829357 -0.12843424 1.0565815
-0.31519523 -0.12868917 1.0586787
-0.31208456 -0.12894511 1.0607842
-0.30896148 -0.12920207 1.0628982
-0.30582595 -0.12946007 1.0650206
-0.30267784 -0.12971908 1.0671513
-0.39151299 -0.12550895 1.0633376
-0.38146058 -0.12346792 1.0460455
-0.37173608 -0.12149423 1.0293241
-0.36667207 -0.12101984 1.0253049
-0.36375886 -0.12125295 1.0272799
-0.36083436 -0.12148695 1.0292623
-0.35789859 -0.12172186 1.0312525
-0.35495141 -0.12195766 1.0332503
-0.35199279 -0.12219439 1.0352559
-0.34902269 -0.12243204 1.0372694
-0.34604102 -0.12267062 1.0392907
-0.34304765 -0.12291012 1.0413197
-0.34004262 -0.12315057 1.0433569
-0.33702579 -0.12339196 1.0454019
-0.33399707 -0.12363428 1.047455
-0.33095643 -0.12387755 1.049516
-0.32790381 -0.12412179 1.0515852
-0.32483912 -0.12436698 1.0536625
-0.32176232 -0.12461316 1.0557482
-0.31867328 -0.12486029 1.057842
-0.31557202 -0.12510844 1.0599443
-0.31245834 -0.12535754 1.0620548
-0.30933228 -0.12560765 1.0641738
-0.30619371 -0.12585875 1.0663012
-0.30304256 -0.12611088 1.0684372
-0.29987878 -0.12636401 1.0705818
-0.39426214 -0.12261741 1.0708041
-0.38409087 -0.12060824 1.0532583
-0.37425759 -0.11866704 1.036306
-0.36709657 -0.11754324 1.026492
-0.3641808 -0.11776991 1.0284715
-0.36125374 -0.11799745 1.0304586
-0.35831532 -0.11822587 1.0324533
-0.35536551 -0.11845517 1.0344558
-0.35240427 -0.11868537 1.0364661
-0.34943151 -0.11891648 1.0384843
-0.34644711 -0.11914847 1.0405103
-0.34345105 -0.11938138 1.0425442
-0.34044319 -0.11961517 1.0445859
-0.33742359 -0.11984991 1.0466359
-0.33439207 -0.12008554 1.0486937
-0.33134863 -0.12032212 1.0507597
-0.32829314 -0.12055963 1.0528338
-0.32522556 -0.12079807 1.054916
-0.32214585 -0.12103746 1.0570066
-0.31905392 -0.1212778 1.0591055
-0.31594968 -0.1215191 1.0612128
-0.31283304 -0.12176137 1.0633284
-0.30970395 -0.12200459 1.0654525
-0.30656233 -0.12224878 1.067585
-0.30340818 -0.12249397 1.0697262
-0.30062202 -0.1228958 1.0732353
-0.39705017 -0.11968499 1.0783764
-0.38676 -0.11770956 1.0605776
-0.37681359 -0.11580125 1.0433835
-0.36752209 -0.11405858 1.0276818
-0.36460373 -0.11427878 1.0296658
-0.36167407 -0.11449984 1.0316576
-0.35873306 -0.11472174 1.033657
-0.35578063 -0.11494452 1.0356642
-0.35281673 -0.11516815 1.0376792
-0.34984124 -0.11539266 1.0397021
-0.34685418 -0.11561806 1.0417329
-0.34385535 -0.11584432 1.0437715
-0.34084475 -0.11607146 1.0458181
-0.33782232 -0.11629949 1.0478727
-0.33478802 -0.11652843 1.0499355
-0.33174172 -0.11675826 1.0520062
-0.32868341 -0.11698901 1.0540854
-0.32561296 -0.11722067 1.0561726
-0.32253036 -0.11745325 1.0582682
-0.31943545 -0.11768674 1.060372
-0.31632823 -0.11792117 1.0624843
-0.31320861 -0.11815654 1.064605
-0.31057003 -0.11858129 1.068432
-0.3079524 -0.11902455 1.0724258
-0.30531502 -0.1194711 1.0764493
-0.30265775 -0.11992099 1.0805029
-0.38946727 -0.11477055 1.0680015
-0.37940475 -0.11289605 1.0505583
-0.36966848 -0.11108265 1.0336837
-0.36502767 -0.11077954 1.030863
-0.36209539 -0.11099406 1.0328593
-0.35915178 -0.11120944 1.0348635
-0.3561967 -0.11142564 1.0368754
-0.35323015 -0.11164269 1.0388951
-0.350252 -0.11186058 1.0409228
-0.34726211 -0.11207931 1.0429581
-0.3442606 -0.11229891 1.0450016
-0.34124723 -0.11251935 1.047053
-0.33822206 -0.11274068 1.0491126
-0.3351849 -0.11296287 1.0511801
-0.3321358 -0.11318594 1.0532559
-0.32907462 -0.11340989 1.0553399
-0.32600129 -0.11363474 1.0574322
-0.32297963 -0.11388299 1.0597423
-0.32042935 -0.11430521 1.0636714
-0.31786016 -0.11473059 1.0676297
-0.31527171 -0.11515912 1.0716175
-0.31266379 -0.11559086 1.075635
-0.31003618 -0.11602581 1.0796825
-0.30738875 -0.11646406 1.0837606
-0.30472121 -0.11690562 1.0878695
-0.39221412 -0.1117905 1.075534
-0.3820318 -0.10995061 1.0578325
-0.37218884 -0.10817311 1.0407312
-0.36545256 -0.10727214 1.032063
-0.36251768 -0.10748012 1.0340639
-0.35957146 -0.10768891 1.0360727
-0.35661376 -0.10789853 1.0380894
-0.35364455 -0.10810895 1.0401139
-0.3506636 -0.10832018 1.0421461
-0.34767106 -0.10853224 1.0441864
-0.34466675 -0.10874512 1.0462345
-0.34165066 -0.10895886 1.0482908
-0.33862266 -0.10917342 1.0503552
-0.33558273 -0.10938885 1.0524278
-0.33270428 -0.10966231 1.0550587
-0.33020124 -0.11006708 1.058953
-0.32767966 -0.11047485 1.0628762
-0.32513928 -0.11088565 1.0668285
-0.32258001 -0.11129954 1.0708104
-0.32000142 -0.11171648 1.0748218
-0.31740344 -0.11213654 1.0788633
-0.31478581 -0.11255978 1.0829352
-0.31214833 -0.11298621 1.0870379
-0.30949083 -0.11341589 1.0911719
-0.39500001 -0.10876812 1.0831735
-0.38469815 -0.10696486 1.0652156
-0.37474304 -0.10522342 1.0478734
-0.36587843 -0.10375657 1.0332657
-0.362941 -0.10395797 1.0352714
-0.35999212 -0.10416016 1.0372849
-0.35703179 -0.10436314 1.0393063
-0.35405982 -0.10456689 1.0413353
-0.35107625 -0.10477144 1.0433724
-0.34808096 -0.1049768 1.0454174
-0.34507391 -0.10518295 1.0474705
-0.34234336 -0.10547876 1.0504162
-0.33988678 -0.10586638 1.0542763
-0.33741209 -0.10625684 1.0581648
-0.33491907 -0.10665021 1.0620822
-0.33240753 -0.10704649 1.0660286
-0.32987729 -0.10744575 1.0700046
-0.32732803 -0.10784796 1.07401
-0.32475951 -0.10825317 1.0780454
-0.3221716 -0.10866143 1.082111
-0.31956413 -0.10907278 1.0862075
-0.31693682 -0.10948727 1.0903351
-0.31428945 -0.1099049 1.0944942
-0.31162181 -0.11032574 1.0986851
-0.38740352 -0.10393753 1.0727066
-0.37733111 -0.10223257 1.0551102
-0.36758316 -0.10058246 1.03808
-0.36336526 -0.10042759 1.0364816
-0.36041379 -0.10062314 1.0384998
-0.35745075 -0.10081944 1.0405258
-0.35447609 -0.10101651 1.0425596
-0.35189798 -0.10133187 1.0458145
-0.34948716 -0.10170262 1.0496408
-0.34705865 -0.10207608 1.0534952
-0.34461224 -0.10245229 1.0573779
-0.34214774 -0.10283129 1.0612894
-0.33966488 -0.10321309 1.0652299
-0.33716357 -0.10359775 1.0691998
-0.33464351 -0.10398527 1.0731994
-0.33210444 -0.10437568 1.0772287
-0.32954615 -0.10476901 1.0812881
-0.32696858 -0.10516533 1.0853784
-0.3243714 -0.10556466 1.0894997
-0.3217544 -0.10596702 1.0936524
-0.3191174 -0.10637247 1.0978369
-0.31646016 -0.10678104 1.1020535
-0.31378242 -0.10719275 1.1063027
-0.39014792 -0.10086752 1.0803058
-0.37995517 -0.099200122 1.0624478
-0.37009999 -0.097588561 1.0451877
-0.36379054 -0.096888937 1.0376947
-0.36136928 -0.097221173 1.041253
-0.35900348 -0.097575299 1.0450457
-0.35662043 -0.097932033 1.0488664
-0.35421988 -0.098291382 1.0527151
-0.35180163 -0.098653369 1.056592
-0.34936556 -0.099018052 1.0604978
-0.34691137 -0.099385425 1.0644324
-0.34443891 -0.099755533 1.0683963
-0.34194794 -0.1001284 1.0723898
-0.33943823 -0.10050406 1.0764132
-0.33690953 -0.10088252 1.0804665
-0.33436173 -0.10126384 1.0845505
-0.33179462 -0.10164806 1.0886656
-0.32920793 -0.1020352 1.0928119
-0.32660142 -0.10242529 1.0969899
-0.32397497 -0.1028184 1.1012001
-0.39293155 -0.097753704 1.0880135
-0.38261819 -0.096125752 1.0698942
-0.37265155 -0.094553374 1.0523934
-0.36609858 -0.09382426 1.0442783
-0.36374319 -0.094167016 1.0480932
-0.36137053 -0.094512291 1.0519361
-0.35898045 -0.094860114 1.0558075
-0.35657266 -0.0952105 1.0597073
-0.35414702 -0.095563486 1.0636361
-0.35170335 -0.095919095 1.0675941
-0.34924144 -0.096277371 1.0715817
-0.34676093 -0.096638292 1.0755988
-0.34426174 -0.097001925 1.0796461
-0.34174365 -0.097368307 1.083724
-0.33920646 -0.097737454 1.0878327
-0.33664995 -0.098109417 1.0919727
-0.33407393 -0.098484218 1.0961443
-0.38532147 -0.09300863 1.0774533
-0.37523854 -0.09147606 1.0596993
-0.3685106 -0.090738796 1.0511584
-0.3661485 -0.09107247 1.0550239
-0.36376899 -0.091408618 1.058918
-0.36137185 -0.091747254 1.0628409
-0.35895684 -0.092088409 1.066793
-0.35652384 -0.092432112 1.0707746
-0.35407257 -0.09277837 1.0747858
-0.35160276 -0.093127221 1.078827
-0.3491143 -0.093478687 1.0828986
-0.34660697 -0.093832828 1.0870011
-0.3440806 -0.094189659 1.0911348
-0.38806334 -0.089847177 1.0851202
-0.37786037 -0.088355407 1.0671035
-0.37095463 -0.087612405 1.0581299
-0.36858585 -0.087936722 1.0620469
-0.36619952 -0.088263474 1.0659932
-0.36379537 -0.088592656 1.0699688
-0.36137319 -0.088924289 1.0739741
-0.35893267 -0.089258388 1.0780091
-0.35647371 -0.089594997 1.0820745
-0.35399619 -0.08993417 1.0861708
-0.38052046 -0.085191153 1.0746158
-0.3734313 -0.084444262 1.0651945
-0.3710559 -0.084758967 1.0691642
-0.36866269 -0.085076004 1.0731634
-0.36625144 -0.085395411 1.0771924
-0.36382198 -0.085717216 1.0812517
-0.37594125 -0.081233539 1.072354
