# .PCD v0.7 - Point Cloud Data file format
VERSION 0.7
FIELDS x y z
SIZE 4 4 4
TYPE F F F
COUNT 1 1 1
WIDTH 349
HEIGHT 1
VIEWPOINT 0 0 0 1 0 0 0
POINTS 349
DATA ascii
0.23703894 -0.132846 1.4785961
0.23997749 -0.13160056 1.4647342
0.24286054 -0.13037777 1.4511243
0.24569049 -0.12917748 1.4377649
0.23600821 -0.12708135 1.4721667
0.23894355 -0.12589499 1.4584234
0.24182384 -0.12473018 1.4449298
0.24465145 -0.12358682 1.4316845
0.2495286 -0.12350406 1.4307258
0.25524056 -0.12382958 1.4344968
0.23199709 -0.12251532 1.4796664
0.23498641 -0.12136661 1.4657929
0.23791842 -0.12023835 1.4521664
0.24079594 -0.11913063 1.4387881
0.24362257 -0.11804393 1.4256636
0.24869679 -0.11806817 1.4259564
0.25438747 -0.11837833 1.4297023
0.26010814 -0.11869013 1.433468
0.26585904 -0.11900356 1.4372535
0.22794491 -0.11790254 1.4872429
0.23098756 -0.11679146 1.4732276
0.23397341 -0.11570114 1.4594741
0.2369021 -0.11463005 1.4459631
0.23977678 -0.11357847 1.4326984
0.24260233 -0.11254748 1.4196932
0.24787049 -0.1126684 1.4212186
0.25354007 -0.1129634 1.4249398
0.25923938 -0.11325993 1.4286802
0.26496872 -0.11355803 1.4324405
0.27072829 -0.11385769 1.4362205
0.27651834 -0.11415895 1.4400207
0.22694795 -0.11216968 1.4807382
0.2299868 -0.11111722 1.4668448
0.23296912 -0.11008431 1.4532095
0.23589443 -0.10906947 1.4398127
0.23876618 -0.10807312 1.4266599
0.24159062 -0.10709687 1.4137727
0.24704969 -0.10730441 1.4165124
0.25269827 -0.10758442 1.4202087
0.25837645 -0.10786589 1.4239244
0.2640844 -0.10814885 1.4276597
0.26982236 -0.10843328 1.4314145
0.2755906 -0.10871923 1.4351892
0.28138933 -0.10900667 1.4389838
0.28721881 -0.10929566 1.4427986
0.22595967 -0.10648675 1.4742901
0.22899465 -0.10549192 1.4605169
0.23197334 -0.10451546 1.446998
0.23489529 -0.10355598 1.4337143
0.23776534 -0.10261451 1.4206798
0.2406356 -0.10171196 1.4081841
0.24623428 -0.10197581 1.4118371
0.25186205 -0.10224103 1.415509
0.25751922 -0.10250764 1.4192002
0.26320592 -0.10277564 1.4229106
0.26892248 -0.10304506 1.4266406
0.27466902 -0.10331587 1.43039
0.2804459 -0.10358813 1.4341593
0.28625333 -0.10386182 1.4379486
0.29209149 -0.10413696 1.4417578
0.29796064 -0.10441356 1.4455873
0.22498 -0.1008531 1.4678981
0.22801103 -0.099914946 1.4542434
0.23098592 -0.098993972 1.4408388
0.23390456 -0.09808901 1.4276673
0.23677309 -0.097201586 1.4147509
0.24065849 -0.096759595 1.4083179
0.24579541 -0.096828498 1.4093207
0.25103134 -0.096932888 1.4108402
0.25666758 -0.097184815 1.4145069
0.26233324 -0.09743806 1.4181929
0.26802853 -0.097692639 1.4218981
0.27375361 -0.097948536 1.4256227
0.27950877 -0.09820579 1.4293669
0.28529423 -0.098464385 1.4331307
0.29111028 -0.09872435 1.4369146
0.29695711 -0.098985702 1.4407184
0.30283496 -0.099248432 1.4445424
0.30874407 -0.099512555 1.4483867
0.22092453 -0.096167147 1.4753541
0.22400874 -0.095268086 1.4615611
0.22703579 -0.094385669 1.4480234
0.23000686 -0.09351927 1.4347316
0.23292218 -0.09266796 1.4216712
0.23578909 -0.091833644 1.4088714
0.2407658 -0.091838501 1.4089459
0.2459051 -0.091903925 1.4099497
0.25105172 -0.091969438 1.4109547
0.25620568 -0.092035048 1.4119612
0.26146635 -0.092135765 1.4135064
0.26714048 -0.092375681 1.4171871
0.2728442 -0.092616841 1.4208869
0.27857783 -0.092859276 1.4246062
0.28434154 -0.093102984 1.4283451
0.29013559 -0.093347974 1.4321036
0.29596019 -0.093594253 1.4358819
0.30181563 -0.093841836 1.4396802
0.30770212 -0.094090737 1.4434987
0.31361994 -0.094340958 1.4473375
0.21996596 -0.09057422 1.4689528
0.22304583 -0.089731082 1.4552785
0.2260689 -0.088903502 1.4418566
0.22903609 -0.088090807 1.4286761
0.23194891 -0.087292604 1.4157307
0.23573887 -0.086851165 1.4085714
0.24087322 -0.086913019 1.4095745
0.24601486 -0.086974949 1.410579
0.25116387 -0.08703699 1.4115851
0.25632021 -0.087099098 1.4125924
0.26148391 -0.087161303 1.4136013
0.26665503 -0.087223604 1.4146117
0.27194086 -0.087320462 1.4161825
0.2776531 -0.087548278 1.4198773
0.28339517 -0.087777264 1.4235911
0.28916743 -0.08800748 1.4273248
0.29497004 -0.088238895 1.431078
0.30080318 -0.088471532 1.4348508
0.30666721 -0.088705391 1.4386437
0.31256232 -0.088940494 1.4424566
0.21901569 -0.085029617 1.4626067
0.22209118 -0.08424148 1.4490498
0.22511019 -0.083467826 1.435742
0.22807346 -0.082707956 1.4226714
0.2309843 -0.081962168 1.4098431
0.23584402 -0.081924759 1.4091996
0.24098071 -0.081983127 1.4102036
0.24612474 -0.082041577 1.411209
0.25127614 -0.082100123 1.4122159
0.25643486 -0.082158737 1.4132242
0.26160094 -0.082217433 1.4142339
0.26677442 -0.082276225 1.4152452
0.27195534 -0.0823351 1.4162579
0.27714363 -0.082394056 1.417272
0.28245515 -0.082486898 1.418869
0.28820571 -0.08270251 1.4225777
0.29398641 -0.08291924 1.4263058
0.29979751 -0.083137125 1.4300536
0.30563924 -0.083356157 1.4338212
0.31151181 -0.083576337 1.4376086
0.21807359 -0.07953272 1.4563153
0.22114466 -0.078798674 1.4428742
0.2241596 -0.078078061 1.4296792
0.22711889 -0.077370167 1.4167171
0.23081747 -0.076939158 1.4088248
0.23594923 -0.076993957 1.4098283
0.24108833 -0.077048846 1.4108334
0.24623471 -0.077103801 1.4118396
0.25138849 -0.077158839 1.4128474
0.2565496 -0.077213958 1.4138566
0.26171809 -0.077269152 1.4148673
0.26689398 -0.07732442 1.4158794
0.27207726 -0.077379771 1.4168929
0.27726799 -0.07743521 1.417908
0.28246617 -0.077490725 1.4189245
0.28767177 -0.077546306 1.4199423
0.29300934 -0.07763496 1.4215655
0.29879853 -0.077838272 1.4252884
0.30461809 -0.078042649 1.4290308
0.31046832 -0.078248106 1.4327929
0.21713953 -0.074082896 1.4500775
0.22020619 -0.073402062 1.436751
0.22321698 -0.072733618 1.4236672
0.22617286 -0.072077066 1.410816
0.23092043 -0.072007447 1.4094533
0.23605457 -0.072058767 1.4104577
0.24119604 -0.072110154 1.4114636
0.2463448 -0.072161607 1.4124708
0.25150093 -0.072213143 1.4134794
0.25666443 -0.072264746 1.4144895
0.26183534 -0.072316423 1.4155011
0.26701364 -0.072368182 1.4165142
0.27219933 -0.072420001 1.4175285
0.27739245 -0.072471902 1.4185444
0.28259307 -0.072523884 1.4195619
0.28780115 -0.072575942 1.4205807
0.29301667 -0.072628066 1.4216011
0.29823968 -0.072680257 1.4226227
0.30360377 -0.072764546 1.4242724
0.30943182 -0.072955474 1.4280096
0.21621346 -0.068679571 1.4438932
0.21927562 -0.068051055 1.4306796
0.22228223 -0.067433938 1.4177054
0.22589432 -0.06702359 1.4090785
0.23102351 -0.067071341 1.4100823
0.23616 -0.067119159 1.4110876
0.2413038 -0.067167036 1.4120942
0.24645498 -0.067214996 1.4131025
0.2516135 -0.067263015 1.4141121
0.25677937 -0.067311101 1.415123
0.26195267 -0.067359261 1.4161354
0.26713338 -0.067407489 1.4171494
0.27232152 -0.067455791 1.4181648
0.27751705 -0.067504153 1.4191816
0.28272009 -0.067552581 1.4201999
0.28793058 -0.067601092 1.4212197
0.29314855 -0.067649662 1.4222409
0.29837403 -0.067698307 1.4232635
0.30360705 -0.067747027 1.4242878
0.30884761 -0.067795813 1.4253135
0.21529526 -0.063322134 1.4377613
0.21835291 -0.062745087 1.4246593
0.22135532 -0.062178459 1.4117936
0.22599511 -0.062086567 1.4097072
0.23112667 -0.062130824 1.410712
0.23626554 -0.06217514 1.4117182
0.24141172 -0.062219515 1.4127258
0.24656525 -0.062263954 1.4137348
0.25172618 -0.06230846 1.4147453
0.25689447 -0.06235303 1.4157573
0.26207015 -0.062397655 1.4167706
0.26725328 -0.062442355 1.4177855
0.27244383 -0.062487114 1.4188018
0.2776418 -0.062531933 1.4198195
0.28284729 -0.06257683 1.4208388
0.28806019 -0.06262178 1.4218594
0.2932806 -0.062666796 1.4228815
0.29850855 -0.06271188 1.4239053
0.30374399 -0.062757023 1.4249302
0.21438482 -0.058010012 1.4316814
0.21743791 -0.057483587 1.4186893
0.22186574 -0.057336092 1.4150491
0.22666965 -0.057290129 1.4139148
0.23146613 -0.057244312 1.412784
0.23637116 -0.057226699 1.4123493
0.24151973 -0.057267565 1.4133579
0.24667567 -0.057308491 1.4143679
0.25183898 -0.05734947 1.4153793
0.25700966 -0.057390504 1.416392
0.26218778 -0.057431608 1.4174064
0.26737329 -0.057472762 1.4184221
0.27256623 -0.057513978 1.4194393
0.27776667 -0.057555258 1.4204581
0.28297454 -0.05759659 1.4214782
0.28818989 -0.057637978 1.4224997
0.29341277 -0.057679437 1.4235228
0.29864317 -0.057720948 1.4245473
0.30388108 -0.057762522 1.4255733
0.21348205 -0.052742627 1.4256526
0.21782258 -0.052577864 1.4211991
0.22265059 -0.052535534 1.4200548
0.22747082 -0.052493263 1.4189123
0.23228346 -0.052451104 1.4177727
0.23708853 -0.052409042 1.4166358
0.24188587 -0.052367046 1.4155005
0.24678616 -0.05234858 1.4150014
0.25195187 -0.052386031 1.4160137
0.25712493 -0.052423529 1.4170274
0.26230547 -0.052461091 1.4180427
0.2674934 -0.052498702 1.4190593
0.27268881 -0.052536376 1.4200776
0.27789164 -0.052574091 1.421097
0.28310195 -0.052611865 1.4221181
0.28831977 -0.052649695 1.4231406
0.29354507 -0.052687578 1.4241647
0.29877791 -0.052725516 1.4251901
0.21374415 -0.047778104 1.4274029
0.2185965 -0.047739465 1.4262486
0.223441 -0.047700889 1.425096
0.22827771 -0.047662381 1.4239455
0.23310663 -0.047623932 1.422797
0.23792802 -0.047585603 1.4216518
0.24274167 -0.04754734 1.4205086
0.24754758 -0.047509134 1.4193672
0.2523458 -0.047470991 1.4182277
0.25724036 -0.047452103 1.4176635
0.26242325 -0.047486115 1.4186795
0.26761362 -0.047520172 1.419697
0.27281144 -0.047554284 1.4207162
0.27801669 -0.047588442 1.4217366
0.28322944 -0.047622651 1.4227586
0.2884497 -0.047656909 1.4237821
0.29367748 -0.047691211 1.424807
0.29891279 -0.047725573 1.4258335
0.21937594 -0.042866562 1.431334
0.22423708 -0.042831805 1.4301734
0.22909036 -0.0427971 1.4290147
0.23393574 -0.042762447 1.4278576
0.23877349 -0.042727891 1.4267037
0.24360354 -0.042693406 1.4255522
0.24842581 -0.042658977 1.4244027
0.25324032 -0.042624608 1.4232551
0.25804707 -0.042590294 1.4221092
0.26284608 -0.042556033 1.4209653
0.26773396 -0.042537171 1.4203355
0.2729342 -0.042567719 1.4213555
0.27814186 -0.042598303 1.4223768
0.28335708 -0.042628944 1.4233998
0.28857976 -0.042659618 1.4244241
0.29380998 -0.04269034 1.4254498
0.29904777 -0.042721111 1.4264773
0.23462902 -0.039544217 1.4964527
0.22990878 -0.037897054 1.4341198
0.23477083 -0.037866265 1.4329547
0.23962501 -0.037835527 1.4317915
0.24447158 -0.037804883 1.4306319
0.2493103 -0.037774287 1.4294741
0.25414121 -0.037743744 1.4283183
0.2589643 -0.037713248 1.4271642
0.26377964 -0.037682805 1.4260122
0.2685872 -0.037652411 1.4248619
0.27338699 -0.037622061 1.4237134
0.27826717 -0.037603673 1.4230176
0.28348482 -0.037630726 1.4240414
0.28870997 -0.03765782 1.4250667
0.29394266 -0.037684958 1.4260936
0.23367728 -0.034132637 1.4903826
0.23684205 -0.03383458 1.477368
0.23995079 -0.033541508 1.4645712
0.24048272 -0.03290816 1.4369165
0.24534579 -0.032881394 1.4357477
0.25020111 -0.032854691 1.4345818
0.25504854 -0.032828033 1.4334177
0.25988811 -0.032801412 1.4322554
0.26471984 -0.03277484 1.431095
0.26954377 -0.032748308 1.4299366
0.27435988 -0.032721817 1.42878
0.27916822 -0.032695375 1.4276253
0.28396875 -0.032668971 1.4264723
0.28884029 -0.03265151 1.42571
0.29407543 -0.032675046 1.4267377
0.23588736 -0.028513858 1.4714129
0.23899436 -0.028268151 1.4587336
0.24204822 -0.028026637 1.4462706
0.2462265 -0.027922593 1.4409016
0.25109851 -0.027899835 1.4397272
0.25596261 -0.027877115 1.4385548
0.26081875 -0.02785443 1.4373841
0.26566705 -0.027831785 1.4362156
0.27050743 -0.027809175 1.4350488
0.27533996 -0.027786603 1.433884
0.28016466 -0.027764065 1.432721
0.28498155 -0.027741566 1.43156
0.2897906 -0.027719101 1.4304007
0.23804821 -0.023036923 1.4529586
0.24221706 -0.022946879 1.4472795
0.24711387 -0.022928091 1.4460944
0.25200272 -0.022909338 1.4449116
0.25688356 -0.022890614 1.4437307
0.26175642 -0.022871919 1.4425516
0.26662135 -0.022853259 1.4413747
0.27147833 -0.022834625 1.4401995
0.2763274 -0.022816023 1.4390262
0.28116858 -0.022797452 1.4378549
0.28600189 -0.022778912 1.4366856
0.26270083 -0.017853454 1.4477563
0.26758251 -0.017838834 1.4465708
0.2724562 -0.017824238 1.4453871
0.27732193 -0.017809665 1.4442054
0.28217971 -0.017795118 1.4430257
