# .PCD v0.7 - Point Cloud Data file format
VERSION 0.7
FIELDS x y z
SIZE 4 4 4
TYPE F F F
COUNT 1 1 1
WIDTH 1420
HEIGHT 1
VIEWPOINT 0 0 0 1 0 0 0
POINTS 1420
DATA ascii
0.24806422 0.025948141 0.58916575
0.24997371 0.025930883 0.58877391
0.25188071 0.025913652 0.58838266
0.25378513 0.025896441 0.58799189
0.25568703 0.025879255 0.58760166
0.25758642 0.025862092 0.58721197
0.25948331 0.02584495 0.58682275
0.26137769 0.025827834 0.58643413
0.26326954 0.025810739 0.58604598
0.26515889 0.025793666 0.58565831
0.26704574 0.025776615 0.58527118
0.26893008 0.025759585 0.58488452
0.27081195 0.025742581 0.58449841
0.27269134 0.025725599 0.58411282
0.27456826 0.025708638 0.58372772
0.27644271 0.025691701 0.58334315
0.27831465 0.025674785 0.58295906
0.28018418 0.025657892 0.5825755
0.28205121 0.02564102 0.58219242
0.28391579 0.025624169 0.58180982
0.28577796 0.025607346 0.58142781
0.28763765 0.025590539 0.58104622
0.28949493 0.025573757 0.58066517
0.29134974 0.025556995 0.5802846
0.29320213 0.025540255 0.5799045
0.29505211 0.025523538 0.57952493
0.29689965 0.025506843 0.57914585
0.2987448 0.02549017 0.5787673
0.30058753 0.025473518 0.57838923
0.30242783 0.025456889 0.57801163
0.30426574 0.025440279 0.57763451
0.30610129 0.025423694 0.57725793
0.3079344 0.02540713 0.57688183
0.30976516 0.025390586 0.5765062
0.3115935 0.025374064 0.57613105
0.3134194 0.025357557 0.57575625
0.31524292 0.025341071 0.57538193
0.3170642 0.025324617 0.57500833
0.3188833 0.025308199 0.57463557
0.3206996 0.025291767 0.57426244
0.32251379 0.025275376 0.57389027
0.32432568 0.02525901 0.57351869
0.32613492 0.02524264 0.573147
0.32794213 0.025226317 0.57277638
0.32974705 0.025210019 0.57240635
0.3315495 0.02519373 0.5720365
0.33334962 0.025177464 0.57166713
0.33514741 0.025161216 0.57129824
0.33694288 0.025144991 0.57092983
0.33873603 0.025128786 0.57056189
0.34052688 0.025112603 0.57019442
0.34231526 0.025096426 0.56982714
0.34410182 0.025080308 0.56946117
0.34588537 0.025064157 0.56909448
0.3476671 0.02504806 0.56872898
0.34944645 0.02503198 0.56836385
0.3512235 0.025015919 0.56799918
0.3529982 0.024999872 0.56763482
0.35477105 0.024983877 0.56727165
0.3576889 0.025048241 0.5687331
0.3601025 0.025076777 0.569381
0.36147851 0.025033137 0.56839013
0.3624399 0.024961427 0.56676191
0.36359969 0.024904089 0.56546003
0.36535811 0.024888154 0.56509823
0.36711484 0.024872281 0.5647378
0.36886933 0.024856424 0.56437778
0.37062159 0.02484059 0.56401825
0.37237164 0.024824776 0.56365919
0.37411946 0.024808984 0.56330061
0.37586504 0.02479321 0.56294245
0.37760842 0.024777455 0.56258476
0.37934959 0.024761723 0.56222755
0.38108855 0.02474601 0.56187075
0.38282529 0.024730317 0.56151444
0.38455984 0.024714641 0.56115854
0.38629219 0.024698988 0.56080312
0.38802236 0.024683356 0.56044817
0.3897503 0.024667742 0.56009364
0.25892341 0.031349473 0.65907937
0.25567639 0.030681167 0.64502919
0.25256509 0.030040782 0.63156599
0.24958171 0.029426666 0.61865503
0.2467179 0.028837157 0.60626143
0.24396652 0.028270798 0.59435451
0.24431035 0.028069699 0.59012669
0.24622549 0.028051004 0.58973366
0.24813806 0.028032333 0.5893411
0.25004807 0.028013686 0.58894908
0.25195557 0.027995065 0.5885576
0.25386053 0.027976466 0.58816659
0.25576296 0.027957894 0.58777612
0.25766286 0.027939346 0.58738619
0.25956026 0.027920824 0.58699679
0.26145512 0.027902326 0.58660787
0.26334748 0.027883852 0.58621949
0.26523736 0.027865402 0.58583164
0.26712468 0.027846975 0.58544421
0.26900956 0.027828574 0.58505738
0.27089193 0.027810197 0.58467102
0.27277181 0.027791845 0.5842852
0.27464923 0.02777352 0.58389992
0.27652416 0.027755212 0.58351505
0.27839664 0.027736936 0.58313078
0.28026661 0.027718676 0.58274692
0.28213418 0.027700447 0.58236367
0.28399926 0.027682239 0.58198088
0.28586191 0.027664054 0.58159858
0.28772211 0.027645895 0.58121681
0.28957984 0.027627761 0.58083552
0.29143515 0.027609646 0.58045471
0.29328805 0.027591558 0.58007443
0.29513851 0.027573492 0.57969463
0.29698655 0.027555453 0.57931536
0.29883218 0.027537435 0.57893658
0.30067536 0.02751944 0.57855827
0.30251616 0.027501469 0.57818043
0.30435458 0.027483523 0.57780313
0.30619058 0.027465599 0.57742631
0.30802411 0.027447693 0.57704985
0.30985522 0.027429806 0.57667381
0.31168413 0.027411958 0.57629859
0.31351075 0.027394142 0.57592404
0.31533456 0.027376313 0.57554919
0.31715643 0.027358541 0.57517558
0.31897569 0.027340773 0.57480204
0.32079253 0.027323022 0.57442886
0.3226074 0.027305329 0.57405686
0.32441968 0.027287636 0.57368487
0.3262296 0.027269967 0.57331342
0.32803717 0.027252318 0.57294238
0.32984239 0.027234692 0.57257181
0.33164528 0.027217088 0.57220173
0.33344585 0.02719951 0.57183218
0.33524409 0.027181953 0.57146305
0.33704004 0.02716442 0.57109445
0.33883357 0.027146902 0.57072616
0.34062502 0.027129427 0.57035875
0.34241378 0.027111942 0.56999117
0.34420055 0.027094504 0.56962454
0.34598467 0.027077062 0.56925786
0.34776703 0.027059682 0.56889248
0.34954661 0.027042288 0.5685268
0.35132417 0.027024936 0.56816196
0.35309947 0.027007606 0.56779766
0.35487255 0.026990307 0.56743395
0.35664323 0.026973018 0.56707048
0.35841179 0.026955761 0.56670767
0.36017829 0.026938543 0.56634569
0.36194193 0.0269213 0.56598318
0.36370352 0.026904097 0.5656215
0.36546242 0.026886882 0.56525958
0.36721963 0.026869729 0.56489897
0.36897454 0.026852593 0.56453872
0.37072724 0.026835483 0.564179
0.37247771 0.026818397 0.56381977
0.37422594 0.026801329 0.56346095
0.37597197 0.026784284 0.5631026
0.3777158 0.026767261 0.56274474
0.37945738 0.026750259 0.56238729
0.38119674 0.026733277 0.56203026
0.38293391 0.02671632 0.56167376
0.38466889 0.026699383 0.56131768
0.38640168 0.026682468 0.56096208
0.38813224 0.026665574 0.5606069
0.38986063 0.026648702 0.56025219
0.26001289 0.033813335 0.6618526
0.25672919 0.033089541 0.64768523
0.25358355 0.032396134 0.63411272
0.2505675 0.031731255 0.62109852
0.24767274 0.031093115 0.60860777
0.24489212 0.030480135 0.59660947
0.24438319 0.030157926 0.59030265
0.24629885 0.030137833 0.58990937
0.24821194 0.030117767 0.58951658
0.25012252 0.030097729 0.58912438
0.25203052 0.030077716 0.58873266
0.25393599 0.030057728 0.58834141
0.25583893 0.030037768 0.58795071
0.25773934 0.030017834 0.58756053
0.25963724 0.029997928 0.5871709
0.2615326 0.029978046 0.58678174
0.26342547 0.029958192 0.58639312
0.26531586 0.029938364 0.58600503
0.26720372 0.029918563 0.58561742
0.2690891 0.029898787 0.58523035
0.27097195 0.029879037 0.58484375
0.27285236 0.029859314 0.5844577
0.27473027 0.029839618 0.58407217
0.2766057 0.029819947 0.58368713
0.27847865 0.0298003 0.58330256
0.28034917 0.029780682 0.58291858
0.2822172 0.029761087 0.58253503
0.28408277 0.029741518 0.58215201
0.28594592 0.029721977 0.58176953
0.2878066 0.029702462 0.58138752
0.28966483 0.02968297 0.58100599
0.29152063 0.029663501 0.58062494
0.29337403 0.029644065 0.58024448
0.29522496 0.029624648 0.57986444
0.29707345 0.029605258 0.57948488
0.29891959 0.029585896 0.57910591
0.30076328 0.02956656 0.57872742
0.3026045 0.029547242 0.57834929
0.3044433 0.029527945 0.57797158
0.30627978 0.029508684 0.57759458
0.30811399 0.029489458 0.57721823
0.30994549 0.029470228 0.57684183
0.311775 0.029451057 0.57646662
0.3136017 0.029431874 0.57609111
0.31542632 0.029412745 0.57571667
0.31724861 0.029393641 0.57534277
0.3190684 0.029374553 0.57496911
0.32088587 0.029355489 0.57459599
0.32270092 0.029336449 0.57422328
0.32451367 0.029317435 0.57385111
0.32632402 0.029298441 0.57347935
0.32813203 0.029279474 0.57310808
0.32993773 0.029260533 0.57273734
0.33174109 0.029241616 0.57236707
0.33354214 0.029222725 0.57199728
0.33534083 0.029203856 0.57162797
0.33713704 0.029184999 0.57125884
0.33893147 0.02916621 0.57089108
0.34072283 0.029147381 0.57052255
0.34251228 0.029128611 0.57015514
0.3442995 0.029109869 0.56978828
0.34608418 0.029091135 0.56942159
0.34786671 0.029072436 0.56905556
0.34964699 0.029053763 0.56869006
0.35142499 0.029035114 0.56832504
0.3532007 0.029016489 0.5679605
0.35497418 0.028997891 0.56759644
0.35674566 0.028979339 0.56723332
0.35851467 0.028960794 0.56687033
0.36028132 0.028942266 0.5665077
0.36204541 0.028923737 0.566145
0.36380738 0.028905245 0.56578302
0.36556682 0.028886752 0.56542104
0.36732444 0.028868316 0.5650602
0.3690798 0.028849902 0.56469977
0.37083295 0.028831515 0.56433988
0.37258384 0.02881315 0.5639804
0.37433249 0.028794806 0.56362134
0.37607896 0.028776489 0.56326282
0.37782323 0.028758198 0.56290478
0.37956521 0.028739924 0.56254709
0.38130498 0.028721675 0.56218988
0.38304263 0.028703453 0.5618332
0.38477802 0.028685251 0.56147695
0.38651121 0.028667072 0.56112111
0.38824221 0.028648917 0.56076574
0.26111159 0.036298025 0.66464931
0.25779068 0.035517827 0.65036321
0.25461024 0.03477056 0.63668007
0.25156105 0.034054115 0.62356132
0.24863501 0.033366602 0.61097234
0.24582477 0.032706298 0.5988816
0.24445608 0.032247398 0.59047872
0.24637227 0.032225907 0.59008521
0.24828589 0.032204445 0.58969223
0.25019696 0.03218301 0.58929974
0.2521055 0.032161605 0.58890778
0.25401148 0.032140229 0.58851635
0.25591493 0.032118879 0.58812541
0.25781587 0.032097556 0.587735
0.25971428 0.032076266 0.58734512
0.26161015 0.032054998 0.58695573
0.26350352 0.032033764 0.58656687
0.26539442 0.032012556 0.58617854
0.26728278 0.031991374 0.58579069
0.26916867 0.031970225 0.58540344
0.27105203 0.031949099 0.58501661
0.27293295 0.031928003 0.58463031
0.27481136 0.031906936 0.58424455
0.27668729 0.031885896 0.58385926
0.27856076 0.031864882 0.58347452
0.28043175 0.031843897 0.58309025
0.28230026 0.031822938 0.58270651
0.28416634 0.03180201 0.58232325
0.28602996 0.031781107 0.58194053
0.28789115 0.031760234 0.58155829
0.28974989 0.031739388 0.58117658
0.29160619 0.031718567 0.58079535
0.29346004 0.031697772 0.58041459
0.29531145 0.031677004 0.58003432
0.29716045 0.031656265 0.57965457
0.29900688 0.031635541 0.57927507
0.30085117 0.03161487 0.57889652
0.30269295 0.031594213 0.57851833
0.30453223 0.031573575 0.57814044
0.30636925 0.031552978 0.57776326
0.30820364 0.031532384 0.5773862
0.310036 0.031511854 0.57701027
0.31186575 0.031491328 0.57663441
0.31369317 0.031470835 0.57625914
0.31551814 0.031450361 0.57588428
0.31734076 0.031429917 0.57550991
0.31916106 0.031409502 0.57513607
0.32097897 0.03138911 0.5747627
0.32279453 0.031368747 0.57438982
0.32460767 0.031348404 0.57401735
0.32641852 0.031328093 0.57364541
0.32822701 0.031307805 0.57327396
0.33003315 0.031287547 0.57290298
0.331837 0.031267315 0.57253253
0.33363843 0.031247105 0.57216245
0.33543763 0.031226926 0.57179296
0.33723438 0.031206764 0.57142377
0.33902892 0.031186637 0.57105523
0.34082094 0.031166516 0.57068682
0.34261099 0.031146452 0.57031941
0.34439841 0.031126387 0.56995201
0.34618372 0.031106362 0.56958532
0.34796673 0.031086367 0.56921917
0.34974748 0.031066395 0.5688535
0.3515259 0.031046448 0.56848824
0.35330209 0.031026529 0.56812352
0.35507599 0.031006634 0.56775922
0.35684773 0.030986778 0.56739563
0.35861698 0.030966925 0.5670321
0.36038411 0.03094711 0.56666929
0.36214897 0.030927323 0.56630695
0.3639113 0.030907534 0.56594461
0.36567131 0.030887766 0.56558263
0.36742932 0.030868046 0.56522155
0.36918512 0.030848352 0.56486094
0.37093869 0.030828685 0.56450081
0.37268999 0.030809041 0.56414109
0.37443912 0.030789426 0.56378192
0.37618601 0.030769832 0.56342316
0.37793067 0.030750265 0.56306487
0.37967309 0.030730721 0.56270701
0.38141334 0.030711204 0.56234962
0.38315141 0.030691715 0.56199276
0.38488722 0.030672247 0.56163627
0.38662079 0.030652801 0.56128019
0.26221961 0.038803801 0.66746974
0.25886106 0.037966289 0.6530636
0.25564528 0.03716429 0.63926828
0.25256255 0.036395475 0.6260438
0.24960476 0.035657823 0.61335534
0.24676453 0.034949481 0.60117108
0.24452902 0.03433812 0.59065491
0.24644573 0.034315228 0.59026116
0.24835986 0.034292366 0.58986789
0.25027147 0.034269538 0.58947521
0.25218052 0.034246735 0.58908302
0.25408703 0.034223966 0.58869135
0.25599098 0.034201223 0.58830017
0.25789243 0.034178514 0.58790952
0.25979134 0.034155834 0.58751941
0.26168776 0.034133185 0.58712983
0.26358163 0.034110565 0.58674073
0.26547304 0.034087975 0.58635217
0.26736188 0.034065414 0.58596408
0.26924828 0.034042887 0.58557659
0.27113217 0.034020387 0.58518958
0.27301353 0.033997912 0.58480299
0.27489248 0.033975475 0.58441705
0.27676892 0.033953063 0.58403152
0.27864286 0.033930682 0.58364654
0.28051439 0.033908334 0.58326209
0.28238338 0.033886004 0.58287805
0.28424996 0.033863716 0.58249462
0.2861141 0.03384145 0.58211166
0.28797573 0.033819214 0.58172917
0.28983498 0.033797011 0.58134723
0.29169175 0.033774834 0.58096576
0.29354599 0.033752672 0.58058459
0.295398 0.033730567 0.58020431
0.29724744 0.033708472 0.57982427
0.29909453 0.033686414 0.57944483
0.30093908 0.033664372 0.57906568
0.3027814 0.033642378 0.57868737
0.30462128 0.03362041 0.57830948
0.30645871 0.033598464 0.577932
0.3082937 0.033576544 0.57755494
0.3101263 0.033554651 0.57717836
0.31195658 0.033532791 0.57680237
0.31378442 0.033510957 0.5764268
0.31560993 0.033489157 0.57605177
0.31743303 0.033467382 0.57567722
0.31925374 0.03344563 0.57530308
0.3210721 0.033423912 0.57492948
0.32288811 0.033402219 0.57455635
0.32470179 0.033380557 0.57418376
0.32651308 0.03335892 0.57381159
0.32832205 0.033337317 0.57343996
0.33012864 0.033315733 0.57306874
0.33193284 0.033294175 0.57269788
0.33373508 0.03327268 0.57232815
0.3355343 0.033251148 0.57195777
0.33733156 0.033229679 0.57158846
0.33912671 0.033208251 0.57121992
0.34091917 0.033186819 0.57085127
0.34270954 0.03316544 0.57048351
0.34449756 0.033144083 0.5701161
0.34628332 0.033122752 0.56974924
0.34806681 0.033101454 0.56938285
0.34984797 0.033080179 0.56901693
0.3516269 0.033058938 0.56865156
0.35340351 0.033037722 0.5682866
0.35517782 0.033016529 0.56792206
0.35694984 0.032995366 0.56755799
0.3587198 0.032974243 0.5671947
0.36048728 0.032953132 0.56683153
0.36225265 0.032932058 0.56646907
0.3640154 0.03291098 0.5661065
0.36577579 0.032889921 0.56574428
0.36753425 0.032868918 0.56538296
0.3692905 0.032847941 0.56502217
0.37104452 0.032826994 0.56466186
0.37279627 0.032806072 0.56430197
0.37454581 0.032785177 0.56394255
0.37629309 0.032764308 0.56358355
0.37803817 0.032743465 0.56322503
0.3797811 0.032722652 0.56286705
0.38152176 0.032701865 0.56250948
0.38326019 0.0326811 0.56215233
0.38499644 0.032660365 0.56179565
0.25994056 0.040435199 0.65578699
0.25668877 0.039577562 0.64187765
0.25357202 0.038755547 0.62854606
0.25058213 0.037966989 0.61575705
0.24771149 0.03720988 0.60347807
0.24495311 0.036482379 0.59167928
0.24651922 0.036405791 0.59043717
0.24843389 0.036381532 0.59004372
0.25034598 0.036357302 0.58965075
0.25225559 0.036333106 0.58925837
0.25416261 0.036308944 0.58886647
0.25606707 0.036284808 0.58847505
0.25796902 0.036260705 0.58808416
0.25986847 0.036236636 0.58769381
0.26176539 0.036212601 0.587304
0.26365981 0.036188599 0.58691472
0.26555166 0.036164623 0.58652586
0.26744106 0.036140684 0.58613759
0.26932794 0.036116771 0.5857498
0.27121234 0.036092896 0.58536255
0.27309424 0.03606905 0.58497584
0.27497366 0.036045235 0.5845896
0.27685061 0.036021452 0.5842039
0.27872503 0.035997696 0.58381861
0.28059703 0.035973977 0.58343393
0.28246656 0.035950292 0.58304977
0.28433362 0.035926629 0.58266604
0.28619823 0.035903003 0.58228284
0.28806031 0.035879396 0.5819
0.28992009 0.035855845 0.58151799
0.29177728 0.035832297 0.58113611
0.29363224 0.035808809 0.58075517
0.29548448 0.035785317 0.58037418
0.29733458 0.035761893 0.57999426
0.29918212 0.035738476 0.57961452
0.30102724 0.035715096 0.57923532
0.30286995 0.035691742 0.57885659
0.30471021 0.035668422 0.57847834
0.30654812 0.035645131 0.57810062
0.30838361 0.03562187 0.57772338
0.31021672 0.035598639 0.57734662
0.31204742 0.035575438 0.57697034
0.31387576 0.035552271 0.57659459
0.31570172 0.035529133 0.57621932
0.3175253 0.035506021 0.57584453
0.31934649 0.035482943 0.57547021
0.32116529 0.035459891 0.57509637
0.3229818 0.035436876 0.57472306
0.32479593 0.035413887 0.57435024
0.3266077 0.035390928 0.57397789
0.32841712 0.035367999 0.57360601
0.33022407 0.035345085 0.57323438
0.33202887 0.035322219 0.57286358
0.33383131 0.035299383 0.5724932
0.33563119 0.035276555 0.57212293
0.33742896 0.035253771 0.57175344
0.33922434 0.035231013 0.57138437
0.34101748 0.035208292 0.57101589
0.34280831 0.035185602 0.5706479
0.3445968 0.035162937 0.57028031
0.34638304 0.035140306 0.56991327
0.34816691 0.035117701 0.56954664
0.34994856 0.035095129 0.56918055
0.35172793 0.035072584 0.56881493
0.35350496 0.035050068 0.56844974
0.35527971 0.035027578 0.56808501
0.35705221 0.035005119 0.56772077
0.35882264 0.034982707 0.5673573
0.36059073 0.034960318 0.56699419
0.36235642 0.034937948 0.56663138
0.36411956 0.034915574 0.5662685
0.3658804 0.034893226 0.56590605
0.3676393 0.034870937 0.56554455
0.36939597 0.034848675 0.56518352
0.3711504 0.034826443 0.56482297
0.37290257 0.03480424 0.56446284
0.37465253 0.034782067 0.56410325
0.37640026 0.03475992 0.56374407
0.37814578 0.034737803 0.56338537
0.37988916 0.03471572 0.5630272
0.38163021 0.034693658 0.5626694
0.38336906 0.03467162 0.56231201
0.26102912 0.042924788 0.65853322
0.25774083 0.042010617 0.64450842
0.25458962 0.04113457 0.63106847
0.25156721 0.040294312 0.61817765
0.24866579 0.039487701 0.60580295
0.24587825 0.038712744 0.59391391
0.24659277 0.038497608 0.59061337
0.24850795 0.038471941 0.59021962
0.2504206 0.038446315 0.58982646
0.25233066 0.038420718 0.58943379
0.25423822 0.038395159 0.58904165
0.25614321 0.038369633 0.58865005
0.2580457 0.038344137 0.58825892
0.25994563 0.038318679 0.58786833
0.26184306 0.038293254 0.58747828
0.26373795 0.038267862 0.5870887
0.26563039 0.038242508 0.58669972
0.26752028 0.038217183 0.58631122
0.26940766 0.038191888 0.58592319
0.27129254 0.038166631 0.58553571
0.27317497 0.038141411 0.58514875
0.27505487 0.03811622 0.58476228
0.27693233 0.038091063 0.58437634
0.27880725 0.038065936 0.58399087
0.28067976 0.038040847 0.58360595
0.28254971 0.038015779 0.58322138
0.28441733 0.037990764 0.58283758
0.28628236 0.03796576 0.58245403
0.28814501 0.037940804 0.58207113
0.29000527 0.037915882 0.58168882
0.29186305 0.037890993 0.58130693
0.29371834 0.037866127 0.58092546
0.29557121 0.037841298 0.58054453
0.29742166 0.037816502 0.58016413
0.29926968 0.037791733 0.57978415
0.30111527 0.037767 0.57940471
0.30295846 0.037742298 0.57902575
0.30479923 0.037717629 0.57864732
0.30663761 0.037692994 0.57826936
0.30847362 0.037668396 0.57789195
0.31030717 0.03764382 0.57751495
0.31213835 0.037619282 0.57713848
0.31396717 0.037594773 0.5767625
0.31579357 0.037570298 0.57638699
0.31761762 0.037545852 0.57601196
0.31943929 0.037521441 0.57563746
0.3212586 0.037497062 0.57526344
0.32307556 0.037472714 0.5748899
0.32489014 0.037448395 0.57451683
0.32670233 0.037424106 0.57414418
0.32851237 0.037399869 0.57377237
0.33031958 0.03737561 0.5734002
0.33212477 0.037351418 0.57302904
0.33392778 0.037327275 0.57265866
0.33572814 0.037303124 0.57228816
0.33752635 0.037279028 0.57191849
0.33932227 0.037254971 0.57154936
0.34111586 0.037230935 0.57118064
0.34290713 0.037206933 0.5708124
0.3446961 0.037182961 0.57044464
0.34648275 0.037159022 0.57007736
0.34826711 0.037135109 0.56971055
0.3500492 0.037111234 0.56934422
0.35182899 0.037087385 0.56897837
0.35360646 0.037063565 0.56861293
0.35538167 0.037039779 0.56824803
0.35715464 0.037016027 0.56788361
0.35892528 0.0369923 0.56751961
0.36069363 0.0369686 0.56715602
0.36246008 0.036944967 0.56679344
0.36422378 0.036921315 0.56643057
0.36598513 0.036897685 0.56606805
0.36774433 0.036874093 0.56570613
0.36950144 0.036850549 0.56534493
0.37125635 0.036827035 0.5649842
0.37300897 0.036803551 0.56462389
0.37475935 0.036780097 0.56426406
0.37650749 0.036756668 0.56390464
0.37825346 0.036733273 0.56354576
0.37999722 0.036709912 0.56318736
0.38173872 0.036686581 0.56282938
0.25880149 0.044463694 0.64716077
0.25561544 0.043532759 0.6336112
0.25256002 0.042640004 0.62061733
0.24962743 0.041783132 0.60814571
0.24681038 0.040960021 0.59616548
0.24666637 0.040590666 0.59078962
0.24858208 0.040563602 0.59039569
0.25049523 0.040536571 0.59000224
0.25240585 0.040509578 0.58960938
0.25431389 0.040482618 0.58921695
0.25621939 0.040455695 0.58882511
0.25812241 0.04042881 0.5884338
0.26002285 0.040401958 0.58804297
0.26192081 0.040375143 0.58765268
0.26381621 0.040348358 0.58726287
0.26570913 0.040321618 0.58687365
0.26759952 0.040294908 0.58648491
0.26948741 0.040268235 0.58609664
0.27137282 0.040241599 0.58570898
0.27325571 0.040214993 0.58532172
0.27513614 0.040188428 0.58493507
0.27701402 0.040161882 0.58454871
0.2788896 0.040135402 0.58416331
0.28076252 0.04010893 0.58377802
0.28263295 0.040082492 0.58339322
0.28450111 0.040056113 0.58300924
0.28636664 0.040029746 0.58262551
0.28822979 0.040003423 0.58224237
0.29009047 0.039977133 0.58185971
0.29194871 0.039950877 0.58147758
0.29380453 0.039924655 0.58109593
0.29565787 0.039898466 0.58071476
0.29750881 0.039872315 0.58033413
0.2993573 0.039846193 0.57995391
0.30120337 0.039820105 0.57957423
0.30304703 0.039794058 0.57919508
0.30488831 0.03976804 0.57881641
0.30672714 0.039742056 0.57843822
0.30856362 0.03971611 0.57806057
0.31039768 0.039690193 0.57768339
0.31222931 0.039664309 0.57730663
0.3140586 0.039638463 0.57693046
0.31588548 0.039612647 0.57655472
0.31771001 0.039586868 0.5761795
0.31953216 0.039561123 0.57580477
0.32135192 0.039535407 0.57543051
0.32316935 0.039509732 0.57505679
0.32498425 0.039484069 0.57468325
0.3267971 0.039458472 0.57431072
0.32860738 0.039432887 0.57393831
0.33041528 0.039407328 0.57356632
0.33222085 0.039381802 0.5731948
0.33402419 0.039356325 0.572824
0.3358252 0.039330877 0.57245362
0.33762389 0.039305467 0.57208377
0.33942026 0.03928009 0.5717144
0.3412143 0.03925474 0.57134545
0.34300604 0.03922943 0.57097703
0.34479544 0.039204147 0.57060903
0.34658256 0.039178897 0.57024157
0.34836736 0.03915368 0.56987453
0.3501499 0.039128497 0.56950802
0.35193011 0.039103348 0.56914192
0.35370806 0.039078228 0.56877631
0.35548371 0.039053138 0.56841117
0.3572571 0.039028086 0.56804651
0.35902819 0.039003063 0.56768233
0.36079723 0.038978096 0.56731892
0.36256364 0.038953118 0.56695539
0.36432803 0.0389282 0.56659269
0.36608991 0.038903289 0.56623012
0.3678495 0.038878404 0.5658679
0.36960703 0.038853567 0.56550646
0.37136233 0.038828768 0.56514549
0.37311539 0.038804002 0.564785
0.37486619 0.038779262 0.56442493
0.37661478 0.038754556 0.56406534
0.3783612 0.038729887 0.56370628
0.38010535 0.038705245 0.56334764
0.38184726 0.038680632 0.56298941
0.25664952 0.045950353 0.6361745
0.25356072 0.045004282 0.62307632
0.25059655 0.044096392 0.61050671
0.24774963 0.043224402 0.59843421
0.24673998 0.042684976 0.59096593
0.24865621 0.042656504 0.59057176
0.25056991 0.042628072 0.59017813
0.25248101 0.042599678 0.58978498
0.25438961 0.042571321 0.58939242
0.25629562 0.042542998 0.58900028
0.25819916 0.042514719 0.58860874
0.26010013 0.042486478 0.58821774
0.26199856 0.042458262 0.58782715
0.2638945 0.042430095 0.58743715
0.2657879 0.042401962 0.58704764
0.26767883 0.04237387 0.58665872
0.26956725 0.042345811 0.58627027
0.27145308 0.042317782 0.58588219
0.27333656 0.042289805 0.58549488
0.27521744 0.042261854 0.58510786
0.27709588 0.042233948 0.58472151
0.27897185 0.042206075 0.58433563
0.28084534 0.042178236 0.58395022
0.2827163 0.04215043 0.58356524
0.28458485 0.042122666 0.58318084
0.28645089 0.042094935 0.58279693
0.28831452 0.042067245 0.58241355
0.29017574 0.042039592 0.58203071
0.29203442 0.042011969 0.58164829
0.29389074 0.04198439 0.58126646
0.29574454 0.041956838 0.58088499
0.29759595 0.041929327 0.58050412
0.29944497 0.041901857 0.58012378
0.30129153 0.041874416 0.57974386
0.30313566 0.041847013 0.57936448
0.30497745 0.041819647 0.57898563
0.30681676 0.041792314 0.5786072
0.30865368 0.041765019 0.57822931
0.31048822 0.041737761 0.57785189
0.31232035 0.041710533 0.57747495
0.31415009 0.041683346 0.57709855
0.31597745 0.041656192 0.57672262
0.31780246 0.041629076 0.57634717
0.31962505 0.041601989 0.5759722
0.32144532 0.041574948 0.57559776
0.3232632 0.041547935 0.5752238
0.32507855 0.041520938 0.57485002
0.32689166 0.041493986 0.5744769
0.32870257 0.041467093 0.57410455
0.33051091 0.041440208 0.57373232
0.33231705 0.041413371 0.5733608
0.33412087 0.041386571 0.57298976
0.33592233 0.041359808 0.5726192
0.33772147 0.041333076 0.57224911
0.33951828 0.04130638 0.57187951
0.3413128 0.041279718 0.57151037
0.34310496 0.04125309 0.57114172
0.34489483 0.041226495 0.57077354
0.3466824 0.041199937 0.57040584
0.34846768 0.041173413 0.57003862
0.35025063 0.041146923 0.56967187
0.35203129 0.041120462 0.56930554
0.35380968 0.041094042 0.56893975
0.35558581 0.041067656 0.56857443
0.35735962 0.0410413 0.56820953
0.35913119 0.041014981 0.56784517
0.36090046 0.040988695 0.56748122
0.36266771 0.040962469 0.56711811
0.36443231 0.040936232 0.56675488
0.36619473 0.040910039 0.56639224
0.36795464 0.04088385 0.56602967
0.36971265 0.040857732 0.56566805
0.37146839 0.040831644 0.5653069
0.37322187 0.040805589 0.56494617
0.37497312 0.040779568 0.56458592
0.37672219 0.040753588 0.56422621
0.37846902 0.040727638 0.56386691
0.38021353 0.04070171 0.56350797
0.25456938 0.047387373 0.62555492
0.25157323 0.046427675 0.61288607
0.24869603 0.045506082 0.60072023
0.24681367 0.044780537 0.59114242
0.24873042 0.044750661 0.59074801
0.25064462 0.044720825 0.59035414
0.25255626 0.044691026 0.58996075
0.25446534 0.044661265 0.5895679
0.25637195 0.044631552 0.58917564
0.25827593 0.044601869 0.5887838
0.26017743 0.04457223 0.58839256
0.26207641 0.044542629 0.58800179
0.26397282 0.044513062 0.5876115
0.26586673 0.044483539 0.58722174
0.26775813 0.044454053 0.58683252
0.26964706 0.044424608 0.58644384
0.27153349 0.044395208 0.5860557
0.27341738 0.044365842 0.58566803
0.2752988 0.044336509 0.58528084
0.27717772 0.044307221 0.58489418
0.27905416 0.044277966 0.584508
0.28092813 0.044248752 0.58412236
0.2827996 0.044219576 0.58373719
0.28466862 0.044190437 0.58335257
0.28653523 0.044161342 0.58296847
0.28839934 0.044132281 0.58258486
0.290261 0.044103265 0.58220178
0.29212022 0.044074278 0.58181918
0.29397696 0.044045329 0.58143699
0.29583129 0.044016421 0.5810554
0.29768321 0.043987554 0.58067429
0.29953268 0.043958724 0.58029372
0.30137974 0.043929927 0.57991362
0.30322438 0.043901172 0.57953399
0.30506662 0.043872453 0.57915491
0.3069064 0.043843769 0.57877624
0.3087438 0.043815125 0.57839811
0.31057882 0.043786522 0.57802051
0.3124114 0.043757949 0.57764333
0.31424162 0.043729417 0.57726669
0.31606948 0.043700926 0.57689059
0.31789494 0.043672469 0.5765149
0.31971797 0.043644041 0.57613963
0.32153878 0.043615669 0.57576513
0.32335705 0.043587316 0.57539082
0.32517296 0.043558996 0.57501698
0.32698652 0.043530714 0.57464361
0.32879779 0.043502476 0.57427084
0.3306067 0.043474276 0.57389861
0.33241335 0.04344612 0.57352692
0.33421758 0.043417994 0.57315564
0.33601952 0.043389905 0.57278484
0.33781913 0.043361858 0.57241458
0.33961639 0.04333384 0.57204473
0.34141132 0.043305859 0.57167536
0.34320396 0.043277919 0.57130653
0.34499431 0.043250017 0.57093817
0.34678233 0.043222144 0.57057023
0.34856805 0.043194313 0.57020283
0.35035145 0.043166511 0.56983584
0.35213253 0.043138742 0.56946927
0.3539114 0.043111019 0.5691033
0.35568795 0.043083329 0.56873775
0.35746223 0.043055672 0.56837267
0.35923421 0.043028053 0.56800807
0.36100391 0.043000467 0.56764388
0.36277142 0.042972922 0.56728029
0.36453682 0.042945433 0.56691742
0.36629945 0.042917918 0.56655419
0.3680599 0.042890448 0.56619155
0.36981833 0.042863041 0.56582975
0.37157449 0.042835664 0.56546837
0.37332842 0.042808324 0.56510746
0.37508017 0.042781025 0.5647471
0.37682959 0.042753756 0.56438708
0.37857682 0.04272652 0.56402755
0.25255755 0.048777208 0.61528409
0.24964972 0.047805265 0.60302383
0.2468874 0.046877354 0.59131902
0.24880469 0.046846069 0.59092438
0.25071937 0.046814822 0.59053022
0.25263155 0.046783622 0.59013665
0.25454116 0.04675246 0.58974355
0.25644824 0.046721339 0.589351
0.25835279 0.046690259 0.58895898
0.26025477 0.04665922 0.58856744
0.26215425 0.046628229 0.58817649
0.2640512 0.046597268 0.58778596
0.26594561 0.046566352 0.58739597
0.26783752 0.046535477 0.58700651
0.26972693 0.046504647 0.58661759
0.27161384 0.04647385 0.58622915
0.27349824 0.046443097 0.58584124
0.27538019 0.04641239 0.58545387
0.27725959 0.046381712 0.58506691
0.27913651 0.046351079 0.5846805
0.28101099 0.046320494 0.58429468
0.28288296 0.046289939 0.58390927
0.28475252 0.046259433 0.58352447
0.28661957 0.04622896 0.58314008
0.28848419 0.046198536 0.58275628
0.29034632 0.046168145 0.5823729
0.29220602 0.046137795 0.58199006
0.2940633 0.046107486 0.58160776
0.29591814 0.046077218 0.58122593
0.2977705 0.046046983 0.58084458
0.29962048 0.046016794 0.58046377
0.30146798 0.045986645 0.58008343
0.30331311 0.04595653 0.57970357
0.30515581 0.045926459 0.57932425
0.30699608 0.045896426 0.5789454
0.30883399 0.045866434 0.57856709
0.31066948 0.045836482 0.57818925
0.31250256 0.045806564 0.5778119
0.31433326 0.045776688 0.57743502
0.31616154 0.045746848 0.57705861
0.31798741 0.045717042 0.57668263
0.3198109 0.045687273 0.57630712
0.32163206 0.045657545 0.57593215
0.32345089 0.045627866 0.57555777
0.32526731 0.04559822 0.57518381
0.32708141 0.045568619 0.57481039
0.32889318 0.045539059 0.5744375
0.33070257 0.045509528 0.57406503
0.33250967 0.045480043 0.5736931
0.33431438 0.045450598 0.57332164
0.33611676 0.045421183 0.5729506
0.33791682 0.045391809 0.5725801
0.33971456 0.045362476 0.57221007
0.34150997 0.045333181 0.57184052
0.34330305 0.045303922 0.57147145
0.34509382 0.045274701 0.57110286
0.34688231 0.045245517 0.57073474
0.34866849 0.045216374 0.5703671
0.3504523 0.045187261 0.56999987
0.35223386 0.045158185 0.56963313
0.35401314 0.045129154 0.56926692
0.35579011 0.045100156 0.56890112
0.35756484 0.0450712 0.56853586
0.3593373 0.04504228 0.56817108
0.36110747 0.045013398 0.56780672
0.3628754 0.044984553 0.56744289
0.36464098 0.044955738 0.56707942
0.36640427 0.044926953 0.56671631
0.36816519 0.044898197 0.56635356
0.36992407 0.044869494 0.56599152
0.37168068 0.044840831 0.56562996
0.37343505 0.044812206 0.56526887
0.37518722 0.044783618 0.56490827
0.37693709 0.044755064 0.56454808
0.25061074 0.050122146 0.60534513
0.24778712 0.049139217 0.59347391
0.24887897 0.048942726 0.59110081
0.2507942 0.048910074 0.59070647
0.25270689 0.048877463 0.5903126
0.25461701 0.048844896 0.58991927
0.25652462 0.048812378 0.58952653
0.25842968 0.048779897 0.58913428
0.26033214 0.048747454 0.58874243
0.26223212 0.048715059 0.58835119
0.26412955 0.048682705 0.58796042
0.26602453 0.048650399 0.58757025
0.26791695 0.04861813 0.58718055
0.26980686 0.04858591 0.5867914
0.27169424 0.048553728 0.58640271
0.27357915 0.048521582 0.58601451
0.27546155 0.048489489 0.5856269
0.27734149 0.048457436 0.58523977
0.27921894 0.048425425 0.58485317
0.2810939 0.048393454 0.58446705
0.28296641 0.048361529 0.58408147
0.28483644 0.048329648 0.58369642
0.28670397 0.0482978 0.5833118
0.28856906 0.048265997 0.5829277
0.29043171 0.048234239 0.58254415
0.29229191 0.048202526 0.58216113
0.29414967 0.048170853 0.58177859
0.29600498 0.048139218 0.58139652
0.29785785 0.048107628 0.58101499
0.29970831 0.048076075 0.58063394
0.30155629 0.048044559 0.5802533
0.30340189 0.048013091 0.57987326
0.30524507 0.047981665 0.5794937
0.30708584 0.047950283 0.57911468
0.30892423 0.047918938 0.57873613
0.31076017 0.047887634 0.57835805
0.31259373 0.047856368 0.57798046
0.3144249 0.047825146 0.57760334
0.31625378 0.047793977 0.57722694
0.31808004 0.047762819 0.57685059
0.31990406 0.047731716 0.57647496
0.32172561 0.047700644 0.57609969
0.32354492 0.047669627 0.57572508
0.32536182 0.047638647 0.57535094
0.32717642 0.047607712 0.57497734
0.32898864 0.047576819 0.57460421
0.33079851 0.047545966 0.57423156
0.33260605 0.04751515 0.57385939
0.33441123 0.047484372 0.5734877
0.33621407 0.047453634 0.57311648
0.33801457 0.047422938 0.57274574
0.33981273 0.047392283 0.57237548
0.34160858 0.047361664 0.57200569
0.34340215 0.047331091 0.57163644
0.34519339 0.047300551 0.5712676
0.34698233 0.047270056 0.57089931
0.34876892 0.047239594 0.57053143
0.35055324 0.047209173 0.57016402
0.35233524 0.047178794 0.5697971
0.35411498 0.047148451 0.56943065
0.35589242 0.04711815 0.56906468
0.35766757 0.047087885 0.56869918
0.35944045 0.047057662 0.56833416
0.36121103 0.047027476 0.56796956
0.36297935 0.046997324 0.56760544
0.36474559 0.046967242 0.56724209
0.36650929 0.046937156 0.56687874
0.36827055 0.04690709 0.56651562
0.37002987 0.046877097 0.56615341
0.37178689 0.046847142 0.56579161
0.37354177 0.046817236 0.5654304
0.3752943 0.046787351 0.5650695
0.2489533 0.051040635 0.59127736
0.25086904 0.051006567 0.59088272
0.25278223 0.050972547 0.59048861
0.25469288 0.050938573 0.59009504
0.25660101 0.05090465 0.58970207
0.25850651 0.050870761 0.58930945
0.26040956 0.050836924 0.58891749
0.26231006 0.050803132 0.58852601
0.26420799 0.050769377 0.588135
0.26610345 0.050735679 0.58774459
0.26799637 0.050702017 0.58735466
0.26988679 0.050668404 0.58696526
0.27177471 0.050634831 0.58657634
0.27366012 0.050601304 0.58618796
0.27554303 0.050567824 0.58580011
0.27742347 0.050534386 0.58541274
0.2793014 0.050500993 0.58502591
0.28117687 0.05046764 0.58463955
0.28304988 0.05043434 0.58425379
0.28492036 0.050401077 0.58386844
0.28678843 0.050367858 0.58348364
0.288654 0.050334685 0.58309931
0.29051712 0.050301552 0.58271551
0.29237783 0.050268471 0.58233225
0.29423606 0.050235428 0.58194947
0.29609188 0.050202429 0.58156723
0.29794523 0.050169472 0.5811854
0.29979613 0.050136555 0.58080411
0.30164465 0.050103687 0.58042336
0.30349073 0.050070863 0.58004308
0.30533439 0.050038077 0.57966328
0.30717564 0.050005339 0.57928401
0.3090145 0.049972638 0.57890522
0.31085092 0.049939983 0.57852691
0.31268489 0.04990736 0.57814902
0.31451651 0.049874786 0.57777166
0.31634572 0.049842253 0.57739478
0.3181726 0.049809769 0.57701844
0.3199971 0.049777325 0.57664263
0.32181925 0.049744934 0.57626736
0.32363904 0.04971258 0.57589257
0.32545641 0.049680263 0.57551819
0.32727146 0.049647991 0.57514435
0.32908413 0.049615759 0.57477099
0.3308945 0.049583577 0.57439816
0.33270246 0.049551431 0.57402575
0.33450812 0.04951933 0.57365388
0.3363114 0.049487263 0.57328242
0.33811235 0.04945524 0.57291144
0.33991101 0.049423262 0.572541
0.34170735 0.049391326 0.57217103
0.34350133 0.04935943 0.57180154
0.34529299 0.049327571 0.57143247
0.34708238 0.049295757 0.57106394
0.34886944 0.049263988 0.57069588
0.35065418 0.049232252 0.57032824
0.35243666 0.049200561 0.56996113
0.35421681 0.049168907 0.56959444
0.35599473 0.049137302 0.56922829
0.35777032 0.04910573 0.56886256
0.35954365 0.049074207 0.56849736
0.36131465 0.049042709 0.56813252
0.36308345 0.049011264 0.56776822
0.36485007 0.048979871 0.56740457
0.36661428 0.0489485 0.56704116
0.36837599 0.048917137 0.56667781
0.37013569 0.048885848 0.56631535
0.37189323 0.048854608 0.56595343
0.37364846 0.048823401 0.56559193
0.3754015 0.048792236 0.56523091
0.2509439 0.053104311 0.59105903
0.25285763 0.053068884 0.59066474
0.25476876 0.053033497 0.59027088
0.25667739 0.052998163 0.58987761
0.25858346 0.052962877 0.58948487
0.26048699 0.052927636 0.58909261
0.26238799 0.052892439 0.58870089
0.26428646 0.052857295 0.58830971
0.26618245 0.052822195 0.58791906
0.26807585 0.052787136 0.58752882
0.26996678 0.05275213 0.58713919
0.27185521 0.052717168 0.58675009
0.27374113 0.052682254 0.58636147
0.27562454 0.052647386 0.58597338
0.27750549 0.052612565 0.58558583
0.27938393 0.05257779 0.58519876
0.28125986 0.052543055 0.58481216
0.28313336 0.052508369 0.58442611
0.28500438 0.052473731 0.58404058
0.28687292 0.052439135 0.58365554
0.288739 0.05240459 0.58327103
0.29060262 0.052370086 0.58288699
0.29246381 0.052335631 0.5825035
0.29432252 0.052301217 0.58212048
0.29617882 0.052266851 0.581738
0.29803267 0.05223253 0.58135599
0.29988411 0.052198257 0.58097452
0.30173305 0.052164022 0.58059347
0.30357966 0.052129839 0.58021301
0.30542377 0.052095693 0.57983297
0.30726549 0.052061595 0.57945347
0.3091048 0.052027542 0.57907444
0.31094185 0.051993553 0.57869613
0.31277624 0.051959567 0.57831788
0.31460828 0.051925637 0.57794023
0.31643799 0.051891759 0.57756317
0.31826535 0.05185793 0.57718664
0.32009035 0.051824149 0.57681066
0.32191294 0.051790413 0.57643515
0.32373318 0.051756717 0.57606012
0.32555103 0.051723059 0.5756855
0.32736656 0.051689457 0.57531148
0.32917967 0.051655889 0.57493788
0.33099049 0.051622372 0.57456481
0.33279896 0.051588893 0.57419223
0.33460507 0.051555462 0.57382011
0.33640882 0.051522072 0.57344848
0.33821023 0.05148872 0.57307726
0.34000936 0.05145542 0.57270664
0.34180611 0.05142216 0.57233644
0.34360057 0.051388942 0.57196671
0.3453927 0.051355764 0.57159746
0.34718254 0.051322639 0.57122874
0.34897003 0.051289544 0.57086039
0.35075524 0.051256496 0.57049257
0.35253817 0.051223494 0.57012528
0.3543188 0.051190533 0.56975842
0.3560971 0.051157609 0.56939197
0.35787314 0.051124733 0.56902605
0.35964692 0.051091902 0.56866062
0.36141837 0.051059105 0.5682956
0.36318761 0.051026359 0.56793112
0.36495456 0.050993647 0.56756705
0.36671937 0.050961003 0.5672037
0.36848149 0.050928336 0.56684011
0.37024167 0.050895754 0.56647748
0.37199959 0.050863218 0.56611532
0.37375528 0.050830714 0.56575358
0.2548447 0.05512967 0.59044683
0.25675383 0.055092931 0.59005332
0.25866044 0.055056237 0.58966035
0.26056448 0.055019591 0.58926785
0.26246601 0.054982997 0.58887595
0.26436499 0.054946445 0.58848447
0.26626143 0.054909945 0.58809352
0.2681554 0.054873496 0.58770317
0.27004683 0.054837096 0.58731329
0.27193576 0.054800741 0.58692396
0.27382219 0.054764435 0.5865351
0.27570611 0.054728176 0.58614677
0.27758753 0.05469197 0.58575898
0.27946645 0.054655802 0.58537161
0.28134292 0.054619689 0.58498484
0.28321692 0.054583624 0.5845986
0.28508845 0.054547608 0.58421284
0.28695747 0.054511633 0.58382756
0.28882405 0.05447571 0.58344281
0.29068819 0.054439835 0.5830586
0.29254982 0.054404002 0.5826748
0.29440907 0.054368224 0.5822916
0.29626584 0.054332487 0.58190888
0.29812017 0.054296799 0.58152664
0.29997206 0.054261159 0.58114493
0.30182153 0.054225564 0.5807637
0.30366859 0.054190017 0.580383
0.30551317 0.054154512 0.58000273
0.3073554 0.054119054 0.57962298
0.3091951 0.054083634 0.5792436
0.31103253 0.054048277 0.57886493
0.31286749 0.054012954 0.57848662
0.3147001 0.053977687 0.57810891
0.31653032 0.053942464 0.57773167
0.31835815 0.05390729 0.57735497
0.3201836 0.053872164 0.57697874
0.3220067 0.05383708 0.576603
0.32382742 0.053802047 0.57622778
0.32564574 0.053767052 0.57585299
0.32746169 0.053732105 0.57547867
0.32927531 0.053697202 0.57510489
0.33108658 0.053662349 0.57473159
0.33289552 0.053627543 0.57435882
0.33470207 0.053592779 0.57398647
0.33650628 0.053558055 0.5736146
0.33830816 0.05352338 0.5732432
0.34010771 0.05348875 0.57287234
0.34190494 0.053454164 0.5725019
0.34369984 0.053419627 0.57213199
0.34549245 0.053385131 0.57176256
0.34728274 0.053350683 0.57139361
0.3490707 0.053316273 0.57102507
0.35085633 0.053281907 0.57065701
0.3526397 0.053247593 0.57028949
0.35442078 0.053213317 0.56992239
0.35619956 0.053179089 0.56955582
0.35797605 0.053144902 0.56918967
0.35975024 0.05311076 0.56882399
0.36152217 0.053076662 0.5684588
0.36329183 0.053042609 0.56809407
0.36505923 0.053008597 0.56772983
0.36682439 0.052974638 0.56736612
0.36858708 0.052940693 0.56700253
0.37034768 0.052906811 0.56663966
0.37210602 0.052872974 0.56627727
0.25683036 0.057188947 0.59022915
0.25873747 0.057150844 0.58983594
0.26064202 0.057112791 0.58944321
0.26254404 0.057074793 0.58905101
0.26444355 0.057036843 0.58865935
0.26634052 0.056998946 0.58826822
0.26823497 0.056961093 0.58787757
0.27012691 0.056923296 0.58748746
0.27201635 0.056885548 0.58709788
0.27390328 0.056847852 0.58670884
0.27578768 0.056810196 0.58632022
0.27766964 0.056772601 0.5859322
0.27954909 0.056735057 0.58554471
0.28142604 0.056697559 0.58515769
0.28330052 0.056660105 0.58477116
0.28517255 0.05662271 0.58438522
0.28704208 0.056585357 0.58399969
0.28890914 0.056548052 0.58361471
0.29077378 0.056510802 0.58323026
0.29263592 0.056473598 0.58284628
0.29449564 0.056436446 0.58246285
0.29635289 0.056399342 0.58207989
0.2982077 0.056362279 0.5816974
0.30006012 0.056325279 0.58131552
0.30191004 0.056288309 0.58093399
0.30375758 0.056251399 0.58055305
0.30560267 0.056214537 0.5801726
0.30744532 0.056177713 0.57979256
0.30928552 0.056140937 0.579413
0.31112346 0.056104232 0.57903415
0.3129589 0.056067556 0.57865566
0.31479201 0.05603094 0.57827777
0.3166227 0.055994365 0.57790029
0.31845105 0.05595785 0.57752341
0.32027695 0.055921372 0.57714695
0.32210049 0.055884942 0.57677096
0.32392168 0.055848565 0.57639551
0.32574046 0.055812228 0.57602048
0.32755694 0.055775948 0.57564604
0.32937101 0.055739708 0.57527202
0.33118272 0.055703513 0.57489848
0.33299211 0.055667371 0.57452548
0.33479914 0.055631276 0.57415295
0.33660379 0.055595223 0.57378083
0.33840615 0.055559218 0.57340926
0.34020618 0.055523261 0.57303816
0.34200385 0.05548735 0.57266754
0.34379923 0.055451486 0.57229739
0.34559226 0.055415668 0.57192773
0.34738296 0.05537989 0.57155848
0.34917137 0.055344164 0.57118976
0.35095751 0.055308491 0.57082158
0.35274133 0.055272859 0.57045382
0.35452282 0.055237263 0.57008648
0.35630205 0.055201724 0.56971967
0.35807899 0.05516623 0.56935334
0.3598536 0.055130776 0.56898743
0.361626 0.055095375 0.56862205
0.36339608 0.05506001 0.56825709
0.36516392 0.055024702 0.56789267
0.36692947 0.054989431 0.56752867
0.36869267 0.05495419 0.56716496
0.37045372 0.054919016 0.56680191
0.2607196 0.059207235 0.58961862
0.26262215 0.059167836 0.58922625
0.26452217 0.059128482 0.58883435
0.26641965 0.059089184 0.58844298
0.2683146 0.05904993 0.58805209
0.27020708 0.05901074 0.5876618
0.27209699 0.058971591 0.58727193
0.27398443 0.058932502 0.58688265
0.27586937 0.058893457 0.58649385
0.2777518 0.058854472 0.58610559
0.27963176 0.058815535 0.58571786
0.28150922 0.058776651 0.58533061
0.2833842 0.058737818 0.58494389
0.28525668 0.058699027 0.58455759
0.28712672 0.058660295 0.58417189
0.28899431 0.058621619 0.58378673
0.2908594 0.058582991 0.58340204
0.29272205 0.058544409 0.58301783
0.29458225 0.058505882 0.58263415
0.29643998 0.058467403 0.58225095
0.29829532 0.058428977 0.58186829
0.30014816 0.058390599 0.58148611
0.30199862 0.058352277 0.58110446
0.3038466 0.058313996 0.58072323
0.3056922 0.058275774 0.58034259
0.30753529 0.058237579 0.57996225
0.30937609 0.058199462 0.57958263
0.31121445 0.058161389 0.57920349
0.31305039 0.058123365 0.57882482
0.31488398 0.058085393 0.57844669
0.31671515 0.05804747 0.57806903
0.31854394 0.058009602 0.57769191
0.32037035 0.057971776 0.57731521
0.32219437 0.057934001 0.57693905
0.324016 0.057896275 0.57656336
0.32583526 0.057858597 0.57618815
0.32765216 0.057820968 0.57581341
0.32946673 0.057783395 0.57543921
0.33127892 0.057745866 0.57506549
0.33308876 0.057708386 0.57469225
0.33489621 0.057670947 0.57431942
0.33670139 0.057633571 0.57394719
0.3385042 0.057596236 0.57357538
0.34030464 0.057558946 0.57320404
0.34210277 0.057521705 0.57283318
0.34389862 0.057484519 0.57246286
0.3456921 0.057447374 0.57209295
0.34748328 0.057410277 0.57172352
0.34927216 0.057373237 0.57135463
0.35105875 0.057336241 0.57098621
0.35284299 0.057299286 0.57061821
0.35462493 0.057262383 0.57025069
0.35640463 0.057225533 0.5698837
0.35818195 0.057188716 0.56951708
0.35995704 0.057151955 0.56915098
0.36172989 0.057115246 0.56878543
0.36350045 0.057078581 0.56842029
0.36526868 0.057041958 0.56805557
0.36703467 0.057005387 0.56769139
0.36879838 0.056968853 0.56732756
0.26270029 0.06126212 0.58940154
0.26460081 0.061221369 0.58900946
0.26649883 0.061180662 0.58861786
0.26839429 0.061140012 0.58822674
0.27028725 0.061099414 0.58783615
0.27217767 0.061058871 0.58744609
0.27406561 0.061018385 0.58705658
0.27595106 0.060977947 0.58666754
0.27783403 0.060937572 0.58627909
0.27971447 0.060897242 0.58589107
0.28159243 0.060856972 0.58550364
0.28346789 0.060816746 0.58511662
0.28534088 0.060776576 0.58473015
0.28721145 0.06073647 0.58434427
0.28907949 0.060696404 0.5839588
0.29094508 0.060656395 0.58357388
0.29280823 0.060616441 0.58318949
0.29466891 0.060576539 0.58280557
0.29652715 0.060536683 0.58242214
0.29838294 0.060496885 0.58203924
0.30023625 0.060457129 0.58165675
0.30208719 0.060417436 0.58127487
0.30393565 0.060377788 0.5808934
0.30578175 0.060338207 0.58051258
0.30762544 0.060298674 0.58013225
0.30946669 0.060259189 0.57975239
0.31130549 0.06021975 0.57937294
0.31314194 0.060180373 0.5789941
0.31497604 0.060141053 0.57861578
0.31680766 0.060101774 0.57823789
0.31863692 0.060062554 0.57786053
0.32046378 0.060023375 0.57748359
0.32228827 0.059984252 0.57710719
0.32411036 0.059945177 0.57673126
0.32593012 0.059906159 0.57635587
0.32774749 0.059867192 0.57598096
0.32956252 0.05982827 0.57560652
0.33137515 0.059789404 0.57523257
0.33318546 0.059750583 0.57485908
0.33499339 0.059711814 0.57448608
0.33679903 0.059673097 0.57411361
0.33860224 0.059634428 0.57374156
0.3404032 0.059595812 0.57337004
0.3422018 0.059557248 0.572999
0.34399807 0.059518732 0.57262844
0.345792 0.059480257 0.57225829
0.34758365 0.059441842 0.57188869
0.34937298 0.059403475 0.57151955
0.35115999 0.059365157 0.5711509
0.3529447 0.059326887 0.57078272
0.35472712 0.059288669 0.57041502
0.35650724 0.0592505 0.5700478
0.35828504 0.059212375 0.56968099
0.36006057 0.059174299 0.56931466
0.36183384 0.059136279 0.56894886
0.36360481 0.0590983 0.56858349
0.36537352 0.05906038 0.56821865
0.36713997 0.059022501 0.56785423
0.26657799 0.063273378 0.58879274
0.26847398 0.063231327 0.58840144
0.27036747 0.063189335 0.58801067
0.27225843 0.063147396 0.58762038
0.27414688 0.063105509 0.58723062
0.27603281 0.063063674 0.58684134
0.27791628 0.063021906 0.58645266
0.2797972 0.062980182 0.5860644
0.28167567 0.062938519 0.58567667
0.28355163 0.062896907 0.58528948
0.28542516 0.062855355 0.58490282
0.28729618 0.062813856 0.58451664
0.28916472 0.062772416 0.584131
0.29103085 0.062731028 0.5837459
0.29289445 0.062689692 0.58336121
0.29475564 0.062648408 0.58297706
0.29661435 0.062607184 0.58259344
0.29847065 0.062566012 0.5822103
0.30032444 0.062524885 0.58182758
0.30217585 0.062483817 0.58144546
0.30402488 0.062442817 0.58106393
0.30587143 0.062401861 0.58068281
0.30771556 0.062360965 0.58030224
0.30955732 0.062320117 0.57992214
0.31139663 0.062279329 0.57954258
0.31323355 0.062238593 0.57916349
0.31506807 0.062197905 0.57878488
0.31690022 0.062157277 0.57840681
0.31872994 0.062116697 0.57802922
0.3205573 0.062076174 0.5776521
0.32238224 0.062035698 0.57727545
0.32420483 0.061995279 0.57689935
0.32602504 0.061954912 0.57652372
0.32784286 0.0619146 0.57614857
0.32965833 0.061874334 0.57577389
0.33147147 0.06183413 0.57539976
0.33328223 0.061793968 0.57502604
0.33509064 0.061753865 0.57465285
0.33689672 0.061713811 0.57428014
0.33870044 0.061673813 0.57390791
0.34050182 0.061633863 0.57353616
0.34230086 0.061593961 0.57316488
0.34409758 0.061554115 0.57279408
0.34589198 0.061514318 0.57242376
0.34768406 0.061474573 0.57205391
0.34947386 0.061434887 0.5716846
0.35126132 0.061395247 0.57131571
0.35304651 0.061355662 0.57094735
0.35482934 0.061316121 0.57057941
0.26855379 0.065323897 0.58857632
0.27044776 0.06528049 0.58818525
0.2723392 0.06523715 0.58779472
0.27422816 0.065193862 0.58740473
0.27611461 0.065150641 0.58701527
0.27799857 0.065107472 0.58662629
0.27988002 0.065064356 0.58623785
0.28175899 0.065021306 0.58584994
0.28363547 0.064978302 0.58546251
0.28550947 0.064935364 0.58507562
0.28738096 0.064892478 0.5846892
0.28925002 0.064849652 0.58430332
0.2911166 0.064806879 0.58391792
0.29298073 0.064764164 0.58353305
0.29484242 0.064721502 0.58314872
0.29670158 0.064678892 0.58276474
0.29855832 0.064636342 0.58238137
0.30041271 0.064593859 0.58199859
0.30226463 0.064551428 0.58161628
0.30411413 0.064509057 0.58123451
0.30596119 0.064466737 0.58085322
0.30780581 0.06442447 0.58047241
0.30964801 0.064382263 0.58009207
