# .PCD v0.7 - Point Cloud Data file format
VERSION 0.7
FIELDS x y z
SIZE 4 4 4
TYPE F F F
COUNT 1 1 1
WIDTH 1414
HEIGHT 1
VIEWPOINT 0 0 0 1 0 0 0
POINTS 1414
DATA ascii
-0.15976964 0.087250084 0.64320052
-0.15770121 0.087359667 0.64400834
-0.15562761 0.087469526 0.64481825
-0.15354876 0.087579668 0.64563018
-0.15146469 0.087690078 0.64644414
-0.14937533 0.087800771 0.64726013
-0.14728071 0.08791174 0.6480782
-0.14518079 0.088022992 0.64889836
-0.14307553 0.088134527 0.64972055
-0.14096494 0.088246346 0.65054488
-0.13884899 0.088358447 0.6513713
-0.13672766 0.088470846 0.65219986
-0.13460092 0.088583514 0.65303046
-0.13246877 0.08869648 0.65386325
-0.13033116 0.088809729 0.65469807
-0.12818809 0.088923268 0.6555351
-0.12603953 0.089037105 0.65637428
-0.12388546 0.089151219 0.65721554
-0.12172588 0.089265645 0.65805906
-0.11956073 0.089380346 0.65890467
-0.11739001 0.089495353 0.65975249
-0.11534011 0.089708969 0.66132724
-0.11346176 0.09006758 0.66397089
-0.11156833 0.090429068 0.66663575
-0.10965966 0.090793483 0.66932219
-0.10773554 0.091160834 0.67203027
-0.1837948 0.087998725 0.63229614
-0.18179114 0.08810737 0.63307679
-0.17978255 0.088216282 0.6338594
-0.17776898 0.088325471 0.63464391
-0.17575042 0.088434927 0.6354304
-0.17372686 0.088544659 0.63621885
-0.17169827 0.08865466 0.63700926
-0.16966464 0.088764943 0.63780165
-0.16762593 0.088875495 0.638596
-0.16558214 0.088986322 0.63939232
-0.16353324 0.089097418 0.6401906
-0.1614792 0.089208789 0.64099085
-0.15942006 0.089320458 0.64179319
-0.15735573 0.089432396 0.6425975
-0.15528622 0.089544609 0.64340377
-0.15321153 0.089657113 0.64421219
-0.1511316 0.0897699 0.64502257
-0.14904644 0.089882962 0.64583498
-0.14695603 0.089996323 0.64664948
-0.14486031 0.090109959 0.647466
-0.14275932 0.090223886 0.64828461
-0.140653 0.090338111 0.64910531
-0.13854136 0.090452619 0.64992809
-0.13642432 0.09056741 0.6507529
-0.13430193 0.090682499 0.65157986
-0.13217413 0.090797886 0.65240896
-0.13004091 0.090913557 0.65324008
-0.12790225 0.091029525 0.65407336
-0.12575811 0.091145784 0.65490872
-0.12360851 0.091262355 0.65574628
-0.12145339 0.091379218 0.65658599
-0.11929275 0.091496386 0.65742785
-0.11712656 0.091613844 0.65827185
-0.1149548 0.091731608 0.659118
-0.11277745 0.091849677 0.65996635
-0.11059449 0.091968052 0.66081691
-0.1084059 0.092086732 0.66166967
-0.10641269 0.092380248 0.66377866
-0.18339945 0.090032458 0.63093609
-0.18139964 0.090143383 0.63171339
-0.17939489 0.090254568 0.6324926
-0.1773852 0.090366043 0.63327378
-0.17537053 0.090477787 0.63405687
-0.17335087 0.090589814 0.63484192
-0.17132621 0.090702109 0.63562888
-0.16929652 0.090814687 0.63641781
-0.16726178 0.090927541 0.6372087
-0.16522196 0.091040671 0.6380015
-0.16317709 0.091154099 0.63879639
-0.16112711 0.091267802 0.63959318
-0.159072 0.091381788 0.64039201
-0.15701176 0.091496058 0.64119279
-0.15494636 0.091610618 0.64199561
-0.15287578 0.091725469 0.64280045
-0.15079999 0.091840595 0.64360726
-0.148719 0.091956019 0.64441615
-0.14663276 0.092071734 0.64522707
-0.14454128 0.09218774 0.64604002
-0.14244451 0.092304036 0.646855
-0.14034243 0.092420623 0.647672
-0.13823505 0.092537507 0.64849114
-0.13612233 0.092654698 0.64931238
-0.13400425 0.092772171 0.65013564
-0.1318808 0.092889957 0.65096104
-0.12975195 0.093008034 0.65178853
-0.12761767 0.093126416 0.65261811
-0.12547795 0.093245089 0.65344977
-0.1233328 0.093364082 0.65428364
-0.12118213 0.093483359 0.65511954
-0.11902598 0.093602955 0.65595764
-0.1168643 0.09372285 0.65679789
-0.11469705 0.093843043 0.65764016
-0.11252425 0.093963549 0.65848464
-0.11034586 0.09408436 0.65933126
-0.10816184 0.094205476 0.66018003
-0.18300582 0.092057474 0.62958187
-0.18100981 0.092170641 0.63035583
-0.1790089 0.092284091 0.63113171
-0.17700304 0.092397816 0.63190949
-0.17499226 0.092511833 0.63268924
-0.17297648 0.092626117 0.63347083
-0.17095575 0.0927407 0.63425446
-0.16892999 0.092855558 0.63503999
-0.1668992 0.092970699 0.63582742
-0.16486339 0.093086131 0.63661689
-0.1628225 0.093201846 0.63740826
-0.16077654 0.093317851 0.63820159
-0.15872547 0.093434148 0.63899696
-0.1566693 0.093550734 0.63979429
-0.15460798 0.093667604 0.64059359
-0.15254149 0.093784764 0.64139485
-0.15046982 0.093902223 0.64219815
-0.14839298 0.094019979 0.64300346
-0.14631091 0.094138026 0.64381081
-0.14422362 0.094256386 0.64462024
-0.14213106 0.094375022 0.64543164
-0.14003323 0.09449397 0.64624512
-0.13793011 0.094613217 0.64706063
-0.13582167 0.094732769 0.64787823
-0.1337079 0.094852611 0.64869785
-0.13158877 0.094972767 0.64951962
-0.12946425 0.09509322 0.65034336
-0.12733434 0.095213972 0.65116918
-0.12519901 0.095335029 0.65199709
-0.12305824 0.095456384 0.65282708
-0.12091201 0.09557806 0.65365922
-0.1187603 0.095700055 0.65449351
-0.1166031 0.095822349 0.65532988
-0.11444037 0.095944956 0.6561684
-0.1122721 0.096067876 0.65700907
-0.11009827 0.096191123 0.65785193
-0.10791886 0.096314676 0.65869695
-0.18460119 0.093958683 0.62746465
-0.18261385 0.094073802 0.62823343
-0.18062164 0.094189204 0.62900406
-0.17862456 0.094304889 0.62977666
-0.17662255 0.094420858 0.6305511
-0.17461561 0.094537117 0.63132745
-0.17260374 0.094653659 0.63210577
-0.17058688 0.094770491 0.63288599
-0.16856505 0.094887614 0.63366812
-0.16653821 0.09500502 0.63445216
-0.16450635 0.095122717 0.63523817
-0.16246943 0.095240705 0.63602608
-0.16042748 0.09535899 0.63681602
-0.15838045 0.095477574 0.63760793
-0.15632831 0.09559644 0.63840175
-0.15427105 0.095715612 0.63919759
-0.15220866 0.095835082 0.6399954
-0.15014112 0.09595485 0.64079523
-0.1480684 0.096074916 0.64159703
-0.14599049 0.096195281 0.64240086
-0.14390737 0.096315958 0.64320672
-0.14181899 0.09643691 0.64401448
-0.13972536 0.096558176 0.64482427
-0.13762645 0.096679747 0.64563614
-0.13552228 0.096801624 0.64645004
-0.13341276 0.096923798 0.64726597
-0.13129793 0.097046293 0.64808398
-0.12917775 0.097169101 0.64890409
-0.12705217 0.097292207 0.64972621
-0.12492122 0.097415626 0.65055043
-0.12278485 0.097539365 0.65137678
-0.12064306 0.097663432 0.65220529
-0.1184958 0.097787797 0.65303582
-0.11634307 0.097912483 0.6538685
-0.11418483 0.098037489 0.65470326
-0.11202109 0.098162808 0.65554017
-0.1098518 0.098288454 0.65637922
-0.10767695 0.098414414 0.65722042
-0.18420714 0.095964193 0.62612528
-0.18222357 0.096081525 0.62689078
-0.18023518 0.09619914 0.62765819
-0.17824186 0.09631703 0.62842739
-0.17624369 0.096435227 0.62919855
-0.17424059 0.096553706 0.62997156
-0.17223257 0.096672475 0.63074648
-0.17021962 0.096791543 0.63152337
-0.16820167 0.096910901 0.63230211
-0.16617876 0.09703055 0.63308281
-0.16415085 0.097150505 0.63386542
-0.16211791 0.09727075 0.63464999
-0.16007994 0.097391292 0.63543648
-0.15803692 0.097512133 0.63622493
-0.1559888 0.097633272 0.63701528
-0.15393558 0.097754709 0.63780761
-0.15187724 0.097876444 0.6386019
-0.14981379 0.097998485 0.63939816
-0.14774515 0.098120816 0.64019632
-0.14567135 0.098243475 0.64099658
-0.14359237 0.098366424 0.64179879
-0.14150818 0.098489687 0.64260304
-0.13941874 0.098613255 0.64340925
-0.13732408 0.09873715 0.64421761
-0.13522413 0.098861344 0.64502794
-0.1331189 0.098985851 0.64584029
-0.13100836 0.09911067 0.64665467
-0.12889248 0.099235803 0.64747113
-0.12677126 0.099361256 0.64828962
-0.12464467 0.099487029 0.64911026
-0.1225127 0.099613123 0.64993298
-0.1203753 0.099739529 0.65075773
-0.11823247 0.099866256 0.65158457
-0.1160842 0.099993311 0.65241355
-0.11393044 0.10012069 0.65324461
-0.1117712 0.1002484 0.65407783
-0.10960643 0.10037642 0.65491313
-0.10743614 0.10050477 0.65575057
-0.18381475 0.097961158 0.62479156
-0.18183495 0.098080672 0.62555385
-0.17985031 0.09820047 0.62631792
-0.17786081 0.098320574 0.6270839
-0.17586645 0.098440968 0.62785178
-0.17386717 0.098561645 0.62862146
-0.171863 0.098682635 0.6293931
-0.16985391 0.098803908 0.63016659
-0.16783987 0.098925479 0.63094199
-0.16582084 0.099047348 0.63171923
-0.16379683 0.099169508 0.63249838
-0.16176784 0.09929198 0.6332795
-0.1597338 0.099414743 0.63406247
-0.15769474 0.099537812 0.6348474
-0.15565063 0.099661194 0.6356343
-0.15360145 0.099784888 0.63642323
-0.15154718 0.099908881 0.63721406
-0.14948778 0.10003318 0.63800681
-0.14742327 0.10015779 0.63880157
-0.14535359 0.10028271 0.63959831
-0.14327875 0.10040794 0.64039701
-0.14119871 0.10053349 0.64119774
-0.13911349 0.10065935 0.6420005
-0.13702302 0.10078553 0.64280528
-0.1349273 0.10091202 0.64361203
-0.13282633 0.10103883 0.6444208
-0.13072006 0.10116597 0.64523166
-0.12860848 0.10129341 0.64604449
-0.12649158 0.10142118 0.64685941
-0.12436932 0.10154927 0.64767635
-0.12224173 0.1016777 0.6484955
-0.12010872 0.10180644 0.64931661
-0.11797031 0.10193551 0.65013981
-0.11582647 0.10206491 0.65096509
-0.11367717 0.10219463 0.65179247
-0.11152241 0.10232468 0.65262192
-0.10936216 0.10245508 0.65345359
-0.18539533 0.099828251 0.62270641
-0.18342407 0.099949643 0.62346363
-0.181448 0.10007133 0.62422264
-0.17946708 0.10019328 0.62498337
-0.17748134 0.10031554 0.62574601
-0.17549075 0.1004381 0.6265105
-0.17349528 0.10056096 0.62727684
-0.17149492 0.10068411 0.62804508
-0.16948965 0.10080757 0.62881517
-0.16747946 0.10093133 0.62958717
-0.16546434 0.1010554 0.63036108
-0.16344425 0.10117977 0.63113689
-0.16141918 0.10130445 0.63191462
-0.15938912 0.10142945 0.6326943
-0.15735404 0.10155474 0.63347584
-0.15531394 0.10168035 0.6342594
-0.15326877 0.10180627 0.63504481
-0.15121853 0.1019325 0.63583219
-0.1491632 0.10205904 0.63662153
-0.14710277 0.10218589 0.63741285
-0.1450372 0.10231306 0.63820612
-0.14296649 0.10244055 0.63900137
-0.14089061 0.10256837 0.63979864
-0.13880955 0.10269649 0.64059788
-0.13672328 0.10282494 0.64139909
-0.13463177 0.10295371 0.64220232
-0.13253504 0.10308281 0.64300758
-0.13043302 0.10321222 0.64381486
-0.12832573 0.10334196 0.64462411
-0.12621313 0.10347203 0.64543551
-0.12409522 0.10360242 0.64624888
-0.12197195 0.10373315 0.64706433
-0.11984332 0.10386421 0.64788181
-0.1177093 0.1039956 0.64870137
-0.11556988 0.10412732 0.64952302
-0.11342503 0.10425937 0.65034676
-0.11127473 0.10439176 0.65117258
-0.10911898 0.1045245 0.65200055
-0.18530722 0.10197379 0.62241048
-0.18321221 0.10202836 0.62274349
-0.18111497 0.10208298 0.62307692
-0.17908534 0.10217753 0.62365401
-0.17710337 0.10230194 0.62441337
-0.17511654 0.10242666 0.62517458
-0.17312488 0.10255168 0.6259377
-0.17112838 0.10267702 0.62670273
-0.16912694 0.10280266 0.62746954
-0.16712062 0.10292859 0.6282382
-0.16510937 0.10305484 0.62900877
-0.16309319 0.10318141 0.62978131
-0.16107203 0.10330827 0.63055563
-0.15904592 0.10343546 0.63133192
-0.15701482 0.10356297 0.63211018
-0.15497869 0.10369078 0.63289034
-0.15293753 0.10381891 0.63367236
-0.15089132 0.10394735 0.63445634
-0.14884004 0.10407612 0.63524228
-0.14678366 0.1042052 0.63603014
-0.14472219 0.1043346 0.63681996
-0.1426556 0.10446433 0.63761181
-0.14058386 0.10459439 0.63840562
-0.13850693 0.10472476 0.63920134
-0.13642484 0.10485546 0.63999909
-0.13433754 0.10498648 0.64079881
-0.13224502 0.10511784 0.64160055
-0.13014725 0.10524952 0.64240426
-0.12804423 0.10538153 0.64321005
-0.12593591 0.10551387 0.64401782
-0.12382231 0.10564656 0.64482766
-0.12170336 0.10577957 0.64563948
-0.11957909 0.10591291 0.64645338
-0.11744945 0.10604659 0.64726931
-0.11531442 0.10618061 0.64808732
-0.113174 0.10631497 0.64890742
-0.11102815 0.10644966 0.64972955
-0.10887687 0.10658472 0.65055388
-0.18540058 0.10421926 0.62272406
-0.18330456 0.10427506 0.62305743
-0.18120632 0.1043309 0.62339115
-0.1791058 0.10438682 0.62372524
-0.17700304 0.10444279 0.62405968
-0.17489804 0.10449883 0.62439454
-0.17279077 0.10455492 0.62472969
-0.17076337 0.10466142 0.62536603
-0.16876578 0.1047892 0.62612957
-0.16676331 0.10491731 0.62689501
-0.16475593 0.10504573 0.6276623
-0.16274363 0.10517445 0.62843144
-0.1607264 0.1053035 0.62920254
-0.15870421 0.10543286 0.6299755
-0.15667704 0.10556255 0.63075036
-0.15464488 0.10569254 0.63152713
-0.15260772 0.10582288 0.63230586
-0.15056552 0.10595351 0.63308644
-0.14851828 0.10608448 0.63386899
-0.14646596 0.10621577 0.63465345
-0.14440855 0.10634738 0.63543987
-0.14234605 0.10647932 0.63622826
-0.14027843 0.1066116 0.63701862
-0.13820565 0.10674419 0.63781089
-0.13612771 0.10687713 0.63860518
-0.13404459 0.10701038 0.63940138
-0.13195626 0.10714398 0.6401996
-0.12986273 0.1072779 0.64099985
-0.12776396 0.10741217 0.64180213
-0.12565991 0.10754677 0.64260638
-0.12355059 0.10768171 0.64341265
-0.12143597 0.10781699 0.64422095
-0.11931603 0.1079526 0.64503127
-0.11719075 0.10808856 0.64584363
-0.11506011 0.10822485 0.646658
-0.11292408 0.1083615 0.64747447
-0.11078267 0.10849849 0.64829302
-0.10863583 0.10863583 0.64911366
-0.1875888 0.10641002 0.62270457
-0.18549404 0.10646699 0.62303793
-0.18339701 0.10652401 0.62337166
-0.18129775 0.10658111 0.62370574
-0.17919624 0.10663825 0.62404019
-0.17709248 0.10669547 0.62437499
-0.17498644 0.10675273 0.62471008
-0.17287815 0.10681006 0.6250456
-0.17076759 0.10686745 0.62538147
-0.16865477 0.10692491 0.6257177
-0.16653967 0.10698243 0.62605429
-0.1644223 0.10704002 0.62639129
-0.16239557 0.10715897 0.62708741
-0.16038223 0.10729018 0.62785518
-0.15836395 0.1074217 0.62862486
-0.15634072 0.10755354 0.62939638
-0.15431251 0.10768571 0.63016981
-0.15227932 0.1078182 0.63094515
-0.15024112 0.10795103 0.63172245
-0.14819789 0.10808417 0.6325016
-0.14614961 0.10821764 0.63328266
-0.14409627 0.10835146 0.63406575
-0.14203784 0.10848559 0.63485068
-0.13997431 0.10862006 0.63563758
-0.13790566 0.10875487 0.63642645
-0.13583186 0.10889 0.63721728
-0.13375291 0.10902549 0.63801008
-0.13166878 0.10916129 0.63880485
-0.12957944 0.10929745 0.63960159
-0.1274849 0.10943394 0.64040035
-0.12538511 0.10957077 0.64120108
-0.12328006 0.10970795 0.64200383
-0.12116974 0.10984546 0.64280856
-0.11905411 0.10998333 0.64361531
-0.11693318 0.11012154 0.64442414
-0.1148069 0.11026009 0.64523494
-0.11267528 0.11039902 0.64604789
-0.11053827 0.11053827 0.6468628
-0.18768336 0.10865878 0.62301844
-0.18558757 0.10871698 0.62335211
-0.18348955 0.10877524 0.62368619
-0.18138929 0.10883357 0.62402064
-0.17928675 0.10889196 0.62435538
-0.17718196 0.1089504 0.62469047
-0.17507492 0.10900892 0.62502599
-0.1729656 0.10906748 0.6253618
-0.17085403 0.10912612 0.62569803
-0.16874018 0.10918482 0.62603462
-0.16662407 0.10924359 0.62637156
-0.16450566 0.10930242 0.62670887
-0.16238497 0.10936131 0.62704653
-0.160262 0.10942026 0.62738454
-0.15813673 0.10947928 0.62772292
-0.15600918 0.10953836 0.62806171
-0.15398157 0.10967033 0.62881833
-0.15195234 0.10980498 0.62959039
-0.14991811 0.10993996 0.6303643
-0.14787889 0.11007526 0.63114011
-0.14583464 0.11021091 0.63191789
-0.14378533 0.11034688 0.63269752
-0.14173096 0.11048318 0.63347906
-0.1396715 0.11061984 0.63426256
-0.13760696 0.11075683 0.63504803
-0.1355373 0.11089415 0.63583541
-0.13346249 0.11103182 0.63662475
-0.13138252 0.11116983 0.63741606
-0.12929739 0.11130819 0.6382094
-0.12720707 0.1114469 0.63900471
-0.12511151 0.11158594 0.63980192
-0.12301072 0.11172533 0.64060116
-0.12090467 0.11186507 0.64140236
-0.11879336 0.11200517 0.64220566
-0.11667675 0.11214561 0.64301091
-0.11455481 0.1122864 0.6438182
-0.11242756 0.11242756 0.64462751
-0.11029494 0.11256906 0.64543885
-0.18777798 0.1109098 0.62333256
-0.18568121 0.11096925 0.62366664
-0.18358217 0.11102874 0.62400103
-0.18148088 0.1110883 0.62433577
-0.17937735 0.11114793 0.62467086
-0.17727156 0.11120763 0.62500638
-0.17516349 0.11126737 0.62534219
-0.17305316 0.11132719 0.62567836
-0.17094055 0.11138707 0.62601489
-0.16882569 0.11144702 0.62635183
-0.16670854 0.11150704 0.62668914
-0.16458911 0.11156712 0.6270268
-0.16246741 0.11162726 0.62736481
-0.16034339 0.11168747 0.62770319
-0.15821709 0.11174773 0.62804186
-0.15608849 0.11180806 0.62838095
-0.15395759 0.11186846 0.6287204
-0.1518244 0.11192893 0.62906027
-0.1496889 0.11198947 0.62940049
-0.14756125 0.11205779 0.62978446
-0.14552101 0.11219559 0.63055891
-0.14347573 0.11233371 0.6313352
-0.14142542 0.11247218 0.6321134
-0.13937002 0.11261098 0.6328935
-0.13730957 0.11275014 0.63367558
-0.13524401 0.11288963 0.63445956
-0.13317335 0.11302947 0.6352455
-0.13109754 0.11316967 0.63603342
-0.12901658 0.11331021 0.6368233
-0.12693043 0.11345109 0.63761508
-0.1248391 0.11359233 0.63840884
-0.12274255 0.11373392 0.63920462
-0.12064077 0.11387587 0.64000237
-0.11853373 0.11401816 0.64080209
-0.11642144 0.11416083 0.64160389
-0.11430383 0.11430383 0.6424076
-0.11218093 0.11444721 0.64321339
-0.11005268 0.11459093 0.64402115
-0.18787274 0.11316311 0.62364709
-0.18577494 0.11322378 0.62398148
-0.1836749 0.11328452 0.62431622
-0.18157262 0.11334532 0.62465131
-0.17946804 0.11340619 0.62498671
-0.17736122 0.11346712 0.62532252
-0.17525214 0.11352812 0.62565869
-0.17314081 0.1135892 0.62599528
-0.17102718 0.11365032 0.62633216
-0.16891128 0.11371152 0.62666941
-0.16679312 0.11377279 0.62700707
-0.16467263 0.1138341 0.62734497
-0.16254988 0.1138955 0.62768334
-0.16042486 0.11395697 0.62802207
-0.15829751 0.11401848 0.62836111
-0.15616788 0.11408008 0.62870055
-0.15403596 0.11414175 0.62904042
-0.15190171 0.11420347 0.62938058
-0.14976515 0.11426526 0.62972111
-0.14762628 0.11432713 0.63006204
-0.14548509 0.11438904 0.63040328
-0.1433416 0.11445105 0.63074499
-0.14119577 0.11451311 0.63108701
-0.13906984 0.11459355 0.63153034
-0.13701347 0.11473484 0.63230902
-0.13495201 0.11487649 0.63308966
-0.13288544 0.11501849 0.63387221
-0.13081378 0.11516085 0.63465673
-0.12873697 0.11530355 0.63544315
-0.126655 0.11544659 0.63623148
-0.12456787 0.11559001 0.63702184
-0.12247555 0.11573377 0.63781416
-0.120378 0.11587789 0.6386084
-0.11827524 0.11602238 0.63940465
-0.11616722 0.11616722 0.64020294
-0.11405394 0.11631244 0.64100319
-0.11193536 0.11645801 0.64180541
-0.10981148 0.11660393 0.64260966
-0.19006413 0.11535685 0.6236276
-0.18796757 0.11541869 0.62396193
-0.18586877 0.11548059 0.62429661
-0.18376771 0.11554257 0.62463164
-0.18166441 0.11560462 0.6249671
-0.17955884 0.11566674 0.62530291
-0.17745101 0.11572892 0.62563908
-0.17534092 0.11579117 0.62597561
-0.17322853 0.11585347 0.62631243
-0.17111389 0.11591586 0.62664968
-0.16899696 0.11597831 0.62698728
-0.16687775 0.11604082 0.62732524
-0.16475625 0.1161034 0.62766355
-0.16263248 0.11616606 0.62800229
-0.1605064 0.11622877 0.62834132
-0.15837802 0.11629155 0.62868071
-0.15624735 0.11635441 0.62902051
-0.15411437 0.11641733 0.62936068
-0.15197909 0.11648032 0.6297012
-0.14984149 0.11654337 0.63004208
-0.14770158 0.1166065 0.63038337
-0.14555934 0.11666971 0.63072503
-0.14341478 0.11673295 0.63106698
-0.1412679 0.11679629 0.63140935
-0.13911869 0.1168597 0.63175213
-0.13696712 0.11692316 0.63209522
-0.13481325 0.1169867 0.63243872
-0.13265702 0.11705032 0.63278264
-0.13053124 0.11714341 0.63328594
-0.12845857 0.11728825 0.63406897
-0.12638076 0.11743345 0.6348539
-0.12429782 0.11757902 0.63564086
-0.12220971 0.11772495 0.63642973
-0.12011638 0.11787122 0.6372205
-0.11801788 0.11801788 0.63801336
-0.11591414 0.1181649 0.63880813
-0.11380514 0.11831227 0.63960487
-0.11169088 0.11846002 0.64040363
-0.19016007 0.11761345 0.62394238
-0.1880625 0.11767654 0.62427706
-0.18596269 0.11773969 0.62461209
-0.18386063 0.11780292 0.62494749
-0.18175632 0.11786622 0.6252833
-0.17964971 0.11792956 0.62561935
-0.17754087 0.117993 0.62595588
-0.17542973 0.11805649 0.62629271
-0.17331634 0.11812006 0.62662995
-0.17120069 0.1181837 0.62696755
-0.16908273 0.1182474 0.62730551
-0.1669625 0.11831117 0.62764382
-0.16483997 0.118375 0.62798244
-0.16271514 0.11843891 0.62832147
-0.16058803 0.11850289 0.62866086
-0.15845862 0.11856695 0.62900066
-0.1563269 0.11863105 0.62934077
-0.15419288 0.11869524 0.62968129
-0.15205655 0.1187595 0.63002217
-0.14991789 0.11882381 0.63036335
-0.14777693 0.11888821 0.630705
-0.14563365 0.11895268 0.63104701
-0.14348803 0.11901721 0.63138932
-0.14134011 0.11908182 0.63173211
-0.13918982 0.11914649 0.63207519
-0.13703722 0.11921124 0.63241869
-0.13488226 0.11927605 0.63276249
-0.13272497 0.11934093 0.63310671
-0.13056532 0.11940589 0.63345128
-0.12840332 0.11947092 0.63379627
-0.12623897 0.11953601 0.63414162
-0.12407225 0.11960118 0.63448733
-0.121945 0.11970748 0.63505125
-0.11985591 0.11985591 0.63583869
-0.11776163 0.12000471 0.63662809
-0.11566214 0.12015388 0.6374194
-0.11355743 0.12030341 0.63821268
-0.11144746 0.12045331 0.63900793
-0.1902561 0.11987235 0.6242575
-0.18815753 0.11993667 0.62459248
-0.18605672 0.12000108 0.62492788
-0.18395364 0.12006555 0.62526363
-0.1818483 0.12013009 0.62559974
-0.1797407 0.1201947 0.62593621
-0.17763083 0.12025937 0.62627304
-0.17551869 0.12032413 0.62661028
-0.17340428 0.12038895 0.62694782
-0.17128757 0.12045383 0.62728572
-0.16916858 0.12051879 0.62762398
-0.16704732 0.12058382 0.62796265
-0.16492374 0.12064891 0.62830162
-0.1627979 0.12071408 0.62864101
-0.16066974 0.12077932 0.62898076
-0.1585393 0.12084463 0.62932086
-0.15640652 0.12091001 0.62966132
-0.15427147 0.12097546 0.6300022
-0.15213409 0.12104099 0.63034344
-0.14999439 0.12110659 0.63068503
-0.14785238 0.12117225 0.63102698
-0.14570804 0.12123799 0.63136935
-0.14356136 0.12130379 0.63171202
-0.14141238 0.12136967 0.6320551
-0.13926104 0.12143562 0.63239855
-0.13710737 0.12150165 0.6327424
-0.13495134 0.12156773 0.63308656
-0.13279298 0.1216339 0.63343114
-0.13063227 0.12170015 0.63377613
-0.1284692 0.12176646 0.63412142
-0.12630376 0.12183283 0.63446707
-0.12413598 0.12189929 0.63481319
-0.12196581 0.12196581 0.63515961
-0.11979329 0.12203241 0.63550645
-0.1176184 0.12209909 0.63585371
-0.11544112 0.12216584 0.63620132
-0.11331078 0.1222859 0.63682652
-0.1112051 0.12243794 0.6376183
-0.19244955 0.122068 0.6242379
-0.19035223 0.12213351 0.62457287
-0.18825266 0.1221991 0.62490827
-0.18615082 0.12226474 0.62524396
-0.18404673 0.12233046 0.62558007
-0.18194039 0.12239626 0.62591654
-0.17983176 0.12246212 0.62625331
-0.17772086 0.12252805 0.62659049
-0.1756077 0.12259405 0.62692803
-0.17349225 0.12266013 0.62726593
-0.17137454 0.12272628 0.62760425
-0.16925453 0.1227925 0.62794286
-0.16713223 0.12285879 0.62828183
-0.16500762 0.12292514 0.62862116
-0.16288073 0.12299158 0.62896091
-0.16075154 0.12305807 0.62930095
-0.15862006 0.12312466 0.62964147
-0.15648626 0.1231913 0.62998229
-0.15435013 0.12325802 0.63032347
-0.15221171 0.12332482 0.63066506
-0.15007095 0.12339167 0.63100696
-0.1479279 0.12345862 0.63134927
-0.1457825 0.12352563 0.63169199
-0.14363477 0.12359271 0.63203502
-0.14148472 0.12365987 0.63237846
-0.13933232 0.1237271 0.63272226
-0.13717759 0.12379441 0.63306648
-0.13502049 0.12386178 0.63341099
-0.13286106 0.12392923 0.63375592
-0.13069928 0.12399675 0.63410121
-0.12853514 0.12406435 0.63444692
-0.12636863 0.12413201 0.63479292
-0.12419976 0.12419976 0.63513941
-0.12202852 0.12426758 0.63548619
-0.11985491 0.12433547 0.63583338
-0.11767893 0.12440343 0.63618094
-0.11550056 0.12447148 0.63652891
-0.11331981 0.12453959 0.63687724
-0.11113667 0.12460778 0.63722593
-0.1925468 0.12433022 0.62455332
-0.19044846 0.12439698 0.62488866
-0.18834788 0.1244638 0.62522435
-0.18624502 0.1245307 0.6255604
-0.18413992 0.12459767 0.62589681
-0.18203256 0.12466472 0.62623364
-0.17992292 0.12473185 0.62657082
-0.17781101 0.12479903 0.6269083
-0.17569682 0.12486629 0.6272462
-0.17358035 0.12493363 0.62758446
-0.17146158 0.12500103 0.62792301
-0.16934055 0.1250685 0.62826198
-0.16721721 0.12513606 0.62860131
-0.16509157 0.12520368 0.628941
-0.16296366 0.12527138 0.6292811
-0.16083343 0.12533917 0.62962157
-0.1587009 0.12540701 0.62996238
-0.15656604 0.12547491 0.6303035
-0.15442888 0.12554291 0.63064504
-0.15228941 0.12561098 0.63098699
-0.15014762 0.12567912 0.6313293
-0.1480035 0.12574734 0.63167197
-0.14585705 0.12581562 0.63201499
-0.14370826 0.12588398 0.63235837
-0.14155714 0.12595242 0.63270217
-0.13940369 0.12602092 0.63304633
-0.13724788 0.12608951 0.63339084
-0.13508973 0.12615818 0.63373578
-0.13292922 0.1262269 0.63408101
-0.13076636 0.12629572 0.63442671
-0.12860113 0.12636459 0.63477266
-0.12643355 0.12643355 0.63511908
-0.12426361 0.1265026 0.63546592
-0.12209129 0.1265717 0.63581306
-0.11991659 0.12664089 0.63616055
-0.11773952 0.12671015 0.63650852
-0.11556005 0.12677948 0.63685679
-0.11337821 0.12684889 0.63720548
-0.19264412 0.12659471 0.62486899
-0.19054478 0.12666272 0.62520468
-0.18844318 0.1267308 0.62554073
-0.18633935 0.12679897 0.6258772
-0.18423323 0.12686719 0.62621397
-0.18212484 0.1269355 0.62655109
-0.18001418 0.12700386 0.62688857
-0.17790124 0.1270723 0.62722641
-0.17578603 0.12714083 0.62756467
-0.17366852 0.12720942 0.62790322
-0.17154874 0.1272781 0.62824219
-0.16942665 0.12734683 0.62858146
-0.1673023 0.12741566 0.62892115
-0.16517563 0.12748455 0.6292612
-0.16304666 0.12755351 0.6296016
-0.16091539 0.12762256 0.62994242
-0.15878183 0.12769167 0.63028359
-0.15664594 0.12776087 0.63062513
-0.15450773 0.12783013 0.63096702
-0.15236719 0.12789947 0.63130927
-0.15022434 0.12796888 0.63165188
-0.14807917 0.12803838 0.6319949
-0.14593166 0.12810794 0.63233829
-0.14378183 0.1281776 0.63268209
-0.14162964 0.12824731 0.63302618
-0.13947511 0.1283171 0.6333707
-0.13731824 0.12838697 0.63371557
-0.13515902 0.12845692 0.6340608
-0.13299744 0.12852694 0.63440645
-0.13083351 0.12859704 0.63475245
-0.12866721 0.12866721 0.63509881
-0.12649855 0.12873746 0.63544559
-0.12432752 0.1288078 0.63579273
-0.12215412 0.12887819 0.63614023
-0.11997834 0.12894867 0.63648814
-0.11780016 0.12901923 0.63683635
-0.11561962 0.12908986 0.63718504
-0.11343668 0.12916058 0.63753408
-0.19483967 0.12879233 0.62484944
-0.19274157 0.1288615 0.62518507
-0.19064122 0.12893078 0.62552112
-0.18853863 0.12900011 0.62585753
-0.18643373 0.12906951 0.62619424
-0.1843266 0.12913901 0.62653136
-0.1822172 0.12920856 0.62686884
-0.18010552 0.1292782 0.62720668
-0.17799155 0.12934791 0.62754488
-0.17587532 0.12941769 0.62788343
-0.17375678 0.12948754 0.62822235
-0.17163597 0.12955748 0.62856162
-0.16951287 0.12962748 0.6289013
-0.16738746 0.12969756 0.62924129
-0.16525975 0.12976773 0.62958169
-0.16312976 0.12983797 0.62992251
-0.16099745 0.12990828 0.63026363
-0.15886283 0.12997869 0.63060516
-0.15672588 0.13004914 0.63094699
-0.15458663 0.13011968 0.63128924
-0.15244505 0.1301903 0.63163185
-0.15030116 0.130261 0.63197488
-0.14815491 0.13033177 0.6323182
-0.14600636 0.13040262 0.632662
-0.14385544 0.13047354 0.63300604
-0.1417022 0.13054456 0.63335055
-0.13954662 0.13061564 0.63369542
-0.13738866 0.13068677 0.63404059
-0.13522838 0.13075802 0.63438618
-0.13306572 0.13082932 0.63473213
-0.13090071 0.13090071 0.63507849
-0.12873335 0.13097219 0.63542527
-0.12656359 0.13104373 0.63577235
-0.12439149 0.13111535 0.63611984
-0.12221701 0.13118707 0.63646775
-0.12004013 0.13125883 0.63681597
-0.11786088 0.1313307 0.63716459
-0.11567924 0.13140264 0.63751364
-0.11349522 0.13147466 0.63786304
-0.19493821 0.13106015 0.62516546
-0.1928391 0.13113059 0.62550145
-0.19073774 0.1312011 0.6258378
-0.18863413 0.13127171 0.62617457
-0.18652824 0.13134237 0.62651163
-0.18442009 0.13141312 0.62684911
-0.18230966 0.13148393 0.62718689
-0.18019696 0.13155483 0.62752509
-0.17808196 0.13162579 0.62786359
-0.17596468 0.13169684 0.6282025
-0.17384513 0.13176797 0.62854177
-0.17172331 0.13183917 0.62888145
-0.16959916 0.13191046 0.62922144
-0.16747272 0.13198182 0.62956184
-0.16534398 0.13205326 0.6299026
-0.16321293 0.13212475 0.63024366
-0.16107957 0.13219634 0.63058513
-0.15894392 0.13226801 0.63092703
-0.15680592 0.13233975 0.63126922
-0.1546656 0.13241157 0.63161176
-0.152523 0.13248347 0.63195479
-0.15037803 0.13255545 0.63229811
-0.14823073 0.1326275 0.63264179
-0.1460811 0.13269964 0.63298589
-0.14392914 0.13277185 0.63333035
-0.14177483 0.13284414 0.63367516
-0.13961819 0.13291651 0.63402039
-0.13745917 0.13298896 0.63436598
-0.13529779 0.13306147 0.63471186
-0.13313408 0.13313408 0.63505822
-0.130968 0.13320677 0.63540494
-0.12879954 0.13327953 0.63575202
-0.12662873 0.13335238 0.63609952
-0.12445553 0.1334253 0.63644737
-0.12227996 0.1334983 0.63679558
-0.120102 0.13357139 0.63714421
-0.11792166 0.13364455 0.63749319
-0.11573892 0.13371779 0.63784254
-0.19503684 0.13333027 0.62548178
-0.19293673 0.13340198 0.62581813
-0.19083436 0.13347375 0.62615484
-0.18872975 0.13354561 0.62649196
-0.18662283 0.13361752 0.62682933
-0.18451364 0.13368952 0.62716711
-0.18240221 0.13376161 0.6275053
-0.18028846 0.13383377 0.6278438
-0.17817247 0.13390602 0.62818271
-0.17605418 0.13397834 0.62852198
-0.1739336 0.13405073 0.62886161
-0.1718107 0.13412319 0.62920153
-0.16968553 0.13419574 0.62954187
-0.16755806 0.13426837 0.62988263
-0.16542827 0.13434108 0.63022369
-0.16329618 0.13441385 0.63056511
-0.1611618 0.13448673 0.630907
-0.15902507 0.13455968 0.63124919
-0.15688604 0.13463269 0.63159174
-0.15474468 0.13470581 0.6319347
-0.152601 0.13477899 0.63227803
-0.15045498 0.13485223 0.63262165
-0.14830664 0.13492559 0.63296574
-0.14615594 0.13499901 0.63331014
-0.14400291 0.1350725 0.63365495
-0.14184754 0.13514608 0.63400012
-0.13968982 0.13521975 0.63434571
-0.13752973 0.13529348 0.6346916
-0.1353673 0.1353673 0.63503796
-0.13320251 0.1354412 0.63538462
-0.13103534 0.13551518 0.6357317
-0.12886582 0.13558926 0.63607913
-0.12669392 0.13566341 0.63642699
-0.12451964 0.13573763 0.6367752
-0.12234297 0.13581192 0.63712376
-0.12016393 0.13588631 0.63747275
-0.1179825 0.13596079 0.63782209
-0.11579868 0.13603534 0.63817185
-0.19513561 0.13560271 0.62579852
-0.19303448 0.13567567 0.62613517
-0.19093108 0.13574868 0.62647218
-0.18882543 0.1358218 0.6268096
-0.18671751 0.135895 0.62714738
-0.18460734 0.13596828 0.62748557
-0.18249486 0.13604163 0.62782407
-0.18038011 0.13611504 0.62816292
-0.17826305 0.13618854 0.62850207
-0.17614374 0.13626213 0.6288417
-0.17402212 0.13633581 0.62918168
-0.1718982 0.13640954 0.62952197
-0.16977198 0.13648336 0.62986267
-0.16764347 0.13655727 0.63020372
-0.16551265 0.13663125 0.63054514
-0.16337952 0.13670532 0.63088697
-0.16124408 0.13677947 0.63122916
-0.15910631 0.13685368 0.63157165
-0.15696624 0.13692799 0.63191462
-0.15482382 0.13700238 0.63225788
-0.15267907 0.13707684 0.6326015
-0.15053202 0.13715139 0.6329456
-0.1483826 0.13722602 0.63328999
-0.14623086 0.13730073 0.63363475
-0.14407676 0.13737552 0.63397992
-0.14192033 0.1374504 0.63432544
-0.13976152 0.13752533 0.63467133
-0.13760038 0.13760038 0.63501763
-0.13543688 0.13767551 0.63536435
-0.13327101 0.1377507 0.63571137
-0.13110277 0.137826 0.63605881
-0.12893216 0.13790135 0.6364066
-0.12675917 0.1379768 0.63675475
-0.12458382 0.13805233 0.63710338
-0.12240607 0.13812794 0.6374523
-0.12022593 0.13820364 0.63780165
-0.11804341 0.13827942 0.63815135
-0.11585849 0.13835528 0.63850147
-0.19733432 0.13780329 0.62577879
-0.19523443 0.13787742 0.62611544
-0.19313231 0.13795166 0.62645251
-0.19102792 0.13802595 0.62678993
-0.18892124 0.13810033 0.62712765
-0.18681231 0.13817479 0.62746578
-0.18470109 0.13824931 0.62780422
-0.18258759 0.13832393 0.62814307
-0.18047179 0.13839862 0.62848222
-0.17835373 0.13847339 0.62882179
-0.17623337 0.13854825 0.62916172
-0.17411071 0.13862318 0.629502
-0.17198578 0.13869821 0.6298427
-0.16985853 0.13877331 0.63018376
-0.16772896 0.13884848 0.63052511
-0.16559713 0.13892376 0.63086694
-0.16346294 0.1389991 0.63120908
-0.16132644 0.13907452 0.63155156
-0.15918764 0.13915004 0.63189453
-0.15704651 0.13922563 0.63223779
-0.15490305 0.1393013 0.63258141
-0.15275724 0.13937706 0.63292539
-0.15060914 0.1394529 0.63326985
-0.14845866 0.13952881 0.63361454
-0.14630584 0.13960482 0.63395971
-0.1441507 0.13968091 0.63430524
-0.14199318 0.13975707 0.63465106
-0.13983332 0.13983332 0.63499737
-0.13767111 0.13990965 0.63534403
-0.13550653 0.13998608 0.63569105
-0.13333957 0.14006257 0.63603842
-0.13117027 0.14013918 0.63638628
-0.12899856 0.14021583 0.63673437
-0.1268245 0.14029258 0.63708293
-0.12464805 0.14036943 0.63743186
-0.12246921 0.14044634 0.63778114
-0.12028798 0.14052334 0.63813084
-0.11810437 0.14060043 0.6384809
-0.19743428 0.14007907 0.62609577
-0.19533339 0.14015447 0.62643278
-0.19323024 0.14022994 0.62677014
-0.19112481 0.1403055 0.62710786
-0.18901713 0.14038114 0.62744594
-0.18690716 0.14045686 0.62778437
-0.18479493 0.14053267 0.62812322
-0.1826804 0.14060855 0.62846237
-0.18056358 0.14068452 0.62880188
-0.1784445 0.14076057 0.62914181
-0.17632312 0.1408367 0.62948209
-0.17419943 0.14091291 0.62982273
-0.17207345 0.14098921 0.63016379
-0.16994517 0.1410656 0.63050514
-0.16781457 0.14114206 0.63084692
-0.16568168 0.1412186 0.63118905
-0.16354644 0.14129522 0.63153154
-0.16140892 0.14137195 0.63187444
-0.15926905 0.14144874 0.63221765
-0.15712686 0.14152561 0.63256127
-0.15498234 0.14160258 0.63290524
-0.1528355 0.14167963 0.63324964
-0.15068631 0.14175674 0.63359433
-0.14853479 0.14183398 0.6339395
-0.14638092 0.14191127 0.63428497
-0.14422469 0.14198864 0.6346308
-0.14206612 0.14206612 0.6349771
-0.13990518 0.14214367 0.6353237
-0.13774189 0.1422213 0.63567072
-0.13557623 0.14229903 0.6360181
-0.1334082 0.14237683 0.63636583
-0.13123782 0.14245471 0.63671398
-0.12906505 0.14253271 0.63706255
-0.12688988 0.14261076 0.63741142
-0.12471236 0.1426889 0.6377607
-0.12253243 0.14276715 0.6381104
-0.12035011 0.14284545 0.6384604
-0.1181654 0.14292386 0.63881087
-0.19823901 0.14286499 0.62864774
-0.19584142 0.14273188 0.62806201
-0.19344829 0.14259902 0.62747741
-0.19122182 0.14258738 0.62742615
-0.18911313 0.14266428 0.62776458
-0.18700214 0.14274128 0.62810338
-0.18488885 0.14281833 0.62844247
-0.18277332 0.1428955 0.62878203
-0.18065548 0.14297274 0.6291219
-0.17853534 0.14305006 0.62946212
-0.17641294 0.14312747 0.62980276
-0.17428823 0.14320499 0.63014382
-0.17216119 0.14328255 0.63048512
-0.17003189 0.14336021 0.63082689
-0.16790026 0.14343797 0.63116902
-0.1657663 0.14351578 0.63151145
-0.16363005 0.14359371 0.63185436
-0.16149145 0.14367171 0.63219756
-0.15935054 0.14374979 0.63254112
-0.15720731 0.14382796 0.6328851
-0.15506175 0.14390622 0.63322949
-0.15291382 0.14398454 0.63357413
-0.15076359 0.14406298 0.63391924
-0.14861099 0.14414148 0.63426471
-0.14645605 0.14422008 0.63461053
-0.14429876 0.14429876 0.63495678
-0.14213912 0.14437753 0.63530338
-0.13997713 0.1444564 0.6356504
-0.13781276 0.14453533 0.63599777
-0.13564602 0.14461435 0.63634545
-0.13347693 0.14469346 0.6366936
-0.13130544 0.14477266 0.63704211
-0.12913159 0.14485195 0.63739097
-0.12695535 0.14493133 0.63774025
-0.12477673 0.14501078 0.6380899
-0.12259571 0.14509033 0.63843989
-0.1204123 0.14516997 0.63879037
-0.11822649 0.14524969 0.63914114
-0.19953619 0.14602928 0.6327613
-0.19712166 0.14589231 0.63216776
-0.19471166 0.14575559 0.63157535
-0.19230619 0.14561914 0.63098413
-0.18990526 0.14548297 0.6303941
-0.18750879 0.14534706 0.62980515
-0.1851168 0.14521138 0.62921727
-0.18286633 0.14518479 0.62910199
-0.18074746 0.1452633 0.62944221
-0.17862631 0.14534192 0.62978286
-0.17650287 0.14542061 0.63012385
-0.17437711 0.14549938 0.63046515
-0.17224905 0.14557824 0.63080686
-0.1701187 0.1456572 0.63114899
-0.16798602 0.14573622 0.63149142
-0.16585103 0.14581534 0.63183427
-0.16371371 0.14589453 0.63217741
-0.16157408 0.14597383 0.63252103
-0.15943211 0.14605319 0.63286495
-0.15728782 0.14613265 0.63320923
-0.1551412 0.14621222 0.63355398
-0.15299223 0.14629185 0.63389903
-0.15084092 0.14637156 0.63424444
-0.14868729 0.14645138 0.63459033
-0.14653128 0.14653128 0.63493651
-0.14437291 0.14661126 0.63528305
-0.14221221 0.14669134 0.63563007
-0.14004913 0.14677149 0.63597739
-0.13788368 0.14685173 0.63632506
-0.13571589 0.14693208 0.63667321
-0.1335457 0.14701249 0.63702166
-0.13137314 0.147093 0.63737053
-0.12919819 0.1471736 0.63771975
-0.12702088 0.1472543 0.63806945
-0.12484115 0.14733505 0.63841939
-0.12265906 0.14741594 0.63876981
-0.12047455 0.14749688 0.63912058
-0.20328668 0.14937641 0.63753146
-0.20085044 0.14923523 0.63692898
-0.19841877 0.14909433 0.63632756
-0.19599172 0.14895371 0.63572741
-0.19356921 0.14881332 0.63512826
-0.19115131 0.14867324 0.63453037
-0.18873796 0.14853342 0.63393366
-0.18632914 0.14839387 0.63333803
-0.18392487 0.14825459 0.6327436
-0.18152508 0.14811556 0.63215023
-0.17912981 0.1479768 0.631558
-0.17673901 0.14783828 0.63096684
-0.17446609 0.14779611 0.63078684
-0.172337 0.14787626 0.63112891
-0.17020559 0.14795649 0.63147134
-0.16807188 0.14803682 0.63181418
-0.16593583 0.14811721 0.63215733
-0.16379748 0.14819773 0.63250089
-0.1616568 0.1482783 0.63284481
-0.15951377 0.14835897 0.63318908
-0.15736844 0.14843974 0.63353378
-0.15522075 0.14852057 0.63387883
-0.15307072 0.1486015 0.63422424
-0.15091836 0.14868253 0.63457006
-0.14876364 0.14876364 0.63491625
-0.14660658 0.14884484 0.63526279
-0.14444716 0.14892614 0.63560975
-0.14228538 0.14900751 0.63595706
-0.14012122 0.14908898 0.63630474
-0.13795471 0.14917053 0.63665283
-0.13578582 0.14925218 0.63700128
-0.13361456 0.14933391 0.63735008
-0.13144091 0.14941573 0.63769931
-0.12926489 0.14949766 0.63804895
-0.12708646 0.14957964 0.63839889
-0.12490567 0.14966175 0.6387493
-0.12272248 0.14974394 0.63910007
-0.12053686 0.1498262 0.63945115
-0.2046358 0.15262891 0.64176244
-0.2021821 0.1524837 0.64115191
-0.19973308 0.15233879 0.64054257
-0.19728871 0.15219414 0.63993436
-0.19484897 0.15204978 0.63932735
-0.19241385 0.15190567 0.63872141
-0.18998337 0.15176186 0.63811672
-0.18755746 0.1516183 0.6375131
-0.18513618 0.15147506 0.6369108
-0.18271945 0.15133207 0.63630956
-0.18030733 0.15118937 0.63570958
-0.1778997 0.15104692 0.63511062
-0.17549664 0.15090476 0.63451284
-0.17309807 0.15076284 0.63391614
-0.17070402 0.15062121 0.63332057
-0.16831449 0.15047984 0.63272619
-0.16602072 0.15042147 0.63248074
-0.16388133 0.15050326 0.63282466
-0.16173959 0.15058513 0.63316894
-0.15959552 0.1506671 0.63351357
-0.15744913 0.15074916 0.63385862
-0.15530038 0.1508313 0.63420397
-0.15314931 0.15091354 0.6345498
-0.15099588 0.15099588 0.63489598
-0.14884008 0.15107828 0.63524246
-0.14668195 0.15116079 0.63558942
-0.14452146 0.15124339 0.63593668
-0.1423586 0.15132608 0.63628435
-0.14019339 0.15140885 0.63663244
-0.13802579 0.15149173 0.63698089
-0.13585581 0.15157467 0.63732964
-0.13368347 0.15165772 0.63767886
-0.13150875 0.15174086 0.63802844
-0.12933163 0.15182409 0.63837838
-0.12715213 0.15190741 0.63872874
-0.12497024 0.15199083 0.63907951
-0.12278594 0.15207434 0.63943058
-0.12059925 0.15215793 0.63978213
-0.20600292 0.15592487 0.64604992
-0.20353156 0.15577556 0.64543128
-0.2010649 0.15562651 0.64481372
-0.19860297 0.15547776 0.6441974
-0.19614574 0.15532929 0.64358222
-0.19369319 0.1551811 0.64296824
-0.19124533 0.1550332 0.64235544
-0.18880212 0.15488558 0.64174378
-0.18636359 0.15473825 0.64113337
-0.18392967 0.15459119 0.64052403
-0.18150042 0.15444446 0.63991606
-0.17907578 0.15429799 0.63930923
-0.17665571 0.1541518 0.63870347
-0.17424023 0.15400589 0.6380989
-0.17182931 0.15386024 0.63749546
-0.16942297 0.15371488 0.63689321
-0.16702116 0.15356979 0.63629204
-0.16462387 0.15342498 0.635692
-0.1622311 0.15328042 0.63509309
-0.15984286 0.15313616 0.63449538
-0.15752989 0.15306096 0.63418376
-0.1553801 0.1531444 0.63452953
-0.15322794 0.15322794 0.63487566
-0.15107344 0.15331157 0.63522214
-0.14891662 0.15339531 0.6355691
-0.14675741 0.15347911 0.63591635
-0.14459583 0.15356302 0.63626397
-0.14243191 0.15364704 0.63661206
-0.14026561 0.15373111 0.63696045
-0.13809693 0.15381528 0.63730919
-0.13592589 0.15389957 0.63765842
-0.13375247 0.15398392 0.63800794
-0.13157664 0.15406838 0.63835788
-0.12939845 0.15415294 0.63870823
-0.12721786 0.15423757 0.63905889
-0.12503487 0.15432233 0.63941002
-0.12284949 0.15440716 0.63976151
-0.12066169 0.15449207 0.64011335
-0.2024146 0.15895836 0.64914221
-0.19993487 0.15880542 0.64851761
-0.19745991 0.15865277 0.6478942
-0.19498968 0.15850039 0.64727193
-0.19252421 0.15834831 0.64665091
-0.19006346 0.15819652 0.64603108
-0.18760742 0.15804504 0.64541245
-0.18515608 0.15789384 0.64479494
-0.18270941 0.15774292 0.64417863
-0.18026747 0.15759231 0.64356363
-0.17783017 0.157442 0.64294982
-0.17539753 0.15729198 0.64233714
-0.17296953 0.15714225 0.64172572
-0.17054614 0.15699281 0.64111543
-0.16812736 0.15684365 0.64050627
-0.16571316 0.15669475 0.63989824
-0.16330354 0.15654616 0.63929141
-0.16089851 0.15639785 0.63868576
-0.158498 0.15624981 0.63808119
-0.15610205 0.15610205 0.63747782
-0.15371062 0.15595457 0.63687551
-0.15132372 0.15580738 0.63627446
-0.14899319 0.15571471 0.63589597
-0.14683294 0.15579984 0.63624364
-0.14467029 0.15588504 0.63659161
-0.14250529 0.15597035 0.63694
-0.14033793 0.15605576 0.63728881
-0.13816817 0.15614127 0.63763797
-0.13599603 0.15622684 0.63798743
-0.13382152 0.15631254 0.63833737
-0.13164464 0.15639833 0.63868773
-0.12946534 0.1564842 0.63903838
-0.12728366 0.15657017 0.63938946
-0.12509958 0.15665624 0.63974094
-0.12291308 0.15674238 0.64009273
-0.19382028 0.16170804 0.6510042
-0.19134173 0.161552 0.65037596
-0.18886796 0.16139625 0.64974898
-0.18639895 0.16124082 0.64912319
-0.18393469 0.16108567 0.64849859
-0.18147518 0.16093081 0.64787519
-0.17902038 0.16077626 0.64725298
-0.17657034 0.16062206 0.64663219
-0.17412499 0.16046812 0.64601249
-0.17168432 0.1603145 0.64539403
-0.16924831 0.16016115 0.6447767
-0.16681696 0.1600081 0.64416057
-0.16439027 0.15985535 0.64354563
-0.16196819 0.1597029 0.64293188
-0.15955073 0.15955073 0.64231926
-0.15713787 0.15939885 0.64170784
-0.1547296 0.15924726 0.64109755
-0.15232591 0.15909596 0.64048845
-0.1499268 0.15894493 0.63988048
-0.14753222 0.15879422 0.6392737
-0.14514217 0.15864377 0.638668
-0.14275666 0.15849361 0.63806349
-0.1404103 0.15838283 0.63761753
-0.13823947 0.15846963 0.63796699
-0.13606626 0.15855655 0.63831687
-0.13389067 0.15864357 0.63866723
-0.13171268 0.15873066 0.63901782
-0.12953231 0.15881786 0.63936889
-0.12734953 0.15890516 0.63972032
-0.12516434 0.15899254 0.64007211
-0.12297677 0.15908004 0.64042437
-0.18517651 0.16447355 0.65287685
-0.18269922 0.16431439 0.6522451
-0.18022668 0.16415551 0.65161443
-0.17775893 0.16399695 0.650985
-0.17529598 0.16383873 0.65035695
-0.17283778 0.16368081 0.64973009
-0.17038432 0.1635232 0.64910448
-0.16793555 0.16336589 0.64848
-0.16549154 0.16320889 0.64785683
-0.16305219 0.16305219 0.6472348
-0.16061755 0.1628958 0.64661402
-0.15818754 0.16273969 0.64599437
-0.15576221 0.16258392 0.64537597
-0.15334149 0.16242839 0.64475864
-0.15092541 0.1622732 0.64414257
-0.14851394 0.16211827 0.64352763
-0.14610708 0.16196366 0.64291388
-0.14370482 0.16180936 0.64230138
-0.1413071 0.16165532 0.64168996
-0.13891396 0.1615016 0.64107972
-0.13652536 0.16134815 0.64047062
-0.13414128 0.161195 0.63986266
-0.1317808 0.16106541 0.63934833
-0.12959933 0.16115396 0.63969976
-0.12741546 0.16124257 0.64005154
-0.12522918 0.16133128 0.64040369
-0.12304051 0.16142012 0.64075631
-0.17648289 0.16725501 0.65476042
-0.17400686 0.16709268 0.65412492
-0.17153567 0.16693068 0.65349072
-0.16906929 0.16676903 0.6528579
-0.16660766 0.16660766 0.65222621
-0.1641508 0.16644663 0.65159577
-0.1616987 0.16628589 0.65096653
-0.15925132 0.16612548 0.65033853
-0.15680866 0.16596538 0.64971179
-0.1543707 0.16580556 0.64908618
-0.15193743 0.16564606 0.64846176
-0.14950883 0.16548687 0.64783859
-0.14708491 0.165328 0.64721662
-0.14466563 0.16516942 0.64659584
-0.14225098 0.16501115 0.64597625
-0.13984098 0.16485319 0.64535785
-0.13743556 0.1646955 0.64474058
-0.13503475 0.16453815 0.64412457
-0.13263853 0.16438109 0.64350969
-0.13024686 0.1642243 0.64289594
-0.12785977 0.16406783 0.64228344
-0.12547721 0.16391167 0.64167207
-0.18900974 0.1864727 0.72006083
-0.17021853 0.17021853 0.65729564
-0.16773909 0.17005274 0.65665543
-0.16526446 0.16988724 0.65601641
-0.16279468 0.16972211 0.65537876
-0.16032967 0.16955727 0.65474224
-0.15786944 0.16939276 0.65410697
-0.155414 0.16922857 0.65347296
-0.15296331 0.16906472 0.6528402
-0.15051736 0.16890115 0.65220863
-0.14807612 0.1687379 0.65157825
-0.14563961 0.16857497 0.65094912
-0.1432078 0.16841239 0.65032125
-0.14078067 0.16825007 0.6496945
-0.13835822 0.16808809 0.64906901
-0.13594043 0.16792642 0.64844471
-0.13352728 0.16776504 0.64782155
-0.13111877 0.167604 0.64719969
-0.12871489 0.16744326 0.64657903
-0.12631561 0.16728283 0.6459595
-0.17760417 0.17760417 0.67660958
-0.17138381 0.17371556 0.66179538
-0.1688862 0.17354512 0.66114604
-0.16639356 0.17337511 0.66049838
-0.1639058 0.17320542 0.65985191
-0.16142289 0.17303605 0.65920669
-0.15894485 0.17286702 0.65856272
-0.15647165 0.17269835 0.65792012
-0.15400326 0.17252997 0.65727866
-0.15153967 0.17236191 0.65663844
-0.14908087 0.1721942 0.65599948
-0.14662689 0.17202681 0.65536183
-0.14417765 0.17185976 0.65472537
-0.14173315 0.17169301 0.65409017
-0.1392934 0.1715266 0.65345615
-0.13685839 0.17136051 0.65282345
-0.13442808 0.17119473 0.65219188
-0.13200246 0.17102928 0.65156156
-0.12958153 0.17086414 0.65093243
-0.17508617 0.17743632 0.66701692
-0.17256519 0.17726083 0.66635722
-0.17004921 0.17708573 0.66569895
-0.16753818 0.17691095 0.66504192
-0.16503219 0.17673659 0.66438651
-0.16253115 0.17656261 0.66373247
-0.16003501 0.17638896 0.66307968
-0.15754379 0.17621565 0.66242814
-0.15505745 0.17604266 0.66177785
-0.15257598 0.17587003 0.66112894
-0.15009938 0.17569773 0.66048121
-0.14762764 0.17552577 0.6598348
-0.1451607 0.17535414 0.65918958
-0.14269863 0.17518286 0.65854573
-0.14024132 0.1750119 0.65790308
-0.13778883 0.17484128 0.65726167
-0.13534109 0.17467098 0.65662146
-0.13289814 0.17450103 0.65598261
-0.13045993 0.17433141 0.65534496
-0.19488734 0.19746864 0.73261863
-0.17630266 0.18103562 0.6716513
-0.17376296 0.18085533 0.67098242
-0.17122833 0.1806754 0.67031491
-0.16869874 0.18049586 0.66964877
-0.16617419 0.18031667 0.668984
-0.1636547 0.18013792 0.66832078
-0.16114022 0.17995952 0.66765893
-0.1586307 0.17978147 0.66699833
-0.15612616 0.17960377 0.6663391
-0.15362656 0.17942645 0.66568118
-0.15113188 0.17924945 0.66502452
-0.14864214 0.17907281 0.66436917
-0.14615728 0.17889652 0.66371512
-0.14367732 0.17872058 0.66306239
-0.14120223 0.17854497 0.66241086
-0.13873199 0.1783697 0.66176063
-0.1362666 0.17819479 0.66111171
-0.13380605 0.17802022 0.66046405
-0.18291539 0.18776083 0.68761379
-0.17753616 0.18468526 0.67635047
-0.17497748 0.18450005 0.67567223
-0.17242394 0.18431525 0.67499542
-0.16987549 0.18413077 0.67431986
-0.16733216 0.1839467 0.67364573
-0.16479391 0.183763 0.67297298
-0.16226083 0.18357976 0.67230195
-0.15973274 0.18339686 0.67163211
-0.15720972 0.18321434 0.6709637
-0.1546917 0.18303217 0.67029655
-0.1521787 0.18285038 0.66963083
-0.14967068 0.18266894 0.66896635
-0.14716762 0.18248786 0.66830319
-0.14466955 0.18230715 0.6676414
-0.1421764 0.18212679 0.66698092
-0.13968816 0.18194677 0.66632164
-0.13720486 0.18176712 0.66566372
-0.13472645 0.18158783 0.66500711
-0.18137021 0.18857697 0.68180513
-0.17878704 0.18838635 0.68111593
-0.17620911 0.18819612 0.68042815
-0.17363635 0.18800625 0.67974168
-0.1710688 0.1878168 0.6790567
-0.1685064 0.18762769 0.67837298
-0.16594918 0.18743899 0.67769074
-0.16339709 0.18725067 0.67700988
-0.1608502 0.18706283 0.67633069
-0.15830843 0.18687536 0.67565292
-0.15577173 0.18668826 0.67497647
-0.15324011 0.18650153 0.67430133
-0.15071356 0.18631519 0.67362761
-0.14819205 0.18612921 0.67295521
-0.14567557 0.1859436 0.67228413
-0.1431641 0.18575837 0.67161441
-0.1406576 0.18557349 0.67094594
-0.13815615 0.18538901 0.67027897
-0.18265848 0.19233575 0.68664801
-0.18005568 0.19213995 0.68594897
-0.17745818 0.19194455 0.68525141
-0.17486595 0.19174956 0.68455523
-0.17227897 0.19155495 0.68386048
-0.16969724 0.19136073 0.6831671
-0.16712075 0.19116691 0.68247515
-0.16454947 0.19097346 0.68178457
-0.16198342 0.19078046 0.68109554
-0.15942259 0.19058791 0.68040812
-0.15686694 0.19039574 0.67972207
-0.15431644 0.19020398 0.67903745
-0.15177108 0.1900126 0.67835426
-0.14923082 0.18982162 0.67767239
-0.14669567 0.189631 0.67699188
-0.14416561 0.18944074 0.67631269
-0.14164062 0.18925092 0.67563498
-0.13912068 0.18906143 0.67495853
-0.18840224 0.19825333 0.69898182
-0.18396521 0.19614832 0.69156021
-0.18134245 0.19594721 0.69085115
