# .PCD v0.7 - Point Cloud Data file format
VERSION 0.7
FIELDS x y z
SIZE 4 4 4
TYPE F F F
COUNT 1 1 1
WIDTH 1421
HEIGHT 1
VIEWPOINT 0 0 0 1 0 0 0
POINTS 1421
DATA ascii
-0.22060418 0.13771048 0.75892884
-0.21885489 0.1382948 0.76214904
-0.2170907 0.13888411 0.76539671
-0.21531138 0.13947845 0.76867211
-0.2135168 0.1400779 0.77197576
-0.21170671 0.14068253 0.77530789
-0.20988092 0.14129238 0.77866882
-0.20803908 0.14190745 0.78205848
-0.20618102 0.14252782 0.78547734
-0.20430662 0.14315362 0.78892618
-0.30717209 0.14084309 0.76140815
-0.3040145 0.14062345 0.76022077
-0.30086675 0.14040448 0.75903696
-0.29772881 0.14018621 0.75785697
-0.29460058 0.13996859 0.75668055
-0.29148206 0.13975167 0.75550783
-0.28837317 0.1395354 0.75433868
-0.28527391 0.13931981 0.75317317
-0.28218415 0.13910486 0.75201112
-0.2791039 0.13889056 0.75085264
-0.27603313 0.13867693 0.74969769
-0.27297178 0.13846394 0.7485463
-0.26991981 0.13825162 0.74739844
-0.2668772 0.13803993 0.74625403
-0.26384389 0.1378289 0.74511319
-0.26081985 0.13761851 0.74397582
-0.25780502 0.13740878 0.74284196
-0.25479937 0.13719967 0.7417115
-0.25180286 0.13699119 0.74058449
-0.24881543 0.13678335 0.73946089
-0.24583705 0.13657615 0.73834068
-0.24286768 0.13636956 0.73722386
-0.23990729 0.13616359 0.73611045
-0.23695584 0.13595827 0.73500043
-0.23413698 0.13582532 0.73428172
-0.23250003 0.1363827 0.73729491
-0.23084956 0.13694465 0.7403329
-0.22918545 0.13751127 0.74339604
-0.22750752 0.13808259 0.7464847
-0.22581568 0.13865876 0.74959946
-0.22410984 0.13923985 0.75274086
-0.22238961 0.13982581 0.75590861
-0.22065486 0.14041673 0.75910318
-0.21890539 0.14101268 0.76232493
-0.217141 0.14161371 0.7655741
-0.21536149 0.14221984 0.76885098
-0.21356671 0.14283124 0.77215618
-0.21175641 0.14344789 0.77548987
-0.20993046 0.14406992 0.77885264
-0.20808828 0.14469714 0.78224343
-0.20623 0.14532986 0.78566396
-0.20435539 0.14596812 0.78911448
-0.20246422 0.14661202 0.79259539
-0.30888742 0.14307773 0.759031
-0.30573702 0.14285529 0.75785094
-0.30259639 0.14263354 0.75667459
-0.29946551 0.14241248 0.75550187
-0.29634431 0.14219211 0.75433278
-0.29323268 0.14197238 0.75316709
-0.29013065 0.14175333 0.75200504
-0.28703818 0.14153495 0.75084656
-0.28395525 0.14131726 0.74969167
-0.28088173 0.14110021 0.74854022
-0.27781767 0.14088385 0.74739242
-0.27476299 0.14066814 0.74624807
-0.27171767 0.14045309 0.74510723
-0.26868162 0.1402387 0.74396992
-0.26565483 0.14002496 0.742836
-0.26263726 0.13981187 0.7417056
-0.25962883 0.13959943 0.74057853
-0.25662959 0.13938764 0.73945498
-0.2536394 0.13917649 0.73833483
-0.25065824 0.13896596 0.73721802
-0.24768612 0.1387561 0.73610467
-0.24472295 0.13854685 0.73499459
-0.2417687 0.13833824 0.73388791
-0.23882332 0.13813025 0.73278451
-0.23588678 0.13792288 0.73168439
-0.23418905 0.13844325 0.73444498
-0.23255195 0.1390115 0.73745954
-0.2309013 0.13958441 0.74049884
-0.22923705 0.14016208 0.74356341
-0.2275589 0.14074452 0.74665326
-0.22586693 0.14133194 0.74976957
-0.22416091 0.14192437 0.7529124
-0.2224405 0.14252175 0.75608158
-0.22070557 0.14312422 0.75927764
-0.2189559 0.14373179 0.76250082
-0.21719134 0.14434455 0.76575154
-0.21541162 0.14496253 0.76902997
-0.21361662 0.14558585 0.77233666
-0.21180613 0.14621456 0.77567196
-0.20997992 0.14684869 0.7790361
-0.20813753 0.14748818 0.78242856
-0.20627899 0.14813325 0.78585064
-0.20440416 0.14878398 0.78930283
-0.20251277 0.14944047 0.79278547
-0.31059209 0.14529845 0.75666863
-0.30744883 0.14507325 0.75549591
-0.30431521 0.14484873 0.75432664
-0.3011913 0.1446249 0.75316101
-0.29807702 0.14440176 0.75199896
-0.2949723 0.14417928 0.75084043
-0.29187718 0.14395753 0.74968553
-0.28879157 0.14373644 0.7485342
-0.2857154 0.14351603 0.7473864
-0.28264868 0.1432963 0.74624211
-0.27959129 0.14307724 0.74510127
-0.27654326 0.14285885 0.74396396
-0.2735045 0.1426411 0.74283004
-0.270475 0.14242405 0.74169964
-0.26745471 0.14220762 0.74057263
-0.26444361 0.1419919 0.73944914
-0.26144162 0.1417768 0.73832899
-0.25844869 0.14156234 0.73721218
-0.25546482 0.14134856 0.73609883
-0.25248992 0.14113539 0.73498881
-0.249524 0.14092287 0.73388207
-0.24656701 0.14071101 0.73277873
-0.24361888 0.14049977 0.73167866
-0.24067959 0.14028917 0.73058194
-0.23774911 0.14007922 0.72948849
-0.23586507 0.14048794 0.73161703
-0.23424114 0.14106235 0.73460835
-0.23260388 0.14164147 0.73762423
-0.23095308 0.14222534 0.7406649
-0.22928867 0.14281408 0.74373084
-0.22761001 0.14340746 0.74682099
-0.2259182 0.14400634 0.74993974
-0.22421201 0.14461011 0.753084
-0.22249143 0.14521895 0.75625467
-0.22075631 0.14583296 0.75945216
-0.21900645 0.14645216 0.76267684
-0.21724167 0.14707667 0.76592904
-0.21546178 0.14770649 0.76920903
-0.21366657 0.14834176 0.77251726
-0.21185586 0.14898251 0.77585405
-0.21002938 0.14962877 0.77921963
-0.20818679 0.15028054 0.78261375
-0.20632803 0.15093796 0.78603745
-0.20445295 0.15160117 0.78949124
-0.20256135 0.15227026 0.7929756
-0.20065293 0.15294524 0.79649073
-0.31271434 0.14770763 0.75535518
-0.3093127 0.14735498 0.75355178
-0.30602327 0.14705014 0.75199288
-0.30290636 0.1468236 0.75083441
-0.29979903 0.14659777 0.74967951
-0.29670128 0.14637263 0.74852818
-0.29361302 0.14614818 0.74738038
-0.2905342 0.14592442 0.74623609
-0.2874648 0.14570133 0.74509525
-0.28440475 0.14547893 0.74395794
-0.28135407 0.14525722 0.74282414
-0.27831265 0.14503618 0.74169374
-0.27528048 0.1448158 0.74056679
-0.27225751 0.1445961 0.73944324
-0.26924369 0.14437705 0.73832309
-0.26623902 0.14415869 0.7372064
-0.26324335 0.14394096 0.73609293
-0.2602568 0.14372391 0.73498297
-0.25727919 0.1435075 0.73387629
-0.25431055 0.14329174 0.73277295
-0.25135082 0.14307663 0.73167288
-0.24839999 0.14286217 0.73057622
-0.24545798 0.14264835 0.72948277
-0.24252473 0.14243516 0.72839254
-0.23960026 0.14222261 0.72730559
-0.23752822 0.14251694 0.72881073
-0.23591731 0.14309739 0.7317791
-0.23429325 0.1436826 0.73477179
-0.23265582 0.14427261 0.73778898
-0.23100491 0.14486748 0.74083108
-0.22934031 0.14546728 0.74389839
-0.22766158 0.14607188 0.7469902
-0.22596949 0.14668195 0.75011003
-0.22426313 0.14729708 0.75325572
-0.22254238 0.14791739 0.75642782
-0.22080706 0.14854294 0.75962681
-0.21905702 0.1491738 0.76285297
-0.21729206 0.14981005 0.76610667
-0.21551195 0.15045173 0.76938814
-0.21371654 0.15109895 0.77269793
-0.21190564 0.15175179 0.77603638
-0.2100789 0.15241018 0.77940333
-0.20823605 0.15307419 0.78279895
-0.20637709 0.153744 0.78622431
-0.20450178 0.15441971 0.78967977
-0.20260991 0.15510139 0.79316574
-0.20070128 0.15578911 0.79668266
-0.3125141 0.15027274 0.75487149
-0.30911508 0.14991419 0.75307035
-0.30573228 0.14955735 0.75127786
-0.30236554 0.14920221 0.74949384
-0.29901475 0.14884874 0.74771827
-0.29567981 0.14849697 0.74595118
-0.29236054 0.14814682 0.7441923
-0.28920349 0.14787328 0.74281818
-0.28615016 0.14764826 0.74168783
-0.28310612 0.14742392 0.74056089
-0.28007132 0.14720027 0.7394374
-0.27704564 0.14697726 0.73831719
-0.2740292 0.14675497 0.7372005
-0.27102181 0.14653333 0.73608714
-0.26802355 0.14631237 0.73497719
-0.26503426 0.14609206 0.73387051
-0.262054 0.14587241 0.73276716
-0.25908267 0.14565344 0.73166716
-0.25612023 0.14543511 0.73057044
-0.25316668 0.14521743 0.72947699
-0.25022197 0.14500041 0.72838682
-0.24728604 0.14478405 0.72729993
-0.24435885 0.14456832 0.72621626
-0.24144037 0.14435324 0.7251358
-0.23917869 0.14453045 0.72602594
-0.23758066 0.14511684 0.7289716
-0.2359696 0.14570801 0.73194128
-0.23434538 0.14630401 0.73493522
-0.2327078 0.14690492 0.73795378
-0.23105672 0.14751078 0.74099725
-0.22939199 0.14812168 0.744066
-0.2277132 0.14873752 0.74715954
-0.22602081 0.14935878 0.75028038
-0.22431424 0.14998527 0.75342739
-0.22259332 0.15061705 0.75660104
-0.22085784 0.15125416 0.75980151
-0.21910761 0.15189669 0.76302916
-0.21734244 0.15254469 0.76628429
-0.21556215 0.15319826 0.76956737
-0.21376653 0.15385744 0.77287865
-0.21195555 0.15452243 0.77621913
-0.21012843 0.1551929 0.77958709
-0.20828536 0.15586917 0.78298432
-0.20642614 0.15655138 0.78641123
-0.20455062 0.1572396 0.78986841
-0.20265853 0.15793389 0.79335606
-0.20074964 0.15863432 0.79687458
-0.19882375 0.15934102 0.80042458
-0.31231409 0.15283455 0.75438833
-0.30891776 0.15247013 0.75258958
-0.30553755 0.15210743 0.7507993
-0.30217341 0.15174647 0.7490176
-0.2988252 0.15138721 0.7472443
-0.29549277 0.15102965 0.74547935
-0.2921761 0.15067378 0.7437228
-0.28887498 0.15031956 0.74197441
-0.2855894 0.14996703 0.74023432
-0.28231916 0.14961614 0.73850232
-0.27906418 0.14926688 0.73677838
-0.27582437 0.14891925 0.73506254
-0.27278921 0.14867659 0.73386472
-0.2697973 0.14845306 0.73276138
-0.26681438 0.14823021 0.73166138
-0.26384038 0.14800802 0.73056465
-0.26087531 0.1477865 0.72947127
-0.2579191 0.14756565 0.72838116
-0.25497171 0.14734545 0.72729427
-0.25203308 0.14712591 0.72621059
-0.24910317 0.146907 0.72513008
-0.24618201 0.14668876 0.72405285
-0.24326952 0.14647117 0.72297883
-0.24081658 0.1465286 0.72326231
-0.23923127 0.14712083 0.72618556
-0.23763311 0.14771788 0.72913253
-0.23602192 0.14831978 0.73210353
-0.23439755 0.14892662 0.73509884
-0.2327598 0.14953843 0.73811871
-0.23110858 0.15015529 0.74116355
-0.22944367 0.15077727 0.74423361
-0.22776479 0.15140434 0.74732882
-0.22607215 0.15203683 0.75045079
-0.2243654 0.15267467 0.75359923
-0.2226443 0.15331793 0.75677431
-0.22090864 0.15396664 0.75997627
-0.21915823 0.15462084 0.76320541
-0.21739285 0.1552806 0.76646203
-0.21561237 0.15594606 0.76974666
-0.21381654 0.15661721 0.77305949
-0.21200532 0.15729426 0.7764014
-0.21017796 0.1579769 0.77977085
-0.20833468 0.15866549 0.78316975
-0.20647526 0.1593601 0.78659832
-0.20459948 0.16006082 0.79005706
-0.20270716 0.16076775 0.79354644
-0.20079802 0.16148093 0.79706669
-0.19887188 0.16220048 0.80061835
-0.1969285 0.16292645 0.80420178
-0.31211433 0.15539309 0.75390583
-0.30872062 0.1550228 0.75210935
-0.30534309 0.15465428 0.75032145
-0.30198151 0.1542875 0.74854195
-0.2986359 0.15392247 0.74677098
-0.29530603 0.15355913 0.74500823
-0.29199186 0.15319753 0.74325383
-0.28869328 0.15283762 0.74150771
-0.28541017 0.1524794 0.73976976
-0.2821424 0.15212286 0.73803997
-0.27888986 0.15176797 0.73631817
-0.27565247 0.15141474 0.73460442
-0.27243015 0.15106316 0.73289871
-0.26922268 0.15071318 0.73120075
-0.2660301 0.15036485 0.72951078
-0.26285225 0.15001811 0.72782856
-0.25970715 0.14968345 0.72620487
-0.2567659 0.14946075 0.72512448
-0.25383338 0.14923872 0.72404724
-0.25090954 0.14901735 0.72297323
-0.24799439 0.14879663 0.72190243
-0.24508785 0.14857657 0.72083479
-0.24244204 0.14851162 0.72051966
-0.24086931 0.14910957 0.72342068
-0.2392839 0.14971238 0.7263453
-0.23768559 0.15032008 0.72929358
-0.23607424 0.15093271 0.73226583
-0.23444971 0.15155037 0.73526245
-0.23281185 0.1521731 0.73828375
-0.23116043 0.15280096 0.74132985
-0.22949538 0.15343405 0.74440134
-0.22781637 0.15407234 0.7474981
-0.22612353 0.15471609 0.75062132
-0.2244166 0.15536533 0.75377119
-0.22269532 0.15602008 0.7569477
-0.22095947 0.15668035 0.76015109
-0.21920885 0.15734623 0.76338172
-0.2174433 0.1580178 0.76663989
-0.21566261 0.15869513 0.76992601
-0.21386659 0.15937829 0.77324045
-0.2120551 0.16006739 0.77658373
-0.21022753 0.16076224 0.77995479
-0.20838404 0.16146313 0.78335524
-0.20652439 0.16217016 0.78678548
-0.20464839 0.1628834 0.79024589
-0.20275581 0.16360296 0.79373688
-0.20084643 0.1643289 0.79725885
-0.19892004 0.16506131 0.80081224
-0.19697644 0.1658003 0.80439752
-0.31191483 0.15794836 0.75342393
-0.3085238 0.15757224 0.75162983
-0.30514887 0.15719789 0.74984419
-0.30178991 0.15682532 0.74806696
-0.2984468 0.1564545 0.74629813
-0.29511952 0.15608545 0.74453771
-0.29180789 0.1557181 0.74278551
-0.28851178 0.1553525 0.74104154
-0.28523114 0.15498862 0.73930579
-0.28196582 0.15462643 0.73757809
-0.27871576 0.15426594 0.73585856
-0.27548081 0.15390712 0.73414695
-0.27226084 0.15354995 0.73244327
-0.26905581 0.15319446 0.73074752
-0.26586556 0.1528406 0.72905958
-0.26269004 0.15248837 0.72737944
-0.25952911 0.15213776 0.72570699
-0.25638267 0.15178874 0.72404218
-0.25325066 0.15144135 0.72238511
-0.25013292 0.15109552 0.72073549
-0.24702939 0.15075128 0.71909338
-0.24405524 0.15047966 0.71779776
-0.24249494 0.15108323 0.72067684
-0.24092209 0.15169169 0.72357923
-0.23933652 0.15230507 0.72650504
-0.23773806 0.15292341 0.72945458
-0.23612659 0.1535468 0.73242819
-0.23450191 0.1541753 0.73542619
-0.23286389 0.15480895 0.7384488
-0.23121233 0.15544784 0.74149632
-0.2295471 0.15609203 0.74456912
-0.22786798 0.15674156 0.74766743
-0.22617489 0.15739657 0.75079185
-0.22446781 0.15805721 0.7539432
-0.22274634 0.15872344 0.75712115
-0.22101031 0.15939532 0.76032603
-0.21925952 0.16007291 0.76355815
-0.21749376 0.16075626 0.76681781
-0.21571288 0.16144548 0.77010548
-0.21391664 0.16214064 0.77342141
-0.21210492 0.16284184 0.77676618
-0.21027713 0.16354889 0.78013879
-0.20843342 0.1642621 0.7835409
-0.20657355 0.16498156 0.78697276
-0.2046973 0.16570733 0.79043478
-0.20280448 0.16643953 0.79392743
-0.20089488 0.16717826 0.79745114
-0.19896823 0.16792354 0.8010062
-0.31512022 0.16088416 0.75474316
-0.3117156 0.16050038 0.75294274
-0.30832717 0.1601184 0.75115079
-0.30495483 0.15973824 0.74936742
-0.30159852 0.15935992 0.74759257
-0.29825798 0.15898333 0.74582595
-0.29493323 0.15860853 0.74406767
-0.29162413 0.15823552 0.7423178
-0.28833053 0.15786423 0.74057597
-0.28505236 0.15749468 0.73884237
-0.28178954 0.15712689 0.73711693
-0.27854186 0.15676077 0.73539943
-0.27530935 0.15639639 0.73369002
-0.27209178 0.15603366 0.73198843
-0.2688891 0.15567264 0.73029476
-0.26570123 0.15531328 0.72860897
-0.26252803 0.15495558 0.72693086
-0.25936943 0.15459952 0.7252605
-0.25622529 0.15424508 0.72359776
-0.25309557 0.15389228 0.72194266
-0.24998011 0.15354107 0.72029513
-0.24687883 0.15319149 0.71865511
-0.24410821 0.15304194 0.71795356
-0.24254785 0.15365598 0.72083414
-0.24097489 0.15427493 0.72373778
-0.23938918 0.15489888 0.7266649
-0.23779058 0.1555279 0.72961575
-0.23617896 0.15616205 0.73259068
-0.23455414 0.15680139 0.73558998
-0.23291595 0.15744598 0.7386139
-0.23126426 0.15809591 0.74166286
-0.22959886 0.15875122 0.74473703
-0.22791961 0.15941198 0.74783683
-0.2262263 0.16007826 0.7509625
-0.22451904 0.16075031 0.75411528
-0.22279741 0.16142806 0.75729471
-0.2210612 0.16211155 0.76050109
-0.21931018 0.1628008 0.76373458
-0.21754426 0.163496 0.76699585
-0.21576317 0.16419713 0.77028501
-0.21396674 0.16490431 0.77360255
-0.21215475 0.16561757 0.77694863
-0.21032676 0.16633685 0.78032291
-0.20848282 0.16706239 0.78372657
-0.2066227 0.16779427 0.78716004
-0.20474625 0.16853262 0.79062378
-0.20285319 0.16927749 0.79411811
-0.20094334 0.17002897 0.79764348
-0.19901635 0.17078708 0.80119991
-0.31491858 0.16343877 0.75426024
-0.31151661 0.16304913 0.75246209
-0.30813083 0.16266133 0.75067246
-0.30476111 0.16227539 0.74889135
-0.30140734 0.16189127 0.74711865
-0.29806939 0.16150896 0.74535435
-0.29474717 0.16112846 0.74359834
-0.29144058 0.16074973 0.74185055
-0.28814954 0.16037281 0.74011105
-0.28487381 0.15999763 0.7383796
-0.28161344 0.1596242 0.73665631
-0.2783682 0.15925251 0.73494095
-0.27513808 0.15888254 0.73323357
-0.27192292 0.15851431 0.73153418
-0.26872262 0.15814777 0.7298426
-0.26553711 0.15778291 0.72815883
-0.26236627 0.15741976 0.72648287
-0.25920993 0.15705824 0.72481447
-0.25606811 0.15669839 0.72315383
-0.25294062 0.1563402 0.72150075
-0.24982746 0.15598364 0.71985531
-0.24672848 0.15562874 0.71821743
-0.24416119 0.15560532 0.71810937
-0.24260083 0.15622985 0.72099155
-0.2410277 0.15685929 0.72389638
-0.23944186 0.15749383 0.72682476
-0.23784314 0.15813355 0.72977698
-0.23623137 0.15877846 0.73275322
-0.23460642 0.15942867 0.73575389
-0.23296806 0.1600842 0.73877913
-0.23131621 0.16074517 0.74182945
-0.22965066 0.16141161 0.74490505
-0.22797111 0.16208351 0.74800581
-0.22627772 0.16276117 0.7511332
-0.22457029 0.16344465 0.75428742
-0.22284849 0.16413392 0.75746834
-0.22111209 0.16482902 0.76067615
-0.2193609 0.16553 0.76391119
-0.21759477 0.166237 0.76717395
-0.21581349 0.16695006 0.77046466
-0.21401708 0.16766943 0.77378452
-0.21220461 0.16839463 0.77713126
-0.21037638 0.16912611 0.78050703
-0.20853224 0.16986401 0.78391242
-0.20667191 0.17060836 0.7873475
-0.2047952 0.17135924 0.79081279
-0.20290193 0.1721168 0.7943089
-0.20099181 0.17288107 0.79783595
-0.19906466 0.17365214 0.8013944
-0.31471717 0.16599008 0.75377786
-0.31131789 0.16559464 0.75198209
-0.3079347 0.16520102 0.75019467
-0.30456761 0.16480932 0.74841589
-0.30121642 0.16441944 0.74664545
-0.29788104 0.16403142 0.74488336
-0.29456139 0.16364522 0.74312961
-0.29125729 0.1632608 0.74138397
-0.2879687 0.16287823 0.73964661
-0.28469548 0.16249743 0.73791736
-0.28143755 0.16211839 0.73619616
-0.27819479 0.16174115 0.73448306
-0.27496704 0.16136564 0.73277783
-0.27175426 0.16099186 0.73108047
-0.26855636 0.16061984 0.72939104
-0.2653732 0.16024952 0.72770935
-0.26220465 0.15988088 0.72603536
-0.25905067 0.15951395 0.72436911
-0.25591111 0.15914871 0.72271049
-0.25278595 0.15878515 0.72105956
-0.24967507 0.15842326 0.7194162
-0.24657832 0.15806302 0.71778029
-0.24421421 0.15816982 0.7182653
-0.2426538 0.15880483 0.72114897
-0.24108052 0.15944479 0.72405505
-0.23949455 0.16008994 0.72698474
-0.2378957 0.16074035 0.72993827
-0.23628379 0.16139603 0.73291582
-0.23465866 0.16205709 0.73591775
-0.23302019 0.16272359 0.73894441
-0.23136818 0.16339561 0.74199611
-0.22970244 0.16407318 0.74507302
-0.22802265 0.16475625 0.74817491
-0.22632918 0.1654453 0.75130397
-0.22462158 0.16614023 0.75445968
-0.22289959 0.16684102 0.75764203
-0.221163 0.16754773 0.76085132
-0.21941163 0.16826046 0.76408786
-0.2176453 0.16897927 0.7673521
-0.21586382 0.16970427 0.77064437
-0.21406716 0.17043564 0.7739656
-0.21225449 0.17117298 0.77731395
-0.21042606 0.17191671 0.78069133
-0.20858167 0.17266695 0.78409821
-0.20672113 0.17342377 0.78753501
-0.20484419 0.17418723 0.79100198
-0.20295066 0.17495747 0.7944997
-0.20104015 0.1757344 0.79802781
-0.199113 0.17651862 0.80158901
-0.3145161 0.16853815 0.7532962
-0.31111941 0.16813688 0.75150263
-0.30773887 0.1677375 0.74971759
-0.30437437 0.16734001 0.74794102
-0.30102575 0.1669444 0.74617279
-0.29769292 0.16655067 0.74441296
-0.29437578 0.16615878 0.74266136
-0.29107425 0.16576874 0.74091804
-0.28778812 0.16538051 0.73918283
-0.28451735 0.16499409 0.73745567
-0.28126189 0.16460951 0.73573673
-0.27802154 0.16422668 0.73402566
-0.27479622 0.16384564 0.73232257
-0.27158585 0.16346636 0.73062736
-0.26839027 0.16308883 0.72893995
-0.26520944 0.16271305 0.72726035
-0.26204327 0.16233899 0.7255885
-0.25889158 0.16196667 0.72392434
-0.25575441 0.16159607 0.72226793
-0.25263152 0.16122715 0.72061902
-0.24952286 0.16085991 0.71897763
-0.24642836 0.16049436 0.71734375
-0.24426724 0.16073544 0.71842128
-0.24270651 0.16138077 0.72130561
-0.24113339 0.16203144 0.72421384
-0.2395473 0.1626872 0.72714484
-0.23794828 0.16334829 0.73009962
-0.23633623 0.16401476 0.73307848
-0.23471096 0.16468669 0.73608178
-0.23307234 0.16536418 0.73910981
-0.23142016 0.16604725 0.74216282
-0.22975428 0.16673596 0.74524117
-0.22807419 0.16743019 0.74834406
-0.22638065 0.16813067 0.75147486
-0.22467288 0.16883703 0.754632
-0.22295071 0.16954935 0.75781578
-0.22121394 0.1702677 0.76102656
-0.21946238 0.17099215 0.76426458
-0.21769588 0.17172283 0.76753038
-0.21591412 0.17245971 0.7708239
-0.21411727 0.17320314 0.7741468
-0.21230438 0.17395262 0.77749664
-0.21047576 0.17470863 0.78087568
-0.20863116 0.17547125 0.78428423
-0.20677036 0.1762405 0.78772253
-0.20489322 0.17701659 0.79119128
-0.20299943 0.17779951 0.79469061
-0.2010887 0.17858927 0.79822052
-0.19916135 0.17938647 0.80178368
-0.3143152 0.17108296 0.75281507
-0.31092119 0.17067589 0.75102383
-0.30754325 0.17027073 0.74924099
-0.30418134 0.1698675 0.74746668
-0.30083531 0.16946618 0.74570078
-0.29750502 0.16906674 0.7439431
-0.29419044 0.16866918 0.74219376
-0.29089138 0.16827349 0.74045259
-0.28760779 0.16787966 0.73871958
-0.28433949 0.16748764 0.73699462
-0.28108644 0.16709748 0.73527777
-0.27784854 0.16670913 0.73356891
-0.2746256 0.16632254 0.73186785
-0.27141762 0.16593778 0.73017478
-0.26822442 0.16555478 0.72848946
-0.26504594 0.16517355 0.72681195
-0.2618821 0.1647941 0.72514224
-0.25873277 0.16441639 0.72348022
-0.25559786 0.16404042 0.72182584
-0.25247726 0.16366616 0.72017896
-0.24937084 0.1632936 0.7185396
-0.24627855 0.16292273 0.71690768
-0.2443203 0.16330217 0.71857733
-0.24275929 0.16395785 0.72146249
-0.24118629 0.16461921 0.72437268
-0.23960006 0.1652856 0.727305
-0.23800091 0.16595739 0.73026109
-0.23638868 0.16663465 0.7332412
-0.23476329 0.16731748 0.73624587
-0.23312452 0.16800594 0.73927528
-0.23147216 0.16870005 0.7423296
-0.22980614 0.16939996 0.74540937
-0.2281258 0.17010535 0.74851334
-0.22643216 0.17081724 0.75164586
-0.22472422 0.17153506 0.75480443
-0.22300185 0.17225891 0.75798965
-0.22126491 0.17298894 0.76120192
-0.21951316 0.17372514 0.76444143
-0.21774645 0.17446765 0.76770872
-0.2159645 0.17521648 0.77100378
-0.21416742 0.17597196 0.77432805
-0.21235432 0.1767336 0.7776795
-0.21052545 0.17750186 0.7810601
-0.20868064 0.17827684 0.78447026
-0.20681964 0.17905861 0.78791028
-0.20494223 0.17984727 0.79138058
-0.20304796 0.18064266 0.79488057
-0.20113733 0.18144557 0.79841357
-0.19920973 0.18225572 0.80197847
-0.31411463 0.17362453 0.75233465
-0.31072322 0.17321166 0.75054562
-0.30734789 0.17280075 0.74876511
-0.30398861 0.1723918 0.74699306
-0.30064511 0.17198476 0.7452293
-0.29731742 0.17157966 0.74347395
-0.2940053 0.17117642 0.7417267
-0.29070878 0.17077512 0.73998779
-0.28742766 0.17037566 0.73825693
-0.28416184 0.16997808 0.73653418
-0.28091124 0.16958235 0.73481941
-0.27767572 0.16918845 0.73311263
-0.27445522 0.16879639 0.73141378
-0.27124959 0.16840614 0.72972274
-0.26805875 0.16801769 0.72803956
-0.26488268 0.16763106 0.72636425
-0.26172116 0.16724621 0.72469664
-0.25857416 0.16686313 0.72303671
-0.25544152 0.16648178 0.72138429
-0.25232315 0.16610219 0.71973944
-0.249219 0.16572431 0.7181021
-0.24612893 0.16534816 0.71647215
-0.2443734 0.16587003 0.71873349
-0.24281226 0.16653615 0.7216199
-0.24123919 0.16720812 0.72453159
-0.23965281 0.16788512 0.72746515
-0.23805352 0.16856763 0.7304225
-0.23644118 0.16925572 0.73340404
-0.23481563 0.16994944 0.73641002
-0.23317671 0.17064889 0.7394408
-0.23152421 0.17135407 0.74249649
-0.22985803 0.17206514 0.74557763
-0.22817738 0.17278172 0.74868262
-0.22648369 0.17350504 0.75181687
-0.22477558 0.17423433 0.75497693
-0.22305302 0.17496975 0.75816357
-0.22131589 0.17571141 0.76137727
-0.21956396 0.17645937 0.76461834
-0.21779706 0.17721374 0.76788712
-0.21601516 0.17797475 0.77118462
-0.21421756 0.17874204 0.77450937
-0.21240427 0.17951587 0.77786243
-0.21057519 0.18029641 0.78124464
-0.20873015 0.18108377 0.78465635
-0.20686892 0.18187805 0.78809804
-0.20499128 0.18267931 0.79157001
-0.20309678 0.18348745 0.79507172
-0.20118599 0.18430324 0.79860669
-0.19925813 0.18512635 0.80217332
-0.31391427 0.17616285 0.75185478
-0.31052551 0.17574422 0.75006807
-0.30715278 0.17532755 0.74828976
-0.30379605 0.17491287 0.74651992
-0.30045518 0.17450017 0.74475849
-0.29712999 0.17408937 0.74300528
-0.29382044 0.17368053 0.74126029
-0.29052636 0.17327358 0.73952347
-0.28724775 0.17286856 0.73779488
-0.28398439 0.1724654 0.73607421
-0.28073624 0.17206414 0.73436165
-0.27750313 0.17166473 0.73265696
-0.27428502 0.17126717 0.73096019
-0.27108181 0.17087148 0.72927141
-0.2678934 0.17047761 0.72759044
-0.26471964 0.17008556 0.72591716
-0.26156044 0.16969532 0.72425163
-0.25841573 0.16930684 0.72259367
-0.25528538 0.16892017 0.72094333
-0.25216925 0.16853523 0.71930045
-0.24906735 0.16815208 0.71766514
-0.2459795 0.16777062 0.71603715
-0.24442649 0.16843899 0.71888965
-0.24286522 0.16911557 0.72177732
-0.24129167 0.16979784 0.72468919
-0.23970559 0.17048579 0.72762537
-0.23810619 0.17117904 0.73058408
-0.23649371 0.17187794 0.73356694
-0.234868 0.17258257 0.73657429
-0.23322891 0.17329299 0.73960632
-0.23157626 0.17400929 0.74266344
-0.22990991 0.17473154 0.74574596
-0.22822899 0.17545928 0.74885195
-0.22653523 0.17619407 0.75198799
-0.22482695 0.17693482 0.75514948
-0.22310424 0.17768182 0.75833762
-0.2213669 0.17843513 0.76155275
-0.21961479 0.1791949 0.76479536
-0.21784766 0.17996112 0.76806557
-0.21606569 0.1807342 0.77136505
-0.21426776 0.18151346 0.77469087
-0.21245424 0.18229945 0.77804548
-0.21062495 0.18309228 0.78142923
-0.20877969 0.18389206 0.78484261
-0.20691824 0.18469884 0.78828591
-0.20503996 0.18551235 0.79175794
-0.20314571 0.18633366 0.79526329
-0.20123467 0.18716231 0.79879993
-0.19930656 0.18799838 0.80236828
-0.30026546 0.17701238 0.74428821
-0.29694283 0.17659596 0.74253726
-0.29363576 0.17618147 0.74079442
-0.29034424 0.17576894 0.73905987
-0.28706807 0.17535833 0.73733336
-0.28380719 0.17494963 0.7356149
-0.28056145 0.17454283 0.73390442
-0.27733076 0.17413792 0.73220187
-0.27411509 0.17373492 0.73050737
-0.27091426 0.17333378 0.72882068
-0.26772821 0.17293449 0.7271418
-0.2645568 0.17253703 0.7254706
-0.26139992 0.1721414 0.7238071
-0.25825748 0.1717476 0.72215122
-0.2551294 0.17135556 0.72050285
-0.25201556 0.17096533 0.718862
-0.24891588 0.17057687 0.71722865
-0.24602857 0.17032747 0.71618003
-0.24447961 0.17100905 0.71904588
-0.24291824 0.17169614 0.72193485
-0.24134466 0.17238905 0.72484833
-0.23975842 0.17308763 0.72778571
-0.23815887 0.1737916 0.73074573
-0.23654626 0.17450133 0.73372996
-0.23492037 0.17521685 0.7367385
-0.23328115 0.17593829 0.73977196
-0.23162836 0.17666571 0.74283051
-0.22996184 0.17739913 0.7459144
-0.22828065 0.17813808 0.74902147
-0.2265868 0.17888431 0.75215918
-0.22487834 0.17963655 0.7553221
-0.22315545 0.18039513 0.75851172
-0.22141793 0.18116014 0.76172835
-0.21966565 0.18193167 0.76497245
-0.21789818 0.18270965 0.76824367
-0.21611612 0.18349482 0.77154505
-0.21431798 0.18428616 0.77487242
-0.21250422 0.18508433 0.77822852
-0.21067476 0.1858895 0.78161401
-0.20882925 0.18670166 0.78502893
-0.20696756 0.18752095 0.78847384
-0.20508911 0.18834713 0.79194772
-0.20319468 0.18918124 0.79545492
-0.20128338 0.19002277 0.79899329
-0.28688863 0.17784499 0.73687243
-0.28363019 0.17743076 0.73515618
-0.28038687 0.17701843 0.73344779
-0.27715865 0.17660807 0.73174751
-0.27394539 0.17619963 0.73005515
-0.27074695 0.17579304 0.72837055
-0.26756325 0.17538835 0.72669375
-0.26439416 0.1749855 0.72502464
-0.26123959 0.17458451 0.72336316
-0.25809944 0.17418534 0.72170925
-0.25497362 0.173788 0.72006297
-0.25186202 0.17339244 0.71842408
-0.24876457 0.17299871 0.7167927
-0.24608186 0.17288828 0.71633512
-0.24453276 0.17358026 0.71920222
-0.24297126 0.17427781 0.72209245
-0.24139796 0.17498159 0.72500843
-0.23981129 0.17569062 0.72794616
-0.23821157 0.17640533 0.73090744
-0.23659882 0.17712589 0.73389298
-0.23497279 0.17785233 0.73690289
-0.23333341 0.1785848 0.73993772
-0.23168048 0.17932332 0.74299765
-0.23001377 0.18006793 0.74608284
-0.22833234 0.1808181 0.74919105
-0.22663841 0.1815758 0.75233048
-0.22492976 0.18233952 0.75549483
-0.2232067 0.18310969 0.75868589
-0.221469 0.18388638 0.761904
-0.2197165 0.1846697 0.76514959
-0.21794906 0.18545976 0.76842308
-0.21616654 0.18625671 0.77172506
-0.21436821 0.18706015 0.77505404
-0.21255426 0.18787055 0.77841175
-0.21072455 0.188688 0.78179872
-0.20887886 0.18951261 0.78521538
-0.20701636 0.1903439 0.78865975
-0.20513831 0.19118333 0.79213774
-0.20324364 0.19203019 0.79564661
-0.20133212 0.19288461 0.79918677
-0.28021261 0.17949103 0.73299193
-0.27698681 0.1790752 0.7312938
-0.27377591 0.17866127 0.72960347
-0.27057984 0.17824928 0.72792101
-0.26739848 0.17783917 0.72624624
-0.26423171 0.17743094 0.72457916
-0.26107943 0.17702459 0.7229197
-0.25794157 0.1766201 0.72126788
-0.25481805 0.17621745 0.71962357
-0.25170869 0.17581663 0.7179867
-0.24861349 0.17541763 0.71635735
-0.24613516 0.17545019 0.71649027
-0.24458595 0.17615257 0.71935862
-0.24302429 0.17686062 0.72225004
-0.24145006 0.17757438 0.72516489
-0.23986414 0.17829473 0.72810662
-0.23826431 0.17902021 0.73106927
-0.23665139 0.1797516 0.73405606
-0.23502523 0.18048899 0.73706734
-0.23338571 0.18123248 0.74010354
-0.23173258 0.18198209 0.74316472
-0.23006576 0.18273795 0.74625146
-0.22838402 0.18349929 0.74936062
-0.22669002 0.1842685 0.75250185
-0.22498122 0.18504372 0.75566763
-0.22325794 0.18582548 0.75886011
-0.22152007 0.18661387 0.76207972
-0.21976741 0.18740903 0.76532686
-0.21799974 0.18821095 0.76860172
-0.216217 0.18901989 0.77190518
-0.21441844 0.18983543 0.77523565
-0.21260431 0.19065806 0.77859503
-0.21077438 0.19148783 0.78198361
-0.20892845 0.19232486 0.78540182
-0.20706582 0.19316879 0.78884816
-0.20518756 0.19402088 0.79232788
-0.20329264 0.19488053 0.79583842
-0.20138088 0.19574784 0.7993803
-0.28003854 0.18196052 0.73253661
-0.27681518 0.18153925 0.73084062
-0.27360666 0.18111989 0.72915238
-0.27041298 0.18070251 0.72747207
-0.26723391 0.180287 0.72579932
-0.2640695 0.17987342 0.72413433
-0.26091951 0.17946172 0.7224769
-0.25778395 0.17905191 0.7208271
-0.25466266 0.17864396 0.71918476
-0.25155556 0.17823787 0.71754992
-0.24846259 0.17783363 0.71592253
-0.24618849 0.17801322 0.71664554
-0.24463914 0.178726 0.71951509
-0.24307738 0.17944455 0.72240782
-0.24150299 0.1801689 0.72532386
-0.23991598 0.18089922 0.72826397
-0.23831703 0.18163623 0.73123103
-0.23670401 0.18237849 0.73421925
-0.23507771 0.18312682 0.73723191
-0.23343801 0.18388134 0.74026942
-0.23178475 0.18464209 0.74333203
-0.23011774 0.18540916 0.74642009
-0.22843575 0.18618174 0.74953038
-0.22674167 0.18696243 0.75267327
-0.22503267 0.18774916 0.75584048
-0.22330925 0.18854253 0.75903445
-0.22157118 0.18934265 0.76225555
-0.21981823 0.19014952 0.76550382
-0.21805084 0.19096377 0.7687819
-0.21626748 0.19178437 0.77208543
-0.21446872 0.19261204 0.77541745
-0.21265437 0.19344689 0.77877837
-0.21082425 0.19428901 0.78216863
-0.20897786 0.19513826 0.78558755
-0.20711531 0.19599503 0.78903669
-0.20523681 0.19685979 0.79251808
-0.20334165 0.19773223 0.79603028
-0.20142965 0.19861245 0.7995739
-0.27986473 0.18442699 0.73208195
-0.27664375 0.18400025 0.73038805
-0.27343762 0.1835755 0.72870195
-0.27024627 0.18315269 0.7270236
-0.26706958 0.18273181 0.72535294
-0.26390743 0.18231288 0.72368997
-0.26075977 0.18189584 0.72203457
-0.2576265 0.18148074 0.7203868
-0.25450745 0.1810675 0.71874648
-0.25140262 0.18065615 0.71711361
-0.24831185 0.18024667 0.7154882
-0.24624184 0.18057734 0.71680081
-0.24469239 0.18130058 0.71967167
-0.24313046 0.18202962 0.72256559
-0.24155596 0.18276456 0.72548294
-0.23996933 0.18350595 0.72842592
-0.23836981 0.18425342 0.73139298
-0.23675664 0.18500654 0.73438251
-0.23513018 0.18576583 0.73739648
-0.23349032 0.18653138 0.7404353
-0.23183692 0.18730327 0.74349934
-0.23016976 0.18808158 0.74658883
-0.22848749 0.18886538 0.74970013
-0.22679333 0.18965758 0.75284475
-0.22508417 0.19045584 0.75601345
-0.22336055 0.19126083 0.75920886
-0.22162232 0.19207267 0.76243144
-0.21986903 0.19289124 0.76568073
-0.21810155 0.19371752 0.76896065
-0.21631797 0.19455013 0.77226567
-0.21451904 0.19538994 0.77559936
-0.21270446 0.19623703 0.77896184
-0.2108741 0.19709148 0.78235358
-0.20902763 0.19795331 0.78577465
-0.20716481 0.1988226 0.78922528
-0.20528609 0.19970006 0.79270834
-0.20339069 0.20058529 0.79622227
-0.20147845 0.20147845 0.79976761
-0.2829248 0.18732464 0.73332787
-0.27969116 0.18689039 0.73162788
-0.27647251 0.1864582 0.72993594
-0.27326876 0.18602803 0.72825193
-0.27007976 0.18559983 0.72657567
-0.2669054 0.18517362 0.7249071
-0.26374561 0.18474934 0.72324616
-0.26060021 0.18432699 0.72159278
-0.25746921 0.18390657 0.71994698
-0.25435245 0.18348809 0.71830869
-0.25124985 0.18307149 0.71667784
-0.24816129 0.18265679 0.71505439
-0.2462952 0.18314259 0.71695614
-0.24474563 0.18387625 0.71982825
-0.2431836 0.18461582 0.72272348
-0.24160895 0.18536136 0.72564209
-0.24002272 0.18611388 0.72858799
-0.23842262 0.18687178 0.73155499
-0.23680928 0.18763576 0.73454583
-0.23518269 0.18840602 0.73756117
-0.2335427 0.18918262 0.74060136
-0.23188913 0.18996567 0.74366677
-0.23022181 0.1907552 0.74675763
-0.22853941 0.19155037 0.74987048
-0.22684503 0.19235396 0.75301635
-0.2251357 0.19316377 0.75618649
-0.2234119 0.1939804 0.75938338
-0.22167347 0.19480397 0.76260746
-0.21992038 0.19563469 0.76585954
-0.21815227 0.19647254 0.76913953
-0.21636851 0.1973172 0.7724461
-0.21456933 0.19816913 0.77578121
-0.21275458 0.19902848 0.77914536
-0.2109241 0.19989538 0.78253907
-0.20907687 0.20076917 0.78595972
-0.20721437 0.20165156 0.78941405
-0.20533539 0.20254172 0.79289877
-0.20343976 0.20343976 0.79641438
-0.20152727 0.20434582 0.79996139
-0.28274903 0.18979044 0.73287225
-0.2795178 0.18935077 0.73117441
-0.2763015 0.18891311 0.72948444
-0.27310011 0.18847755 0.72780252
-0.26991346 0.18804398 0.72612828
-0.26674145 0.18761241 0.72446179
-0.26358396 0.1871828 0.72280288
-0.26044089 0.18675517 0.72115159
-0.25731212 0.18632947 0.71950775
-0.25419763 0.18590572 0.71787149
-0.25109723 0.18548389 0.71624255
-0.2480109 0.18506397 0.71462107
-0.24634857 0.18570893 0.71711153
-0.2447989 0.18645304 0.71998495
-0.24323674 0.18720315 0.72288144
-0.24166195 0.1879593 0.72580129
-0.2400744 0.18872158 0.72874486
-0.23847392 0.18949008 0.7317124
-0.23686197 0.19026618 0.73470926
-0.2352352 0.19104737 0.73772585
-0.23359507 0.19183506 0.74076748
-0.23194136 0.19262926 0.74383426
-0.23027386 0.19343005 0.74692649
-0.22859131 0.19423655 0.75004077
-0.22689673 0.19505158 0.75318801
-0.22518723 0.19587292 0.75635958
-0.22346327 0.1967012 0.75955796
-0.22172466 0.19753651 0.76278353
-0.21997109 0.19837883 0.76603615
-0.21820301 0.19922884 0.7693184
-0.21641906 0.20008555 0.77262658
-0.2146197 0.20094965 0.77596331
-0.21280472 0.20182124 0.77932894
-0.21097325 0.20269978 0.7827214
-0.20912665 0.20358688 0.78614688
-0.20726392 0.20448186 0.78960282
-0.20538473 0.20538473 0.79308927
-0.20348884 0.20629559 0.79660654
-0.20157613 0.20721461 0.80015534
-0.28257349 0.19225319 0.73241723
-0.27934462 0.19180806 0.73072141
-0.27613071 0.191365 0.72903353
-0.27293169 0.19092405 0.72735363
-0.26974738 0.19048512 0.72568148
-0.26657769 0.19004822 0.72401702
-0.26342249 0.1896133 0.72236013
-0.26028171 0.18918037 0.72071087
-0.25715524 0.18874942 0.71906906
-0.25404298 0.18832043 0.71743476
-0.25094485 0.18789338 0.71580786
-0.2479395 0.18752785 0.71441531
-0.246402 0.1882764 0.71726704
-0.24485219 0.18903096 0.72014165
-0.24328992 0.1897916 0.72303945
-0.241715 0.19055839 0.72596061
-0.2401273 0.19133137 0.72890544
-0.23852722 0.19211112 0.73187596
-0.23691465 0.19289772 0.73487264
-0.23528777 0.19368994 0.73789072
-0.23364748 0.19448867 0.74093366
-0.2319936 0.19529404 0.74400181
-0.23032595 0.19610611 0.74709547
-0.22864321 0.19692391 0.75021106
-0.22694847 0.19775042 0.75335974
-0.22523879 0.1985833 0.75653273
-0.22351465 0.19942324 0.7597326
-0.22177568 0.20027016 0.76295906
-0.22002243 0.20112479 0.76621491
-0.21825379 0.20198643 0.76949745
-0.21646965 0.2028552 0.77280718
-0.21467008 0.20373148 0.77614546
-0.21285491 0.20461537 0.77951276
-0.21102321 0.20550627 0.78290677
-0.20917647 0.20640592 0.78633416
-0.20731351 0.20731351 0.78979176
-0.20543407 0.20822909 0.79327983
-0.20353797 0.2091528 0.79679883
-0.20162499 0.21008477 0.8003493
-0.2823981 0.19471286 0.73196268
-0.27917171 0.19426233 0.73026907
-0.27596015 0.19381388 0.72858322
-0.27276346 0.19336753 0.72690535
-0.2695815 0.19292325 0.72523522
-0.26641414 0.19248103 0.72357279
-0.26326126 0.19204082 0.72191799
-0.26012275 0.19160262 0.72027069
-0.25699854 0.1911664 0.71863091
-0.25388855 0.19073218 0.71699858
-0.25079262 0.19029993 0.71537364
-0.24799305 0.19008605 0.71456963
-0.24645545 0.19084498 0.7174226
-0.2449055 0.19161001 0.72029847
-0.24334309 0.19238117 0.72319746
-0.24176805 0.1931586 0.72611994
-0.24018022 0.19394231 0.72906607
-0.23858035 0.19473316 0.73203897
-0.23696737 0.19553046 0.73503619
-0.23534034 0.19633366 0.73805559
-0.2336999 0.1971435 0.74109989
-0.23204586 0.19796002 0.74416941
-0.23037808 0.19878337 0.7472645
-0.22869517 0.19961254 0.75038153
-0.22700024 0.20045049 0.75353158
-0.22529037 0.20129494 0.756706
-0.22356606 0.20214656 0.75990736
-0.22182676 0.20300509 0.76313478
-0.22007373 0.20387198 0.7663936
-0.21830459 0.20474531 0.76967657
-0.21652023 0.20562613 0.77298778
-0.21472047 0.2065146 0.77632767
-0.21290438 0.20741008 0.77969396
-0.21107326 0.20831414 0.7830925
-0.20922633 0.20922633 0.78652155
-0.20736311 0.2101465 0.78998071
-0.20548345 0.21107484 0.7934705
-0.2035871 0.2120114 0.79699117
-0.28222299 0.1971695 0.73150879
-0.27899894 0.19671355 0.72981721
-0.2757898 0.19625972 0.7281335
-0.27259544 0.19580799 0.72645754
-0.26941583 0.19535838 0.7247895
-0.26625076 0.19491084 0.72312909
-0.26310018 0.19446535 0.72147632
-0.25996399 0.1940219 0.71983105
-0.25684205 0.19358046 0.71819329
-0.25373426 0.19314101 0.71656293
-0.2506406 0.19270357 0.71494001
-0.24804665 0.19264537 0.71472406
-0.2465089 0.19341467 0.71757823
-0.24495885 0.19419017 0.72045535
-0.24339628 0.19497189 0.72335559
-0.24182114 0.19575997 0.72627938
-0.24023318 0.19655442 0.72922683
-0.2386336 0.19735643 0.73220235
-0.237019 0.19816343 0.73519635
-0.23539296 0.19897857 0.73822057
-0.23375234 0.19979948 0.74126619
-0.23209816 0.20062722 0.74433714
-0.2304302 0.20146184 0.7474336
-0.22874713 0.20230238 0.75055206
-0.22705202 0.20315181 0.75370347
-0.22534198 0.20400782 0.75687933
-0.22361749 0.20487112 0.76008219
-0.22187844 0.20574182 0.76331258
-0.22012474 0.20662016 0.76657122
-0.21835543 0.20750548 0.7698558
-0.21657085 0.20839837 0.7731685
-0.21477079 0.20929892 0.77650958
-0.21295448 0.21020669 0.77987742
-0.21112335 0.21112335 0.78327829
-0.20927617 0.21204804 0.78670895
-0.20741275 0.21298088 0.79016984
-0.20553285 0.21392195 0.79366124
-0.20363626 0.21487136 0.79718363
-0.28204811 0.19962308 0.73105544
-0.27882648 0.19916175 0.729366
-0.27561966 0.19870254 0.72768426
-0.27242768 0.19824548 0.72601044
-0.26925036 0.19779056 0.72434443
-0.26608765 0.19733772 0.72268605
-0.26293936 0.19688697 0.7210353
-0.25980541 0.19643824 0.719392
-0.25668573 0.19599158 0.71775621
-0.25358021 0.19554694 0.71612787
-0.25048876 0.19510432 0.71450692
-0.24810022 0.19520576 0.71487844
-0.24656239 0.19598548 0.71773392
-0.24501219 0.19677146 0.72061229
-0.24344951 0.19756374 0.72351378
-0.24187422 0.19836245 0.72643882
-0.24028616 0.19916767 0.72938764
-0.23868576 0.19997996 0.73236239
-0.23707111 0.20079795 0.735358
-0.23544557 0.20162466 0.73838562
-0.23380482 0.20245668 0.74143261
-0.23215048 0.20329562 0.74450493
-0.23048237 0.20414153 0.74760282
-0.22879912 0.20499344 0.75072265
-0.22710381 0.20585434 0.75387543
-0.22539361 0.20672195 0.75705278
-0.22366893 0.20759691 0.76025707
-0.22192951 0.20847923 0.76348823
-0.22017577 0.2093696 0.76674896
-0.21840626 0.2102669 0.77003503
-0.21662152 0.21117191 0.77334934
-0.21482065 0.21208408 0.77668989
-0.21300481 0.21300481 0.78006172
-0.21117346 0.21393389 0.78346419
-0.20932607 0.21487112 0.78689653
-0.2074624 0.21581659 0.79035896
-0.20558228 0.21677043 0.79385209
-0.20368546 0.21773273 0.79737622
-0.2818734 0.20207362 0.73060262
-0.27865416 0.20160693 0.72891527
-0.27544972 0.20114236 0.72723562
-0.27226004 0.20067994 0.72556376
-0.26908508 0.20021972 0.72389978
-0.26592469 0.19976161 0.72224349
-0.2627787 0.19930558 0.7205947
-0.25964704 0.19885163 0.71895343
-0.25652963 0.19839975 0.71731967
-0.25342634 0.19794993 0.7156933
-0.25033709 0.19750212 0.71407425
-0.24815387 0.1977673 0.71503299
-0.2466159 0.19855742 0.71788973
-0.24506558 0.19935387 0.72076929
-0.24350278 0.20015673 0.72367209
-0.24192736 0.2009661 0.72659838
-0.24033912 0.20178203 0.72954839
-0.23873796 0.20260464 0.73252255
-0.23712459 0.20343477 0.73552388
-0.23549822 0.20427194 0.73855072
-0.23385732 0.20511508 0.74159908
-0.23220281 0.20596521 0.74467278
-0.23053451 0.20682238 0.74777192
-0.22885115 0.20768572 0.75089335
-0.22715564 0.2085581 0.75404745
-0.22544527 0.20943733 0.75722629
-0.22372016 0.21032374 0.76043117
-0.2219809 0.21121819 0.76366508
-0.22022685 0.21212034 0.76692683
-0.21845713 0.21302962 0.77021438
-0.21667199 0.21394655 0.77352953
-0.21487148 0.21487148 0.77687365
-0.21305515 0.21580425 0.78024608
-0.21122357 0.21674576 0.78365016
-0.20937596 0.21769553 0.7870841
-0.20751208 0.21865368 0.79054826
-0.20563172 0.21962027 0.794043
-0.28493068 0.20499538 0.73184347
-0.28169891 0.20452113 0.7301504
-0.27848205 0.20404907 0.72846508
-0.27528003 0.20357917 0.72678757
-0.27209267 0.20311143 0.72511768
-0.26892003 0.2026459 0.72345573
-0.26576194 0.20218253 0.72180146
-0.26261824 0.20172125 0.7201547
-0.25948885 0.20126207 0.7185154
-0.25637367 0.20080499 0.7168836
-0.25327262 0.20034999 0.71525919
-0.25018561 0.19989705 0.71364218
-0.24820751 0.20032991 0.71518755
-0.24666941 0.20113045 0.71804547
-0.24511901 0.20193742 0.7209264
-0.24355607 0.20275086 0.72383046
-0.24198049 0.2035709 0.726758
-0.24039215 0.2043976 0.72970939
-0.23879081 0.20523103 0.73268473
-0.23717749 0.20607226 0.73568797
-0.23555043 0.20692 0.73871446
-0.23390985 0.20777467 0.74176568
-0.23225519 0.20863602 0.74484074
-0.23058639 0.20950422 0.74794024
-0.2289032 0.21037924 0.75106412
-0.22720748 0.21126309 0.75421953
-0.22549695 0.21215393 0.75739986
-0.22377153 0.21305193 0.76060575
-0.22203264 0.21395873 0.76384306
-0.22027792 0.21487233 0.76710469
-0.21850803 0.21579365 0.77039385
-0.21672188 0.21672188 0.77370763
-0.21492143 0.21765929 0.77705425
-0.2131055 0.218605 0.7804305
-0.21127373 0.21955898 0.78383625
-0.2094259 0.2205213 0.7872718
-0.20756178 0.2214921 0.79073757
-0.28475401 0.20744523 0.7313897
-0.28152466 0.20696561 0.72969872
-0.27831018 0.20648819 0.72801548
-0.27511048 0.20601298 0.72634
-0.27192554 0.20553996 0.72467226
-0.26875517 0.20506911 0.72301221
-0.26559937 0.20460047 0.72135991
-0.26245797 0.20413397 0.71971518
-0.25933087 0.20366959 0.71807796
-0.25621793 0.20320733 0.71644813
-0.25311911 0.20274715 0.71482569
-0.2500343 0.20228906 0.71321058
-0.24826118 0.20289366 0.71534222
-0.24672298 0.20370461 0.7182014
-0.24517243 0.20452207 0.72108352
-0.24360938 0.20534612 0.72398889
-0.24203369 0.20617685 0.72691774
-0.24044518 0.20701431 0.72987038
-0.23884372 0.20785859 0.73284709
-0.23723063 0.2087111 0.73585278
-0.23560137 0.20956807 0.7388742
-0.2339624 0.21043545 0.74193233
-0.23230757 0.21130802 0.74500871
-0.2306383 0.21218723 0.74810857
-0.22895525 0.21307397 0.75123495
-0.22725937 0.21396935 0.75439179
-0.22554865 0.21487179 0.75757354
-0.2238235 0.21578194 0.76078242
-0.22208409 0.21670024 0.76402009
-0.22032903 0.2176256 0.76728266
-0.21855864 0.21855864 0.77057225
-0.21677323 0.21949993 0.77389097
-0.21497205 0.22044905 0.77723724
-0.2131559 0.22140709 0.78061503
-0.2113239 0.22237353 0.78402239
-0.20947586 0.22334842 0.78745961
-0.28457755 0.20989205 0.73093647
-0.28135061 0.20940709 0.72924763
-0.27813852 0.20892432 0.72756642
-0.27494121 0.20844381 0.72589308
-0.27175856 0.20796546 0.72422725
-0.26859051 0.20748934 0.72256923
-0.26543701 0.20701547 0.72091895
-0.2622979 0.20654376 0.71927625
-0.25917304 0.20607418 0.717641
-0.25606236 0.20560673 0.71601313
-0.25296578 0.20514141 0.71439266
-0.24988319 0.20467818 0.71277952
-0.24831489 0.20545851 0.71549696
-0.24677657 0.20627989 0.71835738
-0.24522586 0.20710786 0.7212407
-0.24366271 0.20794252 0.72414738
-0.24208689 0.20878394 0.72707754
-0.24049824 0.20963216 0.73003143
-0.23889664 0.21048731 0.73300946
-0.23728371 0.21135105 0.73601741
-0.23565449 0.21221924 0.73904079
-0.23401497 0.21309744 0.74209905
-0.23235998 0.21398123 0.74517679
-0.23069023 0.21487147 0.74827701
-0.22900736 0.21576995 0.75140589
-0.22731127 0.21667682 0.75456405
-0.22560039 0.2175909 0.75774729
-0.22387502 0.21851274 0.76095754
-0.22213539 0.21944284 0.76419657
-0.22038017 0.22038017 0.76746076
-0.21860854 0.22132418 0.7707482
-0.21682335 0.22227803 0.77406991
-0.21502267 0.22324011 0.77742028
-0.21320632 0.22421052 0.78079969
-0.28440136 0.21233585 0.73048389
-0.28117678 0.21184552 0.72879702
-0.27796707 0.21135744 0.72711796
-0.27477211 0.21087161 0.72544658
-0.27159181 0.21038802 0.7237829
-0.26842606 0.20990664 0.72212684
-0.26527485 0.20942751 0.72047853
-0.26213801 0.20895058 0.7188378
-0.25901544 0.20847584 0.71720457
-0.255907 0.20800322 0.71557868
-0.25281262 0.20753276 0.71396017
-0.24989484 0.20719925 0.71281278
-0.24836861 0.20802447 0.71565175
-0.24683015 0.20885628 0.71851337
-0.24527934 0.20969477 0.721398
-0.24371603 0.21054003 0.72430587
-0.2421401 0.21139215 0.72723734
-0.24055134 0.21225119 0.7301926
-0.2389496 0.21311721 0.73317194
-0.23733474 0.21399035 0.73617572
-0.23570776 0.21487172 0.73920786
-0.23406754 0.21576059 0.74226576
-0.23241241 0.21665564 0.74534494
-0.23074217 0.21755691 0.74844551
-0.22905947 0.21846713 0.7515769
-0.2273632 0.21938553 0.75473642
-0.2256518 0.22031093 0.75791997
-0.22392644 0.22124468 0.7611323
-0.22218674 0.22218674 0.76437324
-0.22043093 0.22313559 0.76763749
-0.21865988 0.22409241 0.77092916
-0.21687423 0.22505815 0.77425152
-0.21507332 0.22603247 0.77760339
-0.28422534 0.21477661 0.73003179
-0.28100318 0.21428096 0.72834706
-0.27779582 0.21378757 0.72667003
-0.27460325 0.21329647 0.72500074
-0.27142528 0.2128076 0.72333908
-0.26826185 0.21232098 0.72168505
-0.26511288 0.21183661 0.72003865
-0.26197833 0.21135449 0.71839994
-0.25885803 0.21087459 0.71676868
-0.25575182 0.21039681 0.71514475
-0.25265968 0.20992123 0.71352822
-0.2499487 0.20975594 0.71296638
-0.24842235 0.21059154 0.7158066
-0.24688378 0.2114338 0.71866947
-0.24533287 0.21228285 0.72155541
-0.24376942 0.21313871 0.72446454
-0.24219334 0.21400152 0.72739726
-0.24060445 0.21487136 0.73035383
-0.23900257 0.21574827 0.73333448
-0.23738757 0.21663237 0.73633957
-0.23576061 0.21752499 0.73937362
-0.23411775 0.2184227 0.74242496
-0.23246488 0.21933126 0.7455132
-0.23079413 0.22024354 0.74861407
-0.22911158 0.22116551 0.75174785
-0.22741516 0.2220955 0.75490892
-0.22570342 0.22303237 0.75809336
-0.22397836 0.22397836 0.76130879
-0.22223812 0.22493191 0.76454997
-0.22048087 0.22589144 0.76781142
-0.21871072 0.22686143 0.77110845
-0.21692508 0.22783956 0.77443314
-0.28404951 0.21721435 0.72958022
-0.28082976 0.21671338 0.72789758
-0.27762479 0.21621469 0.72622257
-0.27443454 0.21571831 0.72455537
-0.27125892 0.21522422 0.7228958
-0.26809779 0.21473236 0.72124374
-0.26495114 0.21424279 0.71959937
-0.26181886 0.21375549 0.71796262
-0.25870079 0.21327041 0.71633333
-0.25559685 0.21278752 0.71471143
-0.25250694 0.21230683 0.71309686
-0.25000259 0.21231376 0.7131201
-0.24847612 0.21315971 0.71596152
-0.24693744 0.21401244 0.7188257
-0.24538639 0.21487202 0.72171283
-0.24382281 0.21573851 0.7246232
-0.24224661 0.21661206 0.72755724
-0.24065757 0.21749267 0.73051506
-0.23905556 0.2183805 0.73349708
-0.23744042 0.21927559 0.73650354
-0.23581359 0.22017954 0.73953974
-0.2341703 0.22108816 0.74259162
-0.23251736 0.22200811 0.74568152
-0.23084614 0.22293141 0.74878275
-0.22916374 0.22386515 0.75191897
-0.22746712 0.22480668 0.75508142
-0.22575569 0.22575569 0.75826895
-0.22403042 0.22671342 0.76148576
-0.22228901 0.22767784 0.76472503
-0.22053255 0.22865032 0.76799142
-0.28387395 0.21964908 0.72912925
-0.28065655 0.21914279 0.72744864
-0.27745396 0.21863884 0.72577578
-0.27426606 0.21813719 0.72411054
-0.2710928 0.21763788 0.72245306
-0.26793399 0.21714082 0.72080308
-0.26478958 0.21664602 0.71916056
-0.26165956 0.21615356 0.71752584
-0.25854376 0.21566333 0.71589851
-0.25544205 0.21517533 0.71427858
-0.25235435 0.21468952 0.71266592
-0.25005651 0.21487266 0.71327388
-0.2485299 0.215729 0.71611649
-0.24699108 0.21659219 0.71898186
-0.24543993 0.21746233 0.7218703
-0.24387625 0.21833946 0.72478199
-0.2422999 0.21922372 0.72771728
-0.24071072 0.22011515 0.73067641
-0.23910859 0.22101389 0.7336598
-0.23749331 0.22191998 0.73666757
-0.23586755 0.2228362 0.73970896
-0.23422366 0.22375557 0.74276084
-0.23256989 0.22468616 0.74584997
-0.23089822 0.22562054 0.74895167
-0.22921592 0.22656603 0.75209022
-0.22751912 0.22751912 0.75525403
