# .PCD v0.7 - Point Cloud Data file format
VERSION 0.7
FIELDS x y z
SIZE 4 4 4
TYPE F F F
COUNT 1 1 1
WIDTH 560
HEIGHT 1
VIEWPOINT 0 0 0 1 0 0 0
POINTS 560
DATA ascii
-0.087443486 -0.447211 1.4181778
-0.08156468 -0.44242659 1.4030057
-0.075810313 -0.4377434 1.3881546
-0.070927426 -0.43779343 1.3883133
-0.066059887 -0.43795258 1.3888179
-0.091626115 -0.4383195 1.4056876
-0.085754178 -0.43367112 1.3907802
-0.080473669 -0.43163148 1.3842391
-0.075623892 -0.43178806 1.3847412
-0.070770599 -0.4319447 1.3852435
-0.065913759 -0.43210134 1.3857459
-0.061053406 -0.43225813 1.3862487
-0.10172448 -0.43418986 1.4083574
-0.095735647 -0.42958301 1.3934145
-0.089964047 -0.42550561 1.3801888
-0.085131891 -0.42565945 1.3806878
-0.080296248 -0.42581344 1.3811873
-0.075457111 -0.42596754 1.3816872
-0.070614465 -0.42612174 1.3821874
-0.065768294 -0.42627597 1.3826876
-0.060918611 -0.42643028 1.3831881
-0.056065414 -0.42658469 1.3836889
-0.11186086 -0.43004289 1.4110322
-0.10575301 -0.42547143 1.3960326
-0.099773668 -0.42099619 1.3813487
-0.094584398 -0.41956669 1.3766583
-0.089766279 -0.41971803 1.3771548
-0.084944688 -0.41986945 1.3776517
-0.08011961 -0.420021 1.3781489
-0.07529106 -0.42017266 1.3786466
-0.070459008 -0.42032441 1.3791445
-0.065623447 -0.4204762 1.3796425
-0.060784407 -0.4206281 1.3801409
-0.055941861 -0.42078009 1.3806397
-0.051095817 -0.42093223 1.3811388
-0.046246264 -0.4210844 1.3816382
-0.1163793 -0.42342255 1.4055592
-0.11085781 -0.42125967 1.3983794
-0.10539245 -0.41911879 1.3912728
-0.099982366 -0.41699961 1.3842381
-0.094626799 -0.41490212 1.3772755
-0.08956939 -0.41395581 1.3741342
-0.084758304 -0.41410485 1.3746289
-0.079943754 -0.41425398 1.375124
-0.075125732 -0.41440323 1.3756194
-0.070304245 -0.4145526 1.3761152
-0.065479264 -0.414702 1.3766111
-0.060650796 -0.41485146 1.3771073
-0.055818852 -0.41500103 1.3776038
-0.050983422 -0.4151507 1.3781006
-0.0461445 -0.41530049 1.3785979
-0.041302085 -0.41545039 1.3790954
-0.11687391 -0.42024875 1.4115329
-0.11132625 -0.41809189 1.4042884
-0.1058355 -0.41595814 1.3971215
-0.10040055 -0.41384619 1.3900279
-0.095020585 -0.41175586 1.3830069
-0.089694865 -0.40968734 1.3760592
-0.084572732 -0.40836546 1.3716192
-0.079768658 -0.40851223 1.3721122
-0.074961133 -0.4086591 1.3726054
-0.070150152 -0.40880606 1.3730991
-0.065335698 -0.40895307 1.3735929
-0.060517766 -0.40910012 1.3740867
-0.055696376 -0.40924728 1.3745811
-0.050871518 -0.40939459 1.3750758
-0.046048962 -0.4095934 1.3757436
-0.04129108 -0.4104819 1.3787279
-0.11737237 -0.41704652 1.4175529
-0.11179969 -0.41490105 1.4102604
-0.10628179 -0.41276881 1.4030129
-0.10082293 -0.410669 1.3958756
-0.095417529 -0.40858278 1.3887844
-0.090067498 -0.40652087 1.381776
-0.084771626 -0.40448177 1.374845
-0.079594344 -0.40279561 1.3691137
-0.074797258 -0.40294006 1.3696047
-0.069996729 -0.40308464 1.3700961
-0.065192752 -0.40322927 1.3705877
-0.060385324 -0.40337396 1.3710796
-0.055574443 -0.40351877 1.3715718
-0.050814081 -0.40409294 1.3735234
-0.046074208 -0.40496805 1.3764979
-0.041313764 -0.40584698 1.3794854
-0.036532614 -0.40672976 1.382486
-0.11787511 -0.41381687 1.4236246
-0.11227592 -0.41167837 1.4162678
-0.10673234 -0.40955433 1.4089606
-0.10212758 -0.41100124 1.4139383
-0.097486608 -0.41244334 1.4188994
-0.090443246 -0.403328 1.3875406
-0.085123502 -0.40129653 1.3805518
-0.079857074 -0.39928538 1.373633
-0.074643172 -0.39729431 1.3667833
-0.069843993 -0.39738825 1.3671064
-0.065050438 -0.39753044 1.3675957
-0.060265444 -0.39775196 1.3683577
-0.055563834 -0.39861012 1.37131
-0.050841887 -0.39947197 1.374275
-0.046099477 -0.40033758 1.3772528
-0.041336477 -0.40120697 1.3802438
-0.036552738 -0.40208012 1.3832476
-0.11838216 -0.41055942 1.4297485
-0.11275638 -0.40842867 1.4223284
-0.10718819 -0.40631801 1.4149781
-0.10237078 -0.40698624 1.4173052
-0.097633585 -0.40805832 1.4210386
-0.092832729 -0.40896583 1.424199
-0.085478306 -0.39808467 1.386306
-0.080188252 -0.39608139 1.3793297
-0.074951179 -0.39409813 1.3724232
-0.06976629 -0.39213467 1.3655854
-0.064982198 -0.39229992 1.366161
-0.060298312 -0.39314499 1.3691039
-0.055594198 -0.39399368 1.3720593
-0.050869729 -0.39484599 1.3750275
-0.046124779 -0.39570206 1.3780087
-0.041359209 -0.39656183 1.3810028
-0.036572885 -0.39742535 1.38401
-0.031765673 -0.39829266 1.3870304
-0.11889358 -0.40727374 1.4359251
-0.11324096 -0.40515098 1.4284409
-0.10764666 -0.40304914 1.4210304
-0.10248809 -0.40245324 1.4189295
-0.097686701 -0.40327072 1.4218117
-0.092833363 -0.40395057 1.4242086
-0.085836425 -0.39484757 1.3921142
-0.080523781 -0.39285845 1.3851011
-0.075262308 -0.39087844 1.3781202
-0.070054099 -0.38892105 1.371219
-0.065017596 -0.38769752 1.3669052
-0.060331199 -0.38853294 1.3698506
-0.055624593 -0.38937217 1.3728095
-0.050897606 -0.39021498 1.3757811
-0.046150111 -0.39106146 1.3787655
-0.04138197 -0.39191163 1.3817629
-0.036593053 -0.39276546 1.3847733
-0.031783227 -0.39362305 1.3877969
-0.11940923 -0.40395889 1.4421529
-0.113729 -0.40184245 1.4345971
-0.10810806 -0.39974841 1.4271213
-0.1025454 -0.39767608 1.4197229
-0.097659416 -0.39814994 1.4214146
-0.092755757 -0.39859909 1.4230181
-0.0878013 -0.39886877 1.423981
-0.080859624 -0.38959637 1.390878
-0.075575396 -0.38762864 1.3838531
-0.070344277 -0.38568071 1.3768989
-0.065165475 -0.38375226 1.3700142
-0.060364183 -0.3839162 1.3705995
-0.055655036 -0.38474569 1.3735608
-0.050925504 -0.38557884 1.3765352
-0.046175461 -0.38641572 1.3795229
-0.041404758 -0.38725623 1.3825237
-0.036613248 -0.38810042 1.3855374
-0.031800803 -0.38894829 1.3885643
-0.026967287 -0.38979989 1.3916045
-0.11992995 -0.40061703 1.4484417
-0.11422304 -0.3985115 1.440829
-0.1085758 -0.39642793 1.4332958
-0.1029873 -0.39436603 1.425841
-0.09754575 -0.39268416 1.4197602
-0.092579737 -0.39283836 1.4203176
-0.087538719 -0.3926737 1.4197223
-0.081199378 -0.38631222 1.3967222
-0.075891338 -0.38435289 1.3896383
-0.070636868 -0.38241339 1.3826259
-0.065435171 -0.3804934 1.3756841
-0.060397197 -0.3792944 1.3713491
-0.055685539 -0.38011432 1.3743136
-0.050953466 -0.38093781 1.377291
-0.046200845 -0.38176489 1.3802812
-0.041427568 -0.38259575 1.3832853
-0.036633465 -0.38343027 1.3863025
-0.031818401 -0.38426837 1.3893327
-0.02698224 -0.38511017 1.3923762
-0.11472036 -0.39514789 1.4471023
-0.10904604 -0.39307293 1.4395034
-0.10343102 -0.39101967 1.4319841
-0.097874351 -0.38898778 1.4245429
-0.092373811 -0.38697135 1.4171584
-0.086930141 -0.38497636 1.4098523
-0.081542999 -0.38300499 1.4026328
-0.07620994 -0.38104969 1.3954722
-0.070931904 -0.3791188 1.3884009
-0.065707095 -0.37720743 1.3814011
-0.060534708 -0.37531519 1.3744714
-0.055716079 -0.37547791 1.3750674
-0.050981469 -0.37629181 1.3780479
-0.046226293 -0.37710923 1.3810415
-0.041450415 -0.37793025 1.3840482
-0.036653697 -0.37875488 1.3870682
-0.031836018 -0.37958327 1.3901019
-0.026997212 -0.38041526 1.3931488
-0.02213715 -0.38125092 1.3962091
-0.0025436089 -0.39425936 1.4438484
0.0025243973 -0.3912816 1.4329432
0.0075164228 -0.38834852 1.4222018
0.012490519 -0.38720608 1.418018
-0.11522203 -0.39175493 1.4534305
-0.1095204 -0.38968885 1.4457654
-0.10387858 -0.38764447 1.4381806
-0.098295651 -0.3856214 1.4306749
-0.092770003 -0.38361651 1.4232366
-0.087299794 -0.38162479 1.4158473
-0.081888027 -0.37966266 1.4085677
-0.076532416 -0.3777245 1.401377
-0.071229413 -0.37579656 1.3942243
-0.065981299 -0.37389404 1.3871658
-0.06078605 -0.37201062 1.3801782
-0.055746656 -0.37083644 1.3758219
-0.05100951 -0.37164071 1.3788059
-0.04625177 -0.37244847 1.3818027
-0.041473307 -0.37325975 1.3848126
-0.036673978 -0.37407458 1.3878356
-0.031853653 -0.37489301 1.390872
-0.027012197 -0.37571511 1.3939221
-0.022149466 -0.37654093 1.3969859
-0.017966578 -0.39269808 1.4569297
-0.012735472 -0.38970545 1.4458269
-0.007583491 -0.38675806 1.4348919
-0.0025088559 -0.38385496 1.4241213
0.002490164 -0.38099509 1.413511
0.0074818381 -0.38157374 1.4156579
0.012497566 -0.38242552 1.418818
0.017535735 -0.38328105 1.4219921
-0.10999889 -0.38627517 1.4520819
-0.10433003 -0.38423988 1.4444308
-0.09872061 -0.38222596 1.4368601
-0.093167886 -0.38022569 1.4293407
-0.087674379 -0.37825233 1.4219224
-0.082237273 -0.3762978 1.4145751
-0.076855853 -0.37436238 1.4072994
-0.07152991 -0.37244883 1.4001061
-0.066257797 -0.37055287 1.3929788
-0.061039492 -0.36867854 1.3859328
-0.055873707 -0.36682305 1.3789576
-0.051037576 -0.36698449 1.3795645
-0.046277277 -0.36778256 1.3825647
-0.041496228 -0.36858413 1.3855779
-0.036694296 -0.36938924 1.3886044
-0.031871334 -0.3701978 1.391644
-0.027027214 -0.37100995 1.394697
-0.022161795 -0.37182567 1.3977635
-0.017274942 -0.3726452 1.4008442
-0.012561234 -0.37934923 1.426046
-0.0074805133 -0.37651917 1.4154072
-0.0024842781 -0.37512597 1.41017
0.0024898022 -0.37596011 1.4133056
0.0074860509 -0.37679791 1.416455
0.012504619 -0.3776395 1.4196187
0.017545655 -0.37848485 1.4227966
-0.11048158 -0.38283151 1.4584538
-0.10478542 -0.38080555 1.4507356
-0.099149242 -0.37880096 1.4430988
-0.093570814 -0.37681219 1.4355223
-0.088051662 -0.37484851 1.4280413
-0.082588091 -0.37289774 1.4206096
-0.077182725 -0.37097505 1.4132848
-0.0718325 -0.36907041 1.4060289
-0.06653662 -0.36718357 1.3988405
-0.061295055 -0.36531854 1.3917354
-0.056106463 -0.36347228 1.384702
-0.051065676 -0.36232314 1.380324
-0.046302814 -0.36311153 1.3833276
-0.041519172 -0.36390334 1.3863441
-0.036714628 -0.36469865 1.3893739
-0.031889036 -0.36549741 1.392417
-0.027042257 -0.36629966 1.3954732
-0.022174157 -0.36710548 1.3985431
-0.017284589 -0.36791483 1.4016265
-0.012391698 -0.36927259 1.4067991
-0.0074404976 -0.36954471 1.4078357
-0.0024856715 -0.37036508 1.410961
0.0024912017 -0.37118906 1.4141002
0.0074902698 -0.37201673 1.4172533
0.012511682 -0.37284812 1.4204205
0.017555585 -0.37368318 1.4236019
0.022622136 -0.37452203 1.4267976
-0.10524481 -0.37734115 1.4570957
-0.099581622 -0.37534612 1.449392
-0.093977995 -0.37337205 1.4417691
-0.088431858 -0.3714138 1.4342074
-0.082943752 -0.36947671 1.4267274
-0.077512011 -0.36755696 1.4193143
-0.072137795 -0.36566398 1.4120046
-0.0668182 -0.36378798 1.4047605
-0.061552763 -0.36193025 1.3975868
-0.056341164 -0.3600935 1.3904943
-0.051182184 -0.35827529 1.3834733
-0.04632837 -0.3584353 1.3840911
-0.041542143 -0.35921735 1.3871111
-0.036734983 -0.36000285 1.3901442
-0.031906754 -0.36079177 1.3931906
-0.027057316 -0.36158413 1.3962504
-0.022186533 -0.36238003 1.3993237
-0.017294258 -0.36317942 1.4024105
-0.012380352 -0.36398235 1.405511
-0.0074446714 -0.36478889 1.4086255
-0.0024870685 -0.36559907 1.4117539
0.0024926038 -0.36641276 1.414896
0.0074944929 -0.36723015 1.4180523
0.012518751 -0.36805129 1.4212232
0.017565528 -0.3688761 1.4244081
0.022634977 -0.36970463 1.4276075
-0.10001779 -0.37186098 1.4557402
-0.094387442 -0.36989671 1.4480506
-0.088815339 -0.36794928 1.4404268
-0.083301798 -0.36602303 1.4328861
-0.077844717 -0.36411241 1.4254065
-0.072446011 -0.36223006 1.4180377
-0.067101933 -0.3603622 1.4107255
-0.061813284 -0.35851705 1.4035021
-0.056577828 -0.35668632 1.3963352
-0.051396094 -0.3548778 1.3892554
-0.046353959 -0.35375389 1.3848556
-0.041565139 -0.35452619 1.3878789
-0.036755364 -0.35530183 1.3909154
-0.031924494 -0.35608092 1.3939652
-0.027072394 -0.35686338 1.3970284
-0.022198923 -0.3576493 1.4001051
-0.017303936 -0.3584387 1.4031954
-0.012387297 -0.35923162 1.4062995
-0.0074488567 -0.36002809 1.4094174
-0.0024884697 -0.3608281 1.4125493
0.0024940113 -0.36163163 1.415695
0.0074987342 -0.36243883 1.4188548
0.012525848 -0.3632496 1.4220288
0.017575502 -0.36406398 1.4252169
0.022647852 -0.36488205 1.4284195
0.02776802 -0.36603299 1.4329251
-0.10045779 -0.36834523 1.4621444
-0.094800472 -0.366391 1.4543872
-0.089202441 -0.36445567 1.4467049
-0.083662696 -0.36253837 1.4390941
-0.078180425 -0.36063871 1.4315535
-0.072755858 -0.35876164 1.4241024
-0.067388065 -0.35690719 1.4167411
-0.062075187 -0.35507005 1.4094487
-0.056816865 -0.35325268 1.4022347
-0.0516118 -0.35145178 1.3950859
-0.046459835 -0.34967139 1.3880187
-0.041588161 -0.34982982 1.3886477
-0.036775768 -0.35059562 1.3916875
-0.031942256 -0.35136479 1.3947407
-0.027087489 -0.35213736 1.3978074
-0.022211324 -0.35291329 1.4008874
-0.017313628 -0.35369268 1.4039812
-0.01239425 -0.35447556 1.4070889
-0.0074530477 -0.35526195 1.4102104
-0.0024898727 -0.3560518 1.4133457
0.0024954206 -0.35684517 1.416495
0.007502981 -0.35764211 1.4196584
0.012532957 -0.35844254 1.4228358
0.017585501 -0.35924664 1.4260277
0.022713149 -0.36088669 1.4325378
-0.095217139 -0.36285451 1.4607795
-0.089591682 -0.36092648 1.4530177
-0.084026746 -0.35902336 1.4453561
-0.078519575 -0.35713741 1.4377637
-0.0730692 -0.35526749 1.4302357
-0.067676298 -0.35342067 1.4228008
-0.062339652 -0.35159564 1.4154536
-0.057057526 -0.34978744 1.4081742
-0.051829513 -0.34799814 1.4009708
-0.046654649 -0.3462266 1.3938389
-0.04161121 -0.34512824 1.3894172
-0.03679619 -0.34588417 1.3924603
-0.031960033 -0.34664345 1.395517
-0.027102597 -0.34740603 1.398587
-0.022223743 -0.34817198 1.4016706
-0.017323328 -0.34894133 1.4047679
-0.01240121 -0.34971413 1.407879
-0.0074572423 -0.35049039 1.4110041
-0.0024912769 -0.35127005 1.4141428
0.0024968316 -0.35205325 1.4172958
0.007507232 -0.35283992 1.4204627
0.012545832 -0.35379246 1.4242976
0.017661015 -0.35574329 1.4321512
0.022833016 -0.35771725 1.4400979
-0.09563747 -0.35928673 1.4672281
-0.089986265 -0.35737401 1.4594171
-0.084393978 -0.35547766 1.4516729
-0.078860939 -0.35360226 1.4440143
-0.073385261 -0.35174316 1.4364222
-0.067967504 -0.3499068 1.428923
-0.062606126 -0.34809008 1.421504
-0.057300396 -0.34629369 1.4141681
-0.052048936 -0.3445144 1.406902
-0.046851099 -0.34275278 1.399708
-0.04170635 -0.34101075 1.392594
-0.036816634 -0.34116748 1.3932341
-0.031977832 -0.3419168 1.3962941
-0.027117725 -0.34266946 1.3993677
-0.022236176 -0.34342539 1.4024547
-0.017333042 -0.34418467 1.4055555
-0.012408178 -0.34494737 1.4086701
-0.0074614417 -0.34571347 1.4117986
-0.0024926832 -0.34648296 1.4149411
0.0024982439 -0.34725589 1.4180975
0.0075254813 -0.34868065 1.4239157
0.012611609 -0.35060275 1.4317651
0.01775419 -0.35254747 1.4397068
0.022954158 -0.35451424 1.4477385
-0.090383135 -0.35378543 1.4658537
-0.084764436 -0.35190085 1.4580452
-0.079205267 -0.35003617 1.4503193
-0.073704429 -0.34818989 1.4426695
-0.068261221 -0.34636247 1.4350979
-0.062875159 -0.34455588 1.4276125
-0.057545342 -0.34277007 1.4202133
-0.052270286 -0.34100139 1.4128851
-0.047049388 -0.33925086 1.405632
-0.041881803 -0.33751807 1.3984525
-0.036837108 -0.3364456 1.3940089
-0.03199565 -0.33718494 1.3970722
-0.027132869 -0.33792755 1.4001491
-0.02224862 -0.33867344 1.4032396
-0.017342767 -0.3394227 1.4063441
-0.012415156 -0.34017527 1.4094622
-0.0074656461 -0.34093118 1.4125942
-0.0024941515 -0.34169874 1.4157745
0.0025078214 -0.34357151 1.423534
0.0075649261 -0.34546497 1.4313792
0.012678119 -0.34738046 1.4393158
0.017848358 -0.34931788 1.4473431
0.02307659 -0.35127699 1.4554604
-0.090783529 -0.35016504 1.4723474
-0.085138157 -0.34829247 1.4644737
-0.079552621 -0.34643883 1.4566797
-0.074026212 -0.34460479 1.4489681
-0.068557493 -0.34278744 1.4413266
-0.063146621 -0.34099177 1.4337763
-0.057792608 -0.33921748 1.4263159
-0.052493524 -0.33745837 1.4189193
-0.047249295 -0.33571869 1.4116044
-0.042058859 -0.33399683 1.4043645
-0.036921419 -0.33229277 1.3971994
-0.032013487 -0.33244777 1.3978511
-0.027148031 -0.33318037 1.4009315
-0.022261081 -0.33391622 1.4040256
-0.017352499 -0.33465534 1.4071333
-0.01242214 -0.33539778 1.4102551
-0.0074804602 -0.33662072 1.4153972
-0.0025071492 -0.33846515 1.4231526
0.0025209626 -0.34032997 1.4309936
0.0076048058 -0.34221625 1.4389249
0.012745345 -0.34412432 1.4469478
0.017943531 -0.34605384 1.4550608
0.023200337 -0.34800506 1.4632652
-0.085515231 -0.3446523 1.4709598
-0.079903029 -0.34280977 1.4630959
-0.074350558 -0.34098706 1.4553167
-0.068856455 -0.33918178 1.4476119
-0.063420437 -0.33739674 1.4399934
-0.058041431 -0.33563089 1.4324569
-0.05271868 -0.33388495 1.4250053
-0.047450904 -0.33215633 1.4176276
-0.042237401 -0.33044553 1.410326
-0.037077323 -0.32875225 1.4030992
-0.03203135 -0.32770535 1.398631
-0.027163208 -0.32842788 1.4017147
-0.022273554 -0.32915363 1.4048122
-0.017362244 -0.32988265 1.4079236
-0.01246411 -0.33154532 1.4150199
-0.0075194323 -0.33336151 1.4227712
-0.0025202835 -0.33519772 1.430608
0.0025342475 -0.33705491 1.4385345
0.0076451204 -0.33893368 1.446553
0.012813291 -0.34083354 1.4546615
0.018039726 -0.34275478 1.4628613
-0.085895598 -0.34097949 1.4775025
-0.080256552 -0.33914864 1.4695692
-0.07467775 -0.3373374 1.4617209
-0.069158219 -0.33554545 1.4539561
-0.063696638 -0.33377039 1.4462646
-0.058292881 -0.33201596 1.4386625
-0.052945632 -0.33027989 1.4311399
-0.047654249 -0.32856351 1.4237026
-0.042417459 -0.32686397 1.4163383
-0.037234571 -0.32518193 1.4090499
-0.032104768 -0.32351726 1.4018368
-0.027178403 -0.32367006 1.4024988
-0.022307919 -0.32470417 1.4069797
-0.017445108 -0.32647273 1.414643
-0.012529031 -0.32826063 1.4223902
-0.0075588142 -0.33006823 1.4302227
-0.0025335595 -0.33189631 1.438144
0.0025476783 -0.33374584 1.4461583
0.0076858643 -0.33561608 1.4542623
0.012881963 -0.33750743 1.4624577
-0.080613211 -0.33545497 1.4761
-0.075007834 -0.33365554 1.468182
-0.069462277 -0.33187532 1.4603485
-0.06397526 -0.33011234 1.4525908
-0.058546513 -0.32836959 1.4449222
-0.05317479 -0.32664514 1.4373342
-0.047859259 -0.32493919 1.4298275
-0.042599063 -0.32325172 1.4224021
-0.037393164 -0.32158121 1.4150515
-0.032240789 -0.31992784 1.4077761
-0.027258014 -0.31966215 1.406607
-0.02242345 -0.32140279 1.4142662
-0.017535947 -0.32316247 1.4220093
-0.012594632 -0.32494152 1.4298377
-0.0075986162 -0.3267405 1.4377538
-0.0025469831 -0.32856083 1.4457637
0.0025612519 -0.33040151 1.4538633
-0.080973037 -0.33172825 1.4826888
-0.075340845 -0.32994094 1.4747002
-0.069769017 -0.3281728 1.4667974
-0.064256586 -0.32642347 1.4589785
-0.058802366 -0.32469133 1.4512366
-0.053405941 -0.32297879 1.4435823
-0.048066143 -0.3212842 1.4360082
-0.042782232 -0.31960842 1.4285182
-0.037553109 -0.31794968 1.4211042
-0.032377988 -0.31630802 1.4137667
-0.027399143 -0.31633556 1.4138898
-0.022540184 -0.31806701 1.4216287
-0.017627738 -0.31981754 1.4294528
-0.012660926 -0.3215875 1.4373639
-0.0076388652 -0.32337862 1.4453694
-0.0025605494 -0.32518977 1.4534645
-0.075676829 -0.32619324 1.4812768
-0.070078477 -0.32443741 1.4733033
-0.064540081 -0.32270038 1.4654154
-0.059060462 -0.32098079 1.4576064
-0.05363911 -0.31928042 1.4498849
-0.048274897 -0.31759802 1.4422449
-0.042966917 -0.3159332 1.4346849
-0.037714429 -0.31428692 1.4272089
-0.032516357 -0.31265727 1.4198085
-0.027541738 -0.3129743 1.4212482
-0.022658136 -0.31469631 1.4290681
-0.017720494 -0.31643742 1.4369745
-0.012727971 -0.31819928 1.4449754
-0.064826071 -0.31894428 1.471909
-0.059320938 -0.31723806 1.4640349
-0.053874329 -0.31554964 1.4562429
-0.048485465 -0.31387961 1.4485358
-0.043153349 -0.31222719 1.44091
-0.037877142 -0.31059259 1.4333664
-0.03265591 -0.30897516 1.4259021
-0.027685827 -0.30957788 1.4286836
-0.02277733 -0.31129017 1.4365858
-0.017814303 -0.31302276 1.4445815
-0.059583601 -0.31346154 1.4705174
-0.054111607 -0.31178594 1.4626567
-0.048697881 -0.31012863 1.4548819
-0.043341402 -0.30848879 1.4471891
-0.038041268 -0.30686623 1.4395773
-0.03279667 -0.30526131 1.4320483
-0.02783143 -0.30614573 1.4361973
-0.02289786 -0.30784902 1.4441878
-0.054350998 -0.307989 1.4691275
-0.048912168 -0.30634463 1.4612838
-0.043531109 -0.30471775 1.4535235
-0.038206894 -0.30310804 1.445845
-0.032938648 -0.30151531 1.4382477
