# .PCD v0.7 - Point Cloud Data file format
VERSION 0.7
FIELDS x y z
SIZE 4 4 4
TYPE F F F
COUNT 1 1 1
WIDTH 1330
HEIGHT 1
VIEWPOINT 0 0 0 1 0 0 0
POINTS 1330
DATA ascii
-0.18368192 -0.036033295 0.49887457
-0.1813966 -0.035928797 0.49742782
-0.17950937 -0.035901874 0.49705508
-0.17831945 -0.036015261 0.49862489
-0.17712198 -0.036129359 0.50020456
-0.17591688 -0.03624418 0.50179428
-0.17470415 -0.036359746 0.50339425
-0.17348361 -0.036476042 0.50500435
-0.17225526 -0.036593087 0.50662482
-0.17101903 -0.036710892 0.50825578
-0.16977483 -0.03682946 0.50989735
-0.16852254 -0.036948793 0.51154947
-0.16726212 -0.037068903 0.51321238
-0.16599347 -0.037189793 0.51488608
-0.16471653 -0.037311479 0.51657081
-0.16343118 -0.037433956 0.5182665
-0.16213739 -0.037557248 0.51997346
-0.16083503 -0.037681349 0.52169162
-0.15952405 -0.03780628 0.52342123
-0.15820435 -0.037932038 0.52516234
-0.15687583 -0.038058635 0.52691507
-0.15553841 -0.038186077 0.52867949
-0.15419203 -0.03831438 0.53045583
-0.15283656 -0.03844355 0.53224415
-0.26270702 -0.037806544 0.55026722
-0.25993472 -0.037685703 0.54850841
-0.25718012 -0.037565637 0.54676086
-0.25444302 -0.037446331 0.54502439
-0.25172323 -0.037327781 0.5432989
-0.24902062 -0.03720998 0.54158431
-0.24633498 -0.037092913 0.53988045
-0.24366622 -0.036976587 0.53818733
-0.24101415 -0.036860988 0.53650481
-0.23837677 -0.036745828 0.53482866
-0.23575746 -0.036631636 0.53316665
-0.23315443 -0.036518164 0.53151506
-0.23056744 -0.036405385 0.52987361
-0.2279966 -0.036293339 0.52824277
-0.22544132 -0.036181942 0.5266214
-0.22290161 -0.036071215 0.52500981
-0.22037742 -0.03596117 0.52340811
-0.21786857 -0.035851792 0.52181613
-0.21537496 -0.03574308 0.52023387
-0.21289641 -0.035635021 0.51866108
-0.2104328 -0.035527617 0.51709783
-0.20798515 -0.035421051 0.5155468
-0.20554997 -0.035314754 0.51399964
-0.20312983 -0.035209171 0.51246291
-0.20072404 -0.035104204 0.51093513
-0.1983353 -0.035000347 0.50942355
-0.19595855 -0.034896728 0.50791538
-0.19359569 -0.034793697 0.50641578
-0.19124678 -0.034691278 0.50492507
-0.18891166 -0.034589458 0.50344312
-0.18659018 -0.034488235 0.50196981
-0.18428226 -0.0343876 0.50050509
-0.18198781 -0.034287561 0.49904904
-0.17970665 -0.034188092 0.49760133
-0.17824376 -0.034243874 0.49841323
-0.17704657 -0.034352317 0.4999916
-0.17584173 -0.034461446 0.50157994
-0.17462929 -0.034571279 0.50317854
-0.17340906 -0.034681812 0.50478733
-0.172181 -0.034793049 0.50640637
-0.17094505 -0.034905009 0.5080359
-0.16970114 -0.035017695 0.50967604
-0.16844916 -0.035131108 0.51132673
-0.16718903 -0.035245258 0.51298815
-0.1659207 -0.03536015 0.51466042
-0.16464409 -0.035475798 0.51634365
-0.16335908 -0.035592202 0.51803786
-0.16206563 -0.035709377 0.51974332
-0.16076361 -0.035827316 0.52145994
-0.15945299 -0.035946049 0.52318805
-0.15813363 -0.036065564 0.52492756
-0.15680549 -0.036185879 0.52667874
-0.15546843 -0.036307 0.52844161
-0.15412241 -0.036428932 0.53021634
-0.1527673 -0.036551688 0.53200299
-0.26365429 -0.035997082 0.5522514
-0.26086903 -0.035881612 0.55047995
-0.25810155 -0.035766881 0.54871976
-0.25535172 -0.035652883 0.54697084
-0.25261936 -0.035539605 0.54523301
-0.24990432 -0.035427049 0.54350621
-0.24720642 -0.035315201 0.54179031
-0.24452546 -0.035204057 0.54008514
-0.24186137 -0.035093609 0.53839076
-0.2392123 -0.034983616 0.53670329
-0.23658127 -0.034874529 0.53502971
-0.2339665 -0.034766108 0.53336632
-0.23136817 -0.034658391 0.53171378
-0.22878581 -0.034551326 0.53007126
-0.22621924 -0.034444902 0.52843857
-0.22366844 -0.034339137 0.52681595
-0.22113323 -0.034234017 0.52520323
-0.21861352 -0.034129538 0.52360034
-0.21610913 -0.034025691 0.52200723
-0.21361993 -0.033922479 0.52042377
-0.21114579 -0.033819888 0.51884985
-0.20868658 -0.033717915 0.51728547
-0.20624214 -0.033616561 0.5157305
-0.20381196 -0.033515744 0.51418382
-0.20139663 -0.033415586 0.51264721
-0.1989958 -0.033316039 0.51112002
-0.19660991 -0.033217199 0.50960368
-0.19423811 -0.033118941 0.50809622
-0.19187953 -0.033021126 0.50659561
-0.18953481 -0.032923888 0.50510383
-0.18720388 -0.032827221 0.5036208
-0.1848866 -0.032731123 0.50214648
-0.18258284 -0.032635581 0.50068074
-0.18029252 -0.032540601 0.49922359
-0.17816815 -0.032473996 0.49820179
-0.17697123 -0.032576792 0.49977884
-0.17576666 -0.032680232 0.50136578
-0.17455448 -0.032784343 0.50296301
-0.17333452 -0.032889117 0.50457036
-0.17210677 -0.032994565 0.50618809
-0.17087109 -0.033100683 0.50781614
-0.16962752 -0.033207502 0.50945491
-0.16837582 -0.033315003 0.51110411
-0.16711603 -0.033423208 0.51276416
-0.16584802 -0.033532113 0.51443493
-0.16457172 -0.033641733 0.51611668
-0.16328703 -0.033752069 0.51780939
-0.16199392 -0.033863138 0.51951337
-0.16069224 -0.033974934 0.52122849
-0.15938196 -0.034087472 0.522955
-0.15806296 -0.034200758 0.52469301
-0.15673517 -0.0343148 0.52644259
-0.1553985 -0.034429606 0.5282039
-0.15405284 -0.034545183 0.52997702
-0.15269811 -0.034661535 0.53176206
-0.15133426 -0.034778677 0.5335592
-0.26181006 -0.034064505 0.55246568
-0.2590296 -0.03395519 0.5506928
-0.25626692 -0.033846576 0.54893124
-0.25352192 -0.033738658 0.54718101
-0.25079432 -0.033631425 0.54544187
-0.24808401 -0.033524867 0.54371369
-0.24539083 -0.033418983 0.54199648
-0.2427146 -0.03331377 0.54029006
-0.24005392 -0.033209041 0.53859156
-0.23741086 -0.033105101 0.53690583
-0.23478422 -0.033001799 0.53523046
-0.23217444 -0.032899212 0.53356671
-0.22958049 -0.032797214 0.53191245
-0.22700258 -0.032695845 0.53026843
-0.22444054 -0.032595102 0.52863455
-0.22189425 -0.032494973 0.52701068
-0.21936356 -0.032395463 0.52539676
-0.2168483 -0.032296557 0.52379268
-0.21434836 -0.032198254 0.52219838
-0.21186362 -0.032100547 0.52061379
-0.2093939 -0.032003436 0.5190388
-0.20693906 -0.031906903 0.51747322
-0.20449901 -0.031810958 0.51591712
-0.20207429 -0.031715695 0.51437217
-0.19966267 -0.031620786 0.51283288
-0.19726589 -0.031526513 0.51130396
-0.19488285 -0.031432718 0.50978279
-0.19251646 -0.031339888 0.50827724
-0.19016209 -0.031247292 0.5067755
-0.18782161 -0.031155244 0.50528264
-0.1854949 -0.031063739 0.5037986
-0.18318181 -0.030972769 0.50232321
-0.18088222 -0.030882331 0.50085646
-0.17859603 -0.030792421 0.49939829
-0.17689593 -0.030802773 0.4995662
-0.17569165 -0.03090054 0.5011518
-0.17447974 -0.03099894 0.50274765
-0.17326008 -0.031097963 0.50435364
-0.17203261 -0.031197622 0.50596994
-0.17079724 -0.031297926 0.50759667
-0.16955395 -0.031398878 0.50923395
-0.16830258 -0.031500481 0.51088178
-0.16704309 -0.031602748 0.51254034
-0.16577537 -0.031705674 0.51420963
-0.16449942 -0.031809282 0.51588994
-0.16321506 -0.03191356 0.51758116
-0.16192228 -0.032018531 0.51928359
-0.16062096 -0.032124192 0.52099723
-0.15931103 -0.032230552 0.52272224
-0.15799236 -0.032337617 0.52445865
-0.15666494 -0.032445401 0.52620667
-0.15532862 -0.032553904 0.52796638
-0.15398334 -0.032663133 0.52973789
-0.152629 -0.0327731 0.53152138
-0.15126552 -0.032883808 0.53331685
-0.14989279 -0.032995269 0.53512454
-0.25996432 -0.032130424 0.55268002
-0.25718877 -0.032027278 0.55090582
-0.25443089 -0.031924792 0.5491429
-0.25169069 -0.031822961 0.5473913
-0.24896789 -0.031721778 0.54565084
-0.24626233 -0.031621233 0.54392135
-0.24357387 -0.031521324 0.54220283
-0.24090196 -0.031421997 0.54049426
-0.23824626 -0.031323213 0.53879511
-0.23560761 -0.031225106 0.53710753
-0.23298623 -0.031127714 0.53543228
-0.2303807 -0.031030869 0.53376645
-0.22779135 -0.030934628 0.53211099
-0.225218 -0.030838979 0.53046572
-0.22266054 -0.030743923 0.52883065
-0.22011878 -0.03064945 0.52720559
-0.21759258 -0.030555554 0.52559048
-0.21508181 -0.030462231 0.52398521
-0.21258633 -0.030369475 0.52238971
-0.21010602 -0.030277286 0.52080393
-0.20764072 -0.030185657 0.5192278
-0.20519029 -0.030094575 0.51766109
-0.2027546 -0.030004043 0.51610386
-0.20033354 -0.029914057 0.51455599
-0.19792663 -0.029824559 0.51301652
-0.19553429 -0.029735629 0.51148683
-0.19315597 -0.029647196 0.50996566
-0.19079356 -0.029559564 0.50845832
-0.18844345 -0.029472198 0.5069555
-0.18610722 -0.029385351 0.50546163
-0.18378471 -0.029299013 0.50397652
-0.18147582 -0.029213181 0.50250012
-0.1791804 -0.029127847 0.50103229
-0.1768984 -0.029043021 0.49957317
-0.1756167 -0.029122366 0.500938
-0.17440508 -0.029215066 0.50253254
-0.17318569 -0.029308347 0.5041371
-0.17195851 -0.029402232 0.50575203
-0.17072344 -0.02949672 0.50737733
-0.16948043 -0.029591821 0.50901318
-0.16822937 -0.029687537 0.51065958
-0.16697021 -0.029783875 0.5123167
-0.16570282 -0.029880837 0.51398456
-0.16442718 -0.029978435 0.51566339
-0.16314314 -0.03007667 0.51735312
-0.16185071 -0.030175555 0.51905406
-0.16054972 -0.030275088 0.52076614
-0.15924013 -0.030375283 0.52248961
-0.15792184 -0.030476144 0.52422452
-0.15659477 -0.030577676 0.525971
-0.15525882 -0.030679887 0.52772915
-0.15391392 -0.030782782 0.52949905
-0.15255995 -0.030886369 0.53128088
-0.15119684 -0.030990656 0.53307474
-0.14982451 -0.031095654 0.53488082
-0.26090586 -0.030292442 0.55468172
-0.2581172 -0.030194843 0.55289459
-0.25534648 -0.030097872 0.55111897
-0.25259346 -0.030001523 0.54935473
-0.24985805 -0.029905789 0.54760176
-0.24714002 -0.029810663 0.54585993
-0.24443923 -0.029716142 0.54412913
-0.24175555 -0.02962222 0.54240936
-0.23908772 -0.029528761 0.54069805
-0.23643684 -0.029435912 0.53899789
-0.2338037 -0.029343786 0.53731096
-0.23118652 -0.029252172 0.53563344
-0.22858562 -0.029161129 0.53396636
-0.22600088 -0.029070651 0.53230965
-0.22343209 -0.028980732 0.53066313
-0.22087917 -0.028891368 0.52902681
-0.21834195 -0.028802555 0.52740055
-0.2158203 -0.028714288 0.52578431
-0.21331401 -0.028626556 0.52417785
-0.21082301 -0.02853936 0.52258122
-0.20834713 -0.028452693 0.52099425
-0.20588626 -0.028366551 0.51941693
-0.20344022 -0.028280927 0.51784909
-0.20100895 -0.028195824 0.51629078
-0.19859222 -0.028111227 0.51474172
-0.19618998 -0.02802714 0.51320201
-0.19380204 -0.027943552 0.51167142
-0.19142818 -0.02786044 0.5101496
-0.18906911 -0.027777925 0.50863868
-0.18672359 -0.027695844 0.50713569
-0.1843916 -0.027614202 0.50564075
-0.18207331 -0.027533038 0.50415456
-0.17976861 -0.02745235 0.50267708
-0.1774774 -0.027372137 0.50120831
-0.1755418 -0.027345708 0.50072438
-0.17433047 -0.027432714 0.50231755
-0.17311138 -0.027520271 0.50392079
-0.17188448 -0.027608389 0.50553429
-0.17064969 -0.027697071 0.50715816
-0.16940701 -0.027786333 0.50879264
-0.16815625 -0.02787617 0.51043761
-0.16689737 -0.027966587 0.51209325
-0.16563033 -0.028057596 0.51375967
-0.16435499 -0.028149199 0.51543701
-0.1630713 -0.0282414 0.51712531
-0.16177918 -0.028334208 0.5188247
-0.16047855 -0.028427627 0.52053529
-0.15916929 -0.028521664 0.52225721
-0.15785135 -0.028616328 0.52399057
-0.15652466 -0.028711623 0.5257355
-0.15518907 -0.028807551 0.52749205
-0.15384454 -0.028904125 0.5292604
-0.15249096 -0.029001346 0.53104061
-0.15112823 -0.029099226 0.53283286
-0.1497563 -0.029197769 0.53463727
-0.148375 -0.029296976 0.53645384
-0.2590524 -0.028349129 0.55489779
-0.25626865 -0.028257759 0.55310935
-0.25350279 -0.028166976 0.55133235
-0.25075462 -0.028076772 0.54956675
-0.24802403 -0.027987149 0.54781246
-0.24531078 -0.02789809 0.54606926
-0.24261478 -0.027809598 0.54433715
-0.2399352 -0.027721597 0.54261464
-0.2372719 -0.027634077 0.54090154
-0.23462695 -0.027547292 0.53920287
-0.231998 -0.027460989 0.53751355
-0.22938548 -0.027375221 0.53583479
-0.22678921 -0.027289988 0.53416646
-0.22420907 -0.027205285 0.53250849
-0.22164489 -0.027121104 0.53086078
-0.21909653 -0.027037444 0.5292232
-0.21656385 -0.026954299 0.52759576
-0.21404669 -0.026871663 0.52597827
-0.2115449 -0.026789529 0.52437061
-0.2090584 -0.026707901 0.52277285
-0.20658699 -0.026626766 0.52118474
-0.20413053 -0.026546123 0.51960623
-0.2016889 -0.026465965 0.51803726
-0.19926199 -0.026386293 0.51647776
-0.19684966 -0.026307097 0.51492763
-0.19445176 -0.026228378 0.51338679
-0.19206885 -0.026150217 0.51185691
-0.18969841 -0.026072294 0.51033163
-0.18734278 -0.02599493 0.50881737
-0.18500254 -0.02591823 0.50731605
-0.18267478 -0.025841797 0.50581998
-0.1803607 -0.025765816 0.50433272
-0.17806022 -0.02569028 0.50285423
-0.17577319 -0.025615187 0.50138438
-0.17425592 -0.025651887 0.50210273
-0.17303711 -0.025733726 0.50370461
-0.17181051 -0.025816087 0.50531673
-0.17057604 -0.025898978 0.50693923
-0.16933364 -0.02598241 0.50857228
-0.16808318 -0.026066376 0.51021582
-0.16682462 -0.026150888 0.51187003
-0.16555789 -0.026235951 0.51353502
-0.16428289 -0.026321568 0.51521087
-0.16299951 -0.026407743 0.51689762
-0.16170774 -0.026494488 0.51859558
-0.16040744 -0.026581805 0.52030468
-0.15909854 -0.026669696 0.52202505
-0.15778096 -0.026758173 0.52375686
-0.15645459 -0.026847238 0.52550018
-0.15511937 -0.026936898 0.52725518
-0.15377522 -0.02702716 0.52902192
-0.15242203 -0.027118029 0.53080058
-0.15105969 -0.027209509 0.53259116
-0.14968814 -0.027301611 0.53439397
-0.14830726 -0.027394336 0.53620893
-0.25719753 -0.026404308 0.55511415
-0.25441864 -0.02631917 0.55332422
-0.25165763 -0.02623458 0.55154586
-0.24891436 -0.026150536 0.54977894
-0.24618857 -0.026067024 0.54802322
-0.24348013 -0.025984047 0.54627872
-0.24078843 -0.025901545 0.54454422
-0.2381129 -0.025819469 0.54281873
-0.23545599 -0.025738105 0.54110813
-0.23281519 -0.025657184 0.5394069
-0.23019092 -0.025576768 0.53771627
-0.22758304 -0.025496855 0.53603619
-0.22499144 -0.025417443 0.53436667
-0.22241591 -0.025338521 0.53270745
-0.21985632 -0.025260087 0.53105849
-0.21731253 -0.025182139 0.52941972
-0.21478441 -0.025104672 0.52779108
-0.21227176 -0.025027676 0.52617234
-0.20977451 -0.024951153 0.52456355
-0.20729248 -0.024875097 0.5229646
-0.20482552 -0.024799502 0.5213753
-0.2023735 -0.024724364 0.51979566
-0.19993633 -0.024649685 0.51822561
-0.19751382 -0.024575453 0.51666498
-0.19510585 -0.024501666 0.51511371
-0.19271231 -0.024428321 0.51357174
-0.19033304 -0.024355413 0.51203895
-0.18796788 -0.024282932 0.51051515
-0.18561658 -0.024210859 0.50899988
-0.18328023 -0.024139348 0.50749648
-0.18095672 -0.024068136 0.50599933
-0.17864691 -0.023997344 0.50451106
-0.17635062 -0.023926968 0.50303149
-0.17418143 -0.023872582 0.5018881
-0.17296292 -0.02394871 0.5034886
-0.1717366 -0.024025328 0.50509936
-0.17050241 -0.024102435 0.50672042
-0.16926032 -0.024180045 0.5083521
-0.16801018 -0.024258154 0.50999421
-0.16675194 -0.024336768 0.51164699
-0.16548552 -0.024415895 0.51331049
-0.16421084 -0.024495538 0.51498491
-0.16292781 -0.024575703 0.51667023
-0.16163635 -0.024656393 0.51836663
-0.16033639 -0.024737613 0.52007419
-0.15902783 -0.024819372 0.52179307
-0.15771063 -0.024901677 0.52352339
-0.1563846 -0.024984522 0.5252651
-0.15504977 -0.025067925 0.52701855
-0.15370597 -0.025151886 0.52878368
-0.15235315 -0.025236411 0.53056073
-0.1509912 -0.025321506 0.53234971
-0.14962004 -0.025407176 0.53415084
-0.14823955 -0.025493428 0.53596413
-0.14684971 -0.02558027 0.53778988
-0.25813311 -0.024537368 0.55713344
-0.25534117 -0.024457965 0.55533057
-0.2525672 -0.024379073 0.55353928
-0.24981108 -0.024300689 0.55175954
-0.24707264 -0.024222808 0.54999119
-0.2443517 -0.024145424 0.54823416
-0.24164717 -0.024068443 0.54648626
-0.23895986 -0.023991955 0.54474956
-0.23629093 -0.023916086 0.54302692
-0.23363815 -0.023840627 0.54131359
-0.23100205 -0.023765644 0.53961104
-0.22838248 -0.023691129 0.53791916
-0.22577928 -0.023617079 0.53623784
-0.2231923 -0.023543492 0.534567
-0.22062141 -0.023470363 0.53290653
-0.21806642 -0.023397686 0.53125638
-0.21552724 -0.023325458 0.52961642
-0.21300365 -0.023253674 0.52798653
-0.21049558 -0.023182331 0.52636665
-0.20800282 -0.023111425 0.52475667
-0.20552525 -0.023040948 0.52315646
-0.20306277 -0.022970902 0.52156603
-0.20061523 -0.022901282 0.51998526
-0.19818246 -0.022832081 0.51841402
-0.19576433 -0.022763295 0.5168522
-0.19336078 -0.022694927 0.51529986
-0.1909716 -0.022626966 0.51375681
-0.18859667 -0.02255941 0.51222289
-0.18623587 -0.022492256 0.51069814
-0.18388884 -0.022425467 0.50918168
-0.1815567 -0.0223592 0.50767702
-0.17923744 -0.022293214 0.5061788
-0.17693186 -0.022227621 0.50468946
-0.17463981 -0.022162413 0.50320888
-0.17288879 -0.02216523 0.50327283
-0.17166275 -0.022236107 0.50488216
-0.17042886 -0.022307443 0.50650185
-0.16918707 -0.022379242 0.5081321
-0.16793723 -0.022451501 0.50977278
-0.16667932 -0.022524232 0.51142418
-0.1654132 -0.022597432 0.5130862
-0.16413884 -0.022671111 0.51475912
-0.16285613 -0.02274527 0.51644295
-0.16156502 -0.022819918 0.51813787
-0.1602654 -0.022895057 0.51984394
-0.15895721 -0.022970695 0.52156132
-0.15764032 -0.023046831 0.52329004
-0.15631469 -0.023123473 0.52503026
-0.1549802 -0.023200629 0.5267821
-0.15363678 -0.0232783 0.52854568
-0.15228435 -0.023356495 0.53032112
-0.15092278 -0.023435215 0.53210849
-0.149552 -0.023514466 0.53390795
-0.14817193 -0.023594256 0.53571963
-0.14678246 -0.023674591 0.53754365
-0.25627038 -0.022583213 0.55735147
-0.25348336 -0.022510106 0.55554718
-0.25071433 -0.022437468 0.55375451
-0.2479631 -0.0223653 0.5519734
-0.24522953 -0.022293594 0.55020368
-0.24251236 -0.022222249 0.5484429
-0.2398129 -0.022151392 0.54669416
-0.2371318 -0.022081099 0.54495937
-0.23446694 -0.022011181 0.54323381
-0.23181893 -0.021941708 0.54151922
-0.22918755 -0.021872671 0.53981537
-0.22657268 -0.021804065 0.53812218
-0.22397415 -0.021735888 0.5364396
-0.22139184 -0.021668138 0.53476751
-0.21882556 -0.021600807 0.53310579
-0.2162752 -0.021533893 0.53145438
-0.21374057 -0.021467393 0.52981317
-0.21122158 -0.021401305 0.52818209
-0.20871803 -0.02133562 0.52656102
-0.20622979 -0.021270338 0.52494985
-0.20375675 -0.021205453 0.52334851
-0.20129876 -0.021140965 0.52175695
-0.19885565 -0.021076865 0.52017498
-0.19642732 -0.021013156 0.51860261
-0.19401361 -0.020949826 0.51703966
-0.19161443 -0.020886881 0.51548618
-0.18922962 -0.020824313 0.513942
-0.18685906 -0.020762118 0.512407
-0.1845026 -0.020700293 0.51088119
-0.18216002 -0.020638822 0.50936407
-0.17983122 -0.020577701 0.50785565
-0.17751697 -0.020517036 0.50635844
-0.17521563 -0.020456648 0.50486803
-0.1729278 -0.020396613 0.50338638
-0.17158899 -0.020448428 0.5046652
-0.17035539 -0.020514 0.50628352
-0.16911387 -0.020579996 0.50791228
-0.16786437 -0.020646419 0.50955158
-0.16660675 -0.020713272 0.5112015
-0.16534095 -0.020780556 0.51286209
-0.16406693 -0.020848284 0.51453358
-0.16278455 -0.020916449 0.51621592
-0.16149376 -0.020985065 0.51790935
-0.1601945 -0.021054136 0.51961398
-0.15888663 -0.021123657 0.52132976
-0.15757011 -0.021193642 0.52305698
-0.15624481 -0.021264087 0.52479559
-0.1549107 -0.021335008 0.52654588
-0.15356766 -0.021406401 0.52830786
-0.1522156 -0.021478275 0.53008169
-0.15085441 -0.021550631 0.53186744
-0.14948404 -0.021623477 0.5336653
-0.14810435 -0.021696817 0.53547531
-0.1467153 -0.021770656 0.53729767
-0.14531675 -0.021845002 0.53913248
-0.25440618 -0.020627528 0.55756968
-0.25162411 -0.020560725 0.55576396
-0.24886 -0.020494353 0.55396992
-0.24611367 -0.020428408 0.55218738
-0.2433843 -0.02036283 0.5504148
-0.24067211 -0.020297647 0.54865289
-0.2379787 -0.020233007 0.54690564
-0.23530166 -0.020168712 0.54516774
-0.23264156 -0.020104827 0.54344088
-0.22999831 -0.020041347 0.54172498
-0.22737166 -0.019978262 0.54001981
-0.2247615 -0.019915577 0.53832537
-0.22216769 -0.019853283 0.53664154
-0.21959004 -0.019791376 0.5349682
-0.21702839 -0.019729855 0.53330523
-0.21448264 -0.019668713 0.53165257
-0.21195263 -0.019607952 0.53001016
-0.20943817 -0.019547563 0.52837783
-0.20693919 -0.019487547 0.52675557
-0.20445548 -0.019427897 0.52514321
-0.20198694 -0.019368611 0.52354068
-0.19953342 -0.019309686 0.52194792
-0.19709478 -0.019251117 0.52036482
-0.1946709 -0.019192906 0.51879132
-0.19226161 -0.019135041 0.51722723
-0.18986683 -0.019077528 0.51567262
-0.1874864 -0.01902036 0.51412731
-0.1851202 -0.018963531 0.51259124
-0.18276806 -0.01890704 0.51106429
-0.18042991 -0.018850885 0.5095464
-0.17810559 -0.018795062 0.50803745
-0.17579527 -0.018739598 0.50653821
-0.17349817 -0.018684419 0.50504673
-0.17151527 -0.018662283 0.50444841
-0.17028198 -0.018722102 0.50606531
-0.16904077 -0.018782308 0.50769269
-0.16779155 -0.018842902 0.50933057
-0.16653425 -0.018903889 0.51097906
-0.16526878 -0.018965269 0.51263821
-0.16399506 -0.019027051 0.51430821
-0.16271301 -0.019089235 0.51598907
-0.16142257 -0.019151829 0.517681
-0.16012363 -0.019214835 0.51938409
-0.15881611 -0.019278256 0.52109838
-0.15749994 -0.019342098 0.52282405
-0.15617502 -0.019406363 0.52456117
-0.15484127 -0.019471059 0.52630991
-0.15349859 -0.019536184 0.52807027
-0.15214691 -0.019601749 0.5298425
-0.15078612 -0.019667754 0.53162664
-0.14941612 -0.019734206 0.53342283
-0.14803685 -0.019801108 0.53523123
-0.14664818 -0.019868465 0.53705192
-0.14525005 -0.019936282 0.53888506
-0.14384234 -0.020004563 0.54073071
-0.25533578 -0.018731195 0.55960703
-0.25254053 -0.018670311 0.55778807
-0.24976343 -0.018609824 0.55598098
-0.24700426 -0.018549725 0.55418551
-0.24426283 -0.018490015 0.5524016
-0.24153781 -0.018430596 0.5506264
-0.23883167 -0.018371666 0.54886585
-0.23614234 -0.018313078 0.5471155
-0.2334701 -0.018254863 0.5453763
-0.23081481 -0.018197019 0.54364812
-0.2281763 -0.018139537 0.54193085
-0.22555438 -0.018082418 0.54022437
-0.22294895 -0.018025661 0.53852868
-0.22035982 -0.017969254 0.53684354
-0.21778683 -0.017913204 0.53516895
-0.21522987 -0.017857499 0.53350478
-0.21268876 -0.017802142 0.53185093
-0.21016333 -0.017747127 0.53020728
-0.20765348 -0.017692449 0.52857375
-0.20515902 -0.017638106 0.52695024
-0.20267986 -0.017584097 0.52533668
-0.20021583 -0.017530419 0.52373302
-0.1977668 -0.017477067 0.52213907
-0.19533262 -0.017424038 0.52055478
-0.19291319 -0.01737133 0.51898015
-0.19050835 -0.017318942 0.51741499
-0.18811798 -0.017266868 0.51585925
-0.1857419 -0.017215103 0.51431274
-0.18338007 -0.017163651 0.5127756
-0.1810323 -0.017112505 0.51124758
-0.17869847 -0.017061662 0.50972861
-0.17637871 -0.017011145 0.50821936
-0.17407233 -0.016960893 0.50671804
-0.1717795 -0.016910935 0.50522554
-0.17020863 -0.016931748 0.50584733
-0.16896771 -0.016986173 0.50747329
-0.1677188 -0.017040947 0.50910974
-0.16646181 -0.017096078 0.51075679
-0.16519666 -0.017151566 0.51241452
-0.16392326 -0.017207414 0.51408303
-0.16264157 -0.01726363 0.51576251
-0.16135143 -0.01732021 0.5174529
-0.16005285 -0.017377166 0.51915449
-0.15874566 -0.017434495 0.52086723
-0.15742986 -0.017492207 0.52259141
-0.15610528 -0.017550299 0.52432692
-0.15477191 -0.01760878 0.52607411
-0.1534296 -0.017667651 0.52783293
-0.15207829 -0.017726917 0.52960354
-0.15071788 -0.017786583 0.53138608
-0.14934829 -0.017846651 0.53318065
-0.14796941 -0.017907126 0.53498739
-0.14658114 -0.017968012 0.5368064
-0.14518343 -0.018029315 0.53863788
-0.14377613 -0.018091038 0.54048187
-0.25346366 -0.016766077 0.55982697
-0.25067341 -0.016711561 0.55800664
-0.24790129 -0.016657399 0.55619812
-0.24514705 -0.016603585 0.55440128
-0.24240975 -0.016550064 0.55261415
-0.23969075 -0.016496934 0.55084014
-0.23698901 -0.016444135 0.54907715
-0.23430453 -0.016391676 0.54732549
-0.23163716 -0.01633955 0.54558504
-0.22898665 -0.016287753 0.54385549
-0.22635293 -0.016236285 0.54213697
-0.22373575 -0.01618514 0.54042917
-0.22113505 -0.016134316 0.53873217
-0.21855061 -0.01608381 0.53704578
-0.21598232 -0.016033622 0.53536993
-0.21342999 -0.015983744 0.53370446
-0.2108935 -0.015934175 0.53204936
-0.2083727 -0.015884914 0.53040451
-0.20586744 -0.015835956 0.52876979
-0.20337756 -0.015787298 0.52714509
-0.20090292 -0.01573894 0.52553034
-0.19844343 -0.015690876 0.52392548
-0.19599888 -0.015643103 0.52233034
-0.1935692 -0.015595622 0.52074492
-0.19115423 -0.015548429 0.51916915
-0.1887538 -0.01550152 0.5176028
-0.18636784 -0.015454893 0.51604593
-0.18399616 -0.015408546 0.51449835
-0.18163869 -0.015362476 0.51296008
-0.17929527 -0.015316682 0.51143098
-0.17696576 -0.015271157 0.50991088
-0.17465009 -0.015225905 0.5083999
-0.17234804 -0.015180916 0.50689769
-0.17013532 -0.015142934 0.50562948
-0.16889472 -0.015191589 0.50725406
-0.16764611 -0.015240556 0.50888908
-0.16638944 -0.015289839 0.5105347
-0.1651246 -0.015339443 0.512191
-0.16385153 -0.015389371 0.51385808
-0.16257013 -0.015439622 0.51553601
-0.16128036 -0.015490204 0.51722497
-0.1599821 -0.015541119 0.51892501
-0.15867527 -0.015592367 0.52063626
-0.15735982 -0.015643958 0.52235889
-0.15603562 -0.01569589 0.52409291
-0.15470259 -0.015748167 0.52583849
-0.15336066 -0.015800796 0.52759576
-0.15200973 -0.015853776 0.52936476
-0.1506497 -0.015907111 0.53114569
-0.1492805 -0.015960809 0.53293866
-0.14790203 -0.01601487 0.53474379
-0.14651418 -0.016069297 0.53656113
-0.14511685 -0.016124096 0.53839087
-0.14370999 -0.016179271 0.54023319
-0.14229344 -0.016234823 0.54208809
-0.25159007 -0.014799416 0.56004715
-0.24880482 -0.014751274 0.55822533
-0.24603766 -0.014703446 0.55641538
-0.24328789 -0.014655897 0.55461603
-0.24055603 -0.014608666 0.55282867
-0.23784183 -0.014561744 0.55105305
-0.23514499 -0.014515122 0.54928875
-0.23246536 -0.014468798 0.54753572
-0.2298028 -0.01442277 0.54579389
-0.22715709 -0.014377031 0.54406303
-0.22452812 -0.014331583 0.54234314
-0.22191575 -0.014286422 0.54063416
-0.21931978 -0.014241544 0.53893584
-0.21674006 -0.014196947 0.53724819
-0.21417643 -0.014152627 0.53557104
-0.21162878 -0.014108585 0.53390437
-0.20909692 -0.014064816 0.53224802
-0.20658074 -0.014021317 0.53060192
-0.20408006 -0.013978086 0.52896595
-0.20159476 -0.013935122 0.52734005
-0.19912471 -0.013892421 0.52572417
-0.19666971 -0.013849979 0.52411807
-0.19422968 -0.013807798 0.52252179
-0.19180448 -0.013765872 0.52093524
-0.18939397 -0.0137242 0.51935828
-0.18699798 -0.013682779 0.51779079
-0.18461643 -0.013641609 0.51623279
-0.18224916 -0.013600684 0.51468408
-0.17989606 -0.013560005 0.51314467
-0.17755701 -0.013519569 0.5116145
-0.17523183 -0.013479372 0.51009333
-0.17292045 -0.013439413 0.50858122
-0.17062274 -0.013399692 0.50707805
-0.16882178 -0.013398554 0.50703502
-0.1675735 -0.013441724 0.50866866
-0.16631712 -0.013485173 0.51031286
-0.16505261 -0.013528903 0.51196772
-0.16377985 -0.013572916 0.51363331
-0.1624988 -0.013617218 0.51530981
-0.16120934 -0.013661809 0.51699722
-0.15991144 -0.013706695 0.51869583
-0.15860495 -0.013751875 0.52040553
-0.15728985 -0.013797355 0.52212662
-0.155966 -0.013843136 0.52385908
-0.15463334 -0.013889222 0.52560312
-0.15329178 -0.013935616 0.52735877
-0.15194122 -0.013982321 0.52912623
-0.15058158 -0.014029341 0.53090554
-0.14921278 -0.014076678 0.5326969
-0.1478347 -0.014124335 0.53450036
-0.14644726 -0.014172315 0.53631604
-0.14505035 -0.014220622 0.53814411
-0.1436439 -0.014269262 0.53998476
-0.14222778 -0.014318233 0.54183799
-0.25251347 -0.012873235 0.56210262
-0.24971502 -0.012831206 0.56026745
-0.24693477 -0.012789451 0.5584442
-0.24417205 -0.012747939 0.55663162
-0.24142759 -0.012706716 0.55483162
-0.23870078 -0.012665755 0.55304313
-0.23599145 -0.012625057 0.55126607
-0.23329952 -0.012584621 0.54950047
-0.23062475 -0.012544442 0.54774606
-0.22796701 -0.01250452 0.54600286
-0.22532615 -0.012464851 0.54427075
-0.22270198 -0.012425432 0.54254955
-0.22009434 -0.012386261 0.5408392
-0.21750312 -0.012347339 0.53913963
-0.21492812 -0.012308659 0.53745073
-0.2123692 -0.012270221 0.53577232
-0.20982622 -0.012232022 0.53410441
-0.20729901 -0.01219406 0.5324468
-0.20478743 -0.012156332 0.53079945
-0.20229137 -0.012118838 0.52916229
-0.19981065 -0.012081575 0.5275352
-0.19734514 -0.012044539 0.52591807
-0.1948947 -0.01200773 0.52431083
-0.19245918 -0.011971145 0.52271336
-0.19003849 -0.011934784 0.52112567
-0.18763241 -0.011898641 0.51954752
-0.18524088 -0.011862717 0.51797891
-0.18286376 -0.01182701 0.51641977
-0.18050091 -0.011791517 0.51486999
-0.17815217 -0.011756235 0.51332945
-0.17545271 -0.011696847 0.51073629
-0.17251988 -0.01162051 0.50740308
-0.16998893 -0.011569927 0.50519443
-0.16874893 -0.01160707 0.50681621
-0.16750094 -0.01164445 0.50844842
-0.16624486 -0.011682072 0.51009113
-0.16498066 -0.011719938 0.51174456
-0.16370824 -0.011758051 0.51340872
-0.16242751 -0.011796412 0.51508373
-0.1611384 -0.011835024 0.51676971
-0.15984082 -0.01187389 0.51846677
-0.15853471 -0.011913013 0.52017504
-0.15721995 -0.011952394 0.52189457
-0.15589646 -0.011992035 0.52362549
-0.15456416 -0.012031941 0.52536798
-0.15322296 -0.012072111 0.52712202
-0.1518728 -0.012112554 0.52888793
-0.15051353 -0.012153266 0.53066558
-0.14914511 -0.012194254 0.53245533
-0.14776744 -0.01223552 0.53425717
-0.14638041 -0.012277067 0.53607124
-0.14498392 -0.012318894 0.53789765
-0.14357787 -0.01236101 0.53973657
-0.14216219 -0.012403412 0.54158807
-0.14073676 -0.012446107 0.54345232
-0.25063187 -0.010897038 0.56232452
-0.24783847 -0.010861447 0.56048793
-0.24506283 -0.010826069 0.5586623
-0.2423055 -0.010790933 0.55684918
-0.23956594 -0.010756022 0.55504763
-0.23684405 -0.010721336 0.5532577
-0.23413967 -0.010686873 0.55147928
-0.23145264 -0.010652632 0.54971236
-0.22878273 -0.010618608 0.54795659
-0.22612986 -0.010584801 0.54621208
-0.2234938 -0.01055121 0.5444786
-0.22087441 -0.010517829 0.54275608
-0.21827158 -0.010484661 0.54104447
-0.21568508 -0.010451701 0.5393436
-0.21311481 -0.010418947 0.53765339
-0.21056059 -0.010386397 0.53597373
-0.20802228 -0.01035405 0.5343045
-0.20549974 -0.010321905 0.5326457
-0.20299281 -0.010289959 0.53099716
-0.20050134 -0.010258208 0.52935874
-0.19802523 -0.010226655 0.52773046
-0.19556427 -0.010195293 0.52611214
-0.19311836 -0.010164125 0.52450371
-0.19068739 -0.010133146 0.52290511
-0.18798788 -0.010087155 0.52053177
-0.1849158 -0.010020068 0.51706988
-0.18188432 -0.0099538686 0.51365376
-0.17889263 -0.0098885372 0.51028246
-0.17593995 -0.009824058 0.50695509
-0.17302553 -0.0097604143 0.50367087
-0.17114766 -0.0097545292 0.50336719
-0.16991583 -0.0097857285 0.50497717
-0.16867614 -0.0098171299 0.50659758
-0.16742845 -0.0098487316 0.50822836
-0.1661727 -0.009880539 0.50986969
-0.1649088 -0.0099125514 0.51152164
-0.16363671 -0.0099447723 0.51318437
-0.1623563 -0.0099772029 0.51485789
-0.16106753 -0.010009847 0.51654243
-0.15977028 -0.010042704 0.51823795
-0.15846451 -0.010075779 0.51994473
-0.15715009 -0.010109071 0.52166271
-0.15582697 -0.010142584 0.52339214
-0.15449503 -0.01017632 0.52513301
-0.15315422 -0.010210282 0.52688557
-0.15180442 -0.01024447 0.52864981
-0.15044555 -0.010278888 0.53042591
-0.14907752 -0.010313539 0.53221399
-0.14770024 -0.010348423 0.53401417
-0.14631361 -0.010383546 0.53582662
-0.14491752 -0.010418906 0.5376513
-0.14351191 -0.010454509 0.53948855
-0.14209665 -0.010490356 0.54133838
-0.14067164 -0.010526449 0.54320091
-0.24874881 -0.00891928 0.56254667
-0.24596038 -0.0088901343 0.5607084
-0.2431898 -0.0088611664 0.5588814
-0.24043742 -0.0088323951 0.55706674
-0.23770285 -0.0088038091 0.55526382
-0.23498592 -0.0087754074 0.55347252
-0.23228645 -0.0087471893 0.55169272
-0.22960429 -0.00871915 0.54992431
-0.22693931 -0.0086912923 0.54816729
-0.22429127 -0.0086636115 0.54642141
-0.22166005 -0.0086361058 0.54468662
-0.21904548 -0.0086087743 0.54296279
-0.21644741 -0.008581616 0.54124987
-0.21386568 -0.0085546272 0.53954768
-0.21130015 -0.0085278088 0.53785622
-0.20875062 -0.0085011562 0.53617525
-0.20621701 -0.0084746713 0.53450483
-0.20369914 -0.0084483512 0.53284478
-0.20101328 -0.0084145097 0.53071034
-0.19779322 -0.0083574597 0.52711219
-0.19461653 -0.0083011789 0.52356249
-0.19148237 -0.0082456516 0.52006036
-0.18838984 -0.0081908619 0.51660472
-0.18533811 -0.0081367949 0.51319468
-0.18232642 -0.0080834376 0.50982934
-0.17935397 -0.008030775 0.50650787
-0.17642002 -0.0079787951 0.50322944
-0.17352381 -0.0079274839 0.49999321
-0.17229801 -0.0079522161 0.50155312
-0.17107432 -0.0079775583 0.50315148
-0.16984279 -0.0080030635 0.50476009
-0.16860339 -0.0080287326 0.50637907
-0.16735601 -0.0080545675 0.50800848
-0.16610056 -0.0080805682 0.50964838
-0.16483702 -0.0081067383 0.51129895
-0.16356523 -0.008133078 0.5129602
-0.16228515 -0.008159589 0.51463228
-0.16099671 -0.0081862733 0.51631528
-0.15969981 -0.0082131326 0.51800936
-0.15839438 -0.0082401698 0.51971459
-0.15708032 -0.008267385 0.52143109
-0.15575753 -0.0082947798 0.52315891
-0.15442598 -0.0083223581 0.52489829
-0.15308553 -0.0083501199 0.52664924
-0.15173611 -0.008378068 0.52841192
-0.15037762 -0.0084062023 0.53018641
-0.14900999 -0.0084345276 0.53197289
-0.14763311 -0.0084630437 0.53377146
-0.14624687 -0.0084917536 0.53558218
-0.14485121 -0.0085206591 0.53740531
-0.143446 -0.008549762 0.53924084
-0.14203116 -0.0085790642 0.54108894
-0.1406066 -0.0086085675 0.54294974
-0.13917221 -0.0086382758 0.54482347
-0.24966586 -0.0069627925 0.56462055
-0.2468642 -0.0069399574 0.56276882
-0.2440806 -0.0069172638 0.56092858
-0.24131525 -0.0068947212 0.55910057
-0.2385679 -0.0068723261 0.55728453
-0.23583831 -0.0068500754 0.55548018
-0.23312633 -0.0068279677 0.55368745
-0.23043181 -0.0068060029 0.55190629
-0.22775458 -0.0067841788 0.55013657
-0.22509444 -0.0067624939 0.54837811
-0.22245128 -0.0067409477 0.54663092
-0.21982488 -0.006719538 0.54489475
-0.21721512 -0.0066982638 0.54316962
-0.21455824 -0.0066751456 0.54129493
-0.21118075 -0.006628992 0.5375523
-0.20784967 -0.0065834736 0.53386116
-0.20456399 -0.006538575 0.53022027
-0.20132285 -0.0064942855 0.52662879
-0.1981253 -0.0064505916 0.52308559
-0.19497049 -0.0064074812 0.51958972
-0.19185759 -0.0063649439 0.51614034
-0.18878573 -0.0063229669 0.51273638
-0.18575415 -0.0062815412 0.50937712
-0.18276201 -0.0062406543 0.50606155
-0.17980856 -0.0062002949 0.50278878
-0.17689309 -0.0061604558 0.49955818
-0.17464812 -0.0061434014 0.4981752
-0.17344013 -0.0061628474 0.4997521
-0.17222445 -0.0061824163 0.50133896
-0.17100103 -0.0062021101 0.50293595
-0.16976982 -0.006221931 0.50454324
-0.16853073 -0.006241879 0.50616086
-0.16728362 -0.0062619541 0.50778878
-0.16602851 -0.0062821601 0.50942731
-0.16476525 -0.0063024964 0.51107639
-0.1634938 -0.0063229646 0.5127362
-0.16221406 -0.0063435663 0.5144068
-0.16092595 -0.0063643032 0.51608837
-0.15962939 -0.0063851755 0.51778096
-0.15832432 -0.0064061861 0.5194847
-0.1570106 -0.0064273342 0.52119964
-0.15568818 -0.0064486233 0.52292597
-0.15435697 -0.006470053 0.52466375
-0.15301691 -0.0064916261 0.52641314
-0.15166785 -0.0065133437 0.52817422
-0.15030976 -0.0065352069 0.52994716
-0.14894252 -0.0065572178 0.53173202
-0.14756602 -0.0065793768 0.53352892
-0.1461802 -0.0066016861 0.53533804
-0.14478494 -0.0066241473 0.53715944
-0.14338018 -0.0066467631 0.53899336
-0.14196576 -0.006669532 0.54083973
-0.14054163 -0.0066924584 0.54269886
-0.13954554 -0.0067366818 0.54628497
-0.24777472 -0.0049753957 0.56484449
-0.24497794 -0.0049590678 0.56299078
-0.24219953 -0.0049428474 0.56114936
-0.23943922 -0.0049267332 0.55931991
-0.23669687 -0.0049107233 0.55750239
-0.2339723 -0.0048948177 0.55569667
-0.23126529 -0.0048790146 0.55390257
-0.22857572 -0.0048633134 0.55212003
-0.22510932 -0.0048306719 0.54841435
-0.22161381 -0.0047968361 0.54457301
-0.21816695 -0.0047634705 0.54078513
-0.21476768 -0.0047305659 0.53704953
-0.21141508 -0.0046981131 0.53336525
-0.20810816 -0.0046661021 0.52973115
-0.20484599 -0.0046345247 0.52614623
-0.20162769 -0.004603372 0.52260953
-0.19845234 -0.0045726346 0.51911998
-0.19531913 -0.0045423056 0.5156768
-0.19222721 -0.0045123762 0.51227897
-0.18917577 -0.0044828383 0.50892562
-0.18616404 -0.0044536851 0.50561595
-0.1831912 -0.0044249082 0.50234896
-0.18025655 -0.004396501 0.49912399
-0.1773593 -0.0043684556 0.49594006
-0.17577419 -0.004372492 0.4963983
-0.17457406 -0.004386283 0.49796394
-0.17336635 -0.0044001611 0.49953949
-0.17215095 -0.0044141272 0.50112504
-0.17092782 -0.0044281823 0.50272065
-0.16969693 -0.0044423277 0.50432658
-0.16845809 -0.0044565634 0.5059427
-0.16721132 -0.0044708913 0.50756931
-0.16595653 -0.0044853115 0.50920641
-0.16469358 -0.0044998247 0.51085407
-0.16342245 -0.0045144325 0.51251245
-0.16214304 -0.0045291353 0.51418161
-0.16085526 -0.004543934 0.51586169
-0.15955903 -0.0045588296 0.51755273
-0.1582543 -0.0045738234 0.51925498
-0.15694094 -0.0045889164 0.52096844
-0.15561889 -0.0046041091 0.52269322
-0.15428804 -0.0046194023 0.52442944
-0.15294835 -0.0046347985 0.52617729
-0.15159966 -0.0046502966 0.52793676
-0.15024196 -0.0046658991 0.52970809
-0.1488751 -0.0046816068 0.53149134
-0.14749901 -0.0046974206 0.53328663
-0.14611357 -0.0047133411 0.53509408
-0.14471875 -0.0047293711 0.53691387
-0.14331439 -0.0047455095 0.53874606
-0.14191398 -0.0047622141 0.5406425
-0.1410668 -0.0047981902 0.54472679
-0.14020681 -0.0048347181 0.54887366
-0.2458819 -0.0029864197 0.56506819
-0.2430903 -0.0029766159 0.56321317
-0.23961237 -0.0029581776 0.55972439
-0.23594163 -0.0029370328 0.55572355
-0.23232301 -0.0029161882 0.55177951
-0.22875538 -0.0028956376 0.54789108
-0.22523767 -0.0028753744 0.54405701
-0.22176886 -0.0028553931 0.54027629
-0.21834792 -0.0028356872 0.53654772
-0.2149739 -0.0028162519 0.53287029
-0.2116458 -0.0027970811 0.52924293
-0.2083627 -0.0027781692 0.52566457
-0.20512369 -0.0027595116 0.5221343
-0.2019279 -0.0027411028 0.51865113
-0.19877446 -0.0027229378 0.51521409
-0.19566257 -0.0027050124 0.5118224
-0.19259137 -0.0026873213 0.50847501
-0.18956007 -0.0026698601 0.50517112
-0.1865679 -0.0026526242 0.50190985
-0.18361412 -0.0026356094 0.49869046
-0.18069801 -0.0026188118 0.49551213
-0.1780771 -0.0026060063 0.4930892
-0.17689222 -0.0026141708 0.494634
-0.1756999 -0.0026223867 0.49618855
-0.17450005 -0.002630654 0.49775285
-0.17329262 -0.002638974 0.49932706
-0.17207751 -0.0026473464 0.50091124
-0.17085469 -0.0026557723 0.50250554
-0.16962406 -0.0026642522 0.50411004
-0.16838555 -0.0026727866 0.50572485
-0.16713908 -0.0026813757 0.50735003
-0.16588458 -0.0026900205 0.5089857
-0.16462196 -0.0026987207 0.51063192
-0.16335116 -0.0027074779 0.51228887
-0.16207206 -0.0027162917 0.51395655
-0.16078462 -0.002725163 0.51563513
-0.15948874 -0.0027340928 0.51732475
-0.15818433 -0.002743081 0.51902544
-0.15687135 -0.002752129 0.52073741
-0.15554965 -0.0027612364 0.52246064
-0.15421918 -0.0027704046 0.52419537
-0.15287983 -0.0027796335 0.52594161
-0.15153155 -0.0027889241 0.52769953
-0.15017422 -0.0027982772 0.52946925
-0.14880775 -0.0028076933 0.53125089
-0.14743206 -0.002817173 0.53304458
-0.14604704 -0.002826717 0.53485042
-0.14465261 -0.0028363257 0.53666848
-0.14341292 -0.0028492631 0.53911644
-0.14257942 -0.0028707266 0.5431776
-0.14173336 -0.0028925175 0.5473007
-0.1408744 -0.0029146429 0.55148709
-0.24706654 -0.00099223515 0.5632301
-0.24331941 -0.00098509877 0.55917925
-0.23962578 -0.00097806437 0.55518627
-0.23598449 -0.00097112957 0.5512498
-0.2323945 -0.0009642925 0.54736882
-0.22885467 -0.00095755089 0.54354203
-0.22536403 -0.00095090305 0.53976846
-0.22192149 -0.00094434677 0.53604686
-0.2185261 -0.00093788025 0.53237623
-0.21517691 -0.00093150174 0.52875555
-0.21187297 -0.00092520943 0.5251838
-0.20861335 -0.00091900158 0.52165997
-0.20539717 -0.00091287633 0.51818305
-0.20222361 -0.00090683234 0.51475227
-0.19909178 -0.0009008678 0.51136655
-0.19600089 -0.0008949812 0.50802511
-0.19295013 -0.00088917109 0.50472707
-0.18993871 -0.00088343583 0.50147152
-0.1869659 -0.0008777742 0.49825776
-0.18403096 -0.0008721847 0.49508494
-0.18113314 -0.00086666574 0.49195218
-0.17917962 -0.00086560205 0.49134839
-0.17800236 -0.00086830417 0.49288222
-0.17681774 -0.0008710234 0.49442574
-0.1756257 -0.00087375962 0.49597895
-0.17442611 -0.00087651314 0.49754193
-0.17321897 -0.00087928411 0.49911484
-0.17200415 -0.00088207255 0.50069767
-0.17078161 -0.0008848788 0.50229061
-0.16955128 -0.00088770303 0.50389373
-0.16831309 -0.00089054537 0.50550717
-0.1670669 -0.00089340593 0.50713092
-0.16581272 -0.00089628494 0.50876516
-0.16455042 -0.00089918263 0.51041001
-0.16327994 -0.00090209907 0.51206547
-0.16200116 -0.00090503448 0.51373172
-0.16071405 -0.00090798899 0.51540881
-0.15941851 -0.00091096293 0.51709694
-0.15811446 -0.00091395638 0.51879615
-0.1568018 -0.00091696961 0.52050656
-0.15548047 -0.00092000276 0.5222283
-0.15415035 -0.00092305598 0.52396142
-0.15281141 -0.00092612969 0.52570617
-0.15146348 -0.00092922378 0.52746248
-0.15010653 -0.00093233876 0.52923065
-0.14874046 -0.00093547459 0.53101069
-0.14736515 -0.00093863159 0.5328027
-0.14598054 -0.00094180997 0.53460687
-0.14490341 -0.00094708108 0.53759897
-0.14408349 -0.00095419527 0.54163724
-0.14325121 -0.00096141751 0.54573685
-0.14240626 -0.0009687501 0.5498991
-0.25078934 0.00099126226 0.56267786
-0.24701908 0.00098413974 0.55863488
-0.24330264 0.00097711908 0.55464965
-0.23963885 0.00097019778 0.55072087
-0.23602659 0.00096337381 0.54684734
-0.23246482 0.00095664535 0.543028
-0.22895241 0.00095000997 0.53926152
-0.22548836 0.00094346597 0.5355469
-0.22207174 0.00093701156 0.53188312
-0.21870153 0.0009306448 0.52826911
-0.21537679 0.00092436397 0.52470386
-0.21209668 0.00091816741 0.52118647
-0.2088602 0.00091205328 0.51771587
-0.20566657 0.00090602017 0.51429123
-0.20251492 0.00090006628 0.51091158
-0.19940439 0.0008941901 0.50757605
-0.19633423 0.00088839018 0.50428379
-0.19330363 0.00088266499 0.50103396
-0.19031185 0.00087701314 0.49782574
-0.18735816 0.00087143329 0.49465841
-0.1844418 0.00086592394 0.4915311
-0.18156207 0.00086048373 0.48844305
-0.18027435 0.00086255668 0.48961973
-0.17910467 0.00086524 0.49114287
-0.17792767 0.00086793985 0.49267542
-0.17674333 0.00087065675 0.49421763
-0.17555153 0.0008733907 0.49576953
-0.17435224 0.00087614189 0.4973312
-0.17314537 0.00087891048 0.49890277
-0.17193082 0.00088169653 0.50048423
-0.1707086 0.00088450045 0.50207585
-0.16947855 0.0008873223 0.50367761
-0.16824067 0.00089016225 0.50528967
-0.16699478 0.00089302025 0.50691199
-0.16574092 0.00089589687 0.50854486
-0.16447893 0.00089879194 0.51018822
-0.16320875 0.00090170582 0.51184225
-0.16193032 0.00090463873 0.51350707
-0.16064353 0.00090759061 0.51518267
-0.15934834 0.00091056194 0.51686931
-0.15804462 0.00091355277 0.51856703
-0.15673234 0.00091656338 0.52027595
-0.15541135 0.00091959379 0.52199614
-0.15408161 0.00092264439 0.52372777
-0.15274301 0.00092571526 0.52547091
-0.15139548 0.00092880672 0.52722573
-0.15003891 0.00093191874 0.52899224
-0.14867322 0.00093505176 0.53077066
-0.14729832 0.00093820586 0.53256106
-0.14638554 0.00094442279 0.53609002
-0.14557903 0.00095149683 0.54010552
-0.14476039 0.00095867802 0.54418182
-0.14392935 0.00096596882 0.54832035
-0.14308558 0.00097337132 0.5525223
-0.25071159 0.0029495482 0.55809164
-0.2469724 0.0029285264 0.55411404
-0.24328615 0.0029078026 0.55019283
-0.23965172 0.0028873701 0.54632676
-0.23606798 0.0028672225 0.54251456
-0.23253393 0.0028473542 0.53875524
-0.22904851 0.0028277594 0.53504765
-0.22561073 0.0028084323 0.53139073
-0.22221965 0.0027893679 0.52778351
-0.21887428 0.0027705603 0.52422488
-0.21557365 0.0027520042 0.52071381
-0.21231699 0.0027336953 0.51724952
-0.20910338 0.0027156281 0.51383102
-0.20593195 0.0026977984 0.5104574
-0.20280188 0.0026802011 0.50712776
-0.19971238 0.0026628319 0.50384128
-0.19666269 0.0026456865 0.50059718
-0.19365202 0.0026287606 0.49739456
-0.19067962 0.0026120497 0.49423265
-0.18774478 0.0025955499 0.49111071
-0.18484676 0.0025792571 0.4880279
-0.18251644 0.002570654 0.4864001
-0.18136141 0.0025785982 0.48790324
-0.18019921 0.0025865915 0.48941565
-0.17902979 0.0025946347 0.49093753
-0.17785305 0.0026027274 0.49246877
-0.17666896 0.0026108713 0.4940097
-0.17547745 0.0026190665 0.49556032
-0.17427842 0.0026273129 0.49712065
-0.17307183 0.0026356117 0.49869087
-0.17185758 0.0026439629 0.50027102
-0.17063564 0.0026523673 0.50186127
-0.16940589 0.0026608256 0.50346166
-0.16816828 0.0026693379 0.5050723
-0.16692275 0.0026779049 0.5066933
-0.16566916 0.0026865269 0.50832468
-0.16440748 0.0026952047 0.50996661
-0.16313764 0.0027039389 0.51161927
-0.16185954 0.0027127299 0.5132826
-0.1605731 0.0027215779 0.51495677
-0.15927823 0.0027304839 0.51664191
-0.15797487 0.0027394486 0.51833814
-0.15666291 0.0027484722 0.52004552
-0.1553423 0.0027575556 0.52176422
-0.15401292 0.0027666993 0.5234943
-0.1526747 0.0027759036 0.52523589
-0.15132754 0.0027851695 0.5269891
-0.14997137 0.0027944974 0.52875406
-0.14864092 0.0028045457 0.53065532
-0.14785938 0.0028253386 0.53458959
-0.14706615 0.0028464417 0.53858256
-0.14626099 0.0028678626 0.54263568
-0.14544371 0.0028896101 0.54675061
-0.14461397 0.0029116906 0.55092847
-0.14377142 0.0029341108 0.55517066
-0.25063509 0.0048761689 0.55357951
-0.24692647 0.0048416955 0.54966581
-0.24326995 0.0048077065 0.54580712
-0.23966436 0.0047741905 0.54200214
-0.23610874 0.0047411392 0.53824991
-0.23260199 0.004708542 0.53454924
-0.22914311 0.00467639 0.53089911
-0.22573118 0.0046446747 0.52729851
-0.2223652 0.0046133855 0.52374637
-0.21904428 0.0045825164 0.52024186
-0.21576749 0.0045520565 0.51678383
-0.21253398 0.0045219995 0.51337153
-0.2093429 0.0044923369 0.51000398
-0.20619339 0.0044630603 0.50668031
-0.20308462 0.0044341623 0.50339955
-0.20001592 0.0044056373 0.50016117
-0.19698639 0.0043774755 0.49696404
-0.19399537 0.0043496718 0.49380758
-0.19104211 0.0043222196 0.49069101
-0.18812589 0.0042951116 0.4876135
-0.18524602 0.0042683417 0.48457435
-0.18358856 0.0042695017 0.48470604
-0.18244086 0.0042826496 0.48619869
-0.18128608 0.0042958786 0.48770058
-0.18012413 0.00430919 0.48921177
-0.17895494 0.0043225833 0.49073228
-0.17777848 0.0043360605 0.49226233
-0.17659466 0.0043496224 0.49380195
-0.17540342 0.0043632691 0.49535125
-0.17420466 0.0043770019 0.49691027
-0.17299837 0.0043908213 0.49847919
-0.1717844 0.0044047283 0.500058
-0.17056274 0.0044187238 0.50164688
-0.16933329 0.0044328086 0.50324589
-0.16809599 0.0044469838 0.50485516
-0.16685073 0.0044612498 0.50647473
-0.16559748 0.0044756075 0.50810474
-0.16433613 0.0044900584 0.5097453
-0.1630666 0.0045046019 0.51139641
-0.16178884 0.0045192409 0.51305836
-0.16050272 0.0045339749 0.51473105
-0.15920821 0.0045488058 0.51641476
-0.15790518 0.004563733 0.51810944
-0.15659359 0.0045787599 0.51981539
-0.1552733 0.0045938846 0.52153248
-0.15394431 0.0046091112 0.52326107
-0.15260644 0.0046244375 0.52500105
-0.15125966 0.0046398668 0.52675271
-0.1500936 0.0046612918 0.52918506
-0.14932497 0.0046957536 0.53309739
-0.14854489 0.0047307289 0.53706807
-0.1477531 0.0047662291 0.5410983
-0.14694946 0.0048022699 0.54518992
-0.14613353 0.0048388587 0.54934376
-0.14530511 0.0048760106 0.55356151
-0.14446387 0.0049137371 0.55784452
-0.2542907 0.0068200575 0.55304599
-0.25055984 0.0067718877 0.54913986
-0.24688128 0.006724393 0.54528844
-0.24325395 0.0066775596 0.54149067
-0.23967682 0.0066313744 0.53774548
-0.23614882 0.0065858234 0.53405172
-0.23266897 0.0065408945 0.53040838
-0.22923627 0.0064965743 0.5268144
-0.22584978 0.006452851 0.52326882
-0.22250856 0.0064097117 0.51977062
-0.21921171 0.0063671456 0.51631886
-0.21595839 0.0063251411 0.51291269
-0.21274771 0.0062836874 0.50955117
-0.20957883 0.0062427735 0.50623339
-0.20645092 0.0062023886 0.50295854
-0.20336325 0.0061625228 0.49972579
-0.20031503 0.0061231665 0.49653435
-0.19730544 0.0060843085 0.49338332
-0.19433384 0.0060459413 0.49027207
-0.19139943 0.0060080537 0.48719972
-0.18850161 0.0059706392 0.48416573
-0.18578674 0.0059383889 0.48155051
-0.18465325 0.0059565566 0.48302376
-0.18351281 0.0059748357 0.48450604
-0.18236536 0.0059932279 0.48599747
-0.18121082 0.0060117333 0.4874981
-0.18004912 0.0060303533 0.48900801
-0.17888018 0.0060490887 0.49052727
-0.17770399 0.0060679414 0.49205607
-0.17652044 0.0060869115 0.49359438
-0.17532946 0.0061060009 0.49514237
-0.17413098 0.0061252103 0.49670008
-0.17292495 0.0061445413 0.49826765
-0.17171127 0.0061639943 0.49984512
-0.17048991 0.0061835716 0.50143266
-0.16926074 0.0062032733 0.5030303
-0.16802375 0.0062231016 0.5046382
-0.16677882 0.0062430571 0.5062564
-0.16552585 0.0062631406 0.50788498
-0.16426483 0.006283354 0.50952411
-0.16299562 0.0063036978 0.51117384
-0.16171816 0.0063241739 0.51283425
-0.1604324 0.0063447841 0.51450557
-0.1591382 0.0063655283 0.51618773
-0.15783554 0.006386409 0.51788098
-0.15652429 0.0064074267 0.51958531
-0.15520439 0.006428584 0.52130097
-0.15387572 0.0064498805 0.52302796
-0.15253824 0.0064713196 0.52476645
-0.15153827 0.0065077785 0.52772295
