# .PCD v0.7 - Point Cloud Data file format
VERSION 0.7
FIELDS x y z
SIZE 4 4 4
TYPE F F F
COUNT 1 1 1
WIDTH 1438
HEIGHT 1
VIEWPOINT 0 0 0 1 0 0 0
POINTS 1438
DATA ascii
0.3823674 0.055521842 0.59464705
0.38383716 0.055431526 0.59367973
0.38530216 0.055341501 0.59271556
0.38676241 0.055251773 0.59175456
0.38821793 0.055162333 0.59079665
0.38966876 0.055073183 0.58984184
0.39111486 0.05498432 0.58889008
0.39255634 0.05489574 0.58794141
0.39399317 0.054807451 0.58699578
0.39542538 0.054719441 0.58605319
0.39685297 0.05463171 0.58511358
0.39827606 0.05454427 0.58417708
0.39969456 0.054457098 0.58324349
0.40110853 0.05437021 0.58231288
0.40251803 0.054283604 0.58138531
0.403923 0.054197263 0.58046061
0.40532336 0.054111179 0.57953864
0.40671933 0.054025374 0.57861966
0.40811089 0.053939842 0.5777036
0.40949801 0.053854577 0.57679039
0.4108808 0.053769585 0.57588011
0.41225922 0.05368486 0.57497269
0.41363329 0.053600401 0.57406813
0.41500297 0.053516198 0.57316631
0.41636845 0.053432271 0.57226741
0.41772968 0.053348608 0.57137138
0.41908655 0.053265195 0.57047802
0.42463499 0.053712782 0.57527173
0.43576652 0.054858968 0.58754754
0.44739258 0.05605628 0.60037094
0.46456176 0.057933584 0.62047714
0.47222248 0.058613095 0.62775481
0.48551232 0.059981707 0.64241284
0.38050494 0.057652265 0.59501094
0.38197863 0.057558425 0.59404242
0.38344753 0.057464886 0.59307706
0.38491166 0.057371657 0.59211487
0.38637108 0.057278734 0.59115583
0.38782576 0.057186104 0.59019983
0.38927573 0.057093773 0.58924693
0.39072105 0.057001747 0.58829713
0.39216167 0.056910004 0.58735031
0.39359769 0.056818567 0.58640659
0.39502913 0.056727421 0.58546591
0.39645594 0.056636564 0.58452821
0.39787823 0.056546003 0.58359355
0.39929593 0.056455724 0.58266181
0.40070915 0.05636574 0.58173311
0.40211788 0.056276038 0.58080733
0.40352207 0.05618662 0.57988447
0.40492177 0.056097474 0.57896441
0.40631697 0.056008603 0.57804722
0.40770775 0.055920016 0.57713294
0.40909415 0.055831708 0.57622153
0.41047618 0.055743679 0.57531303
0.41185388 0.05565593 0.5744074
0.41322723 0.055568453 0.57350457
0.41459626 0.055481251 0.5726046
0.41596106 0.055394329 0.57170749
0.41732156 0.055307679 0.57081318
0.41967154 0.05535236 0.57127434
0.43061885 0.056525148 0.58337831
0.44204009 0.057748705 0.59600627
0.46167833 0.060029097 0.61954147
0.46644983 0.060364097 0.62299889
0.47950563 0.061763018 0.63743675
0.3786402 0.059785292 0.59537524
0.38011783 0.059687924 0.59440559
0.38159063 0.059590869 0.59343904
0.3830587 0.059494127 0.59247565
0.38452199 0.059397705 0.59151542
0.38598055 0.059301592 0.59055829
0.38743436 0.059205789 0.5896042
0.38888353 0.059110299 0.58865327
0.39032799 0.05901511 0.58770531
0.39176786 0.058920231 0.58676046
0.39320308 0.058825657 0.58581865
0.39463368 0.058731385 0.58487982
0.39605972 0.058637414 0.58394402
0.39748117 0.058543738 0.58301115
0.39889812 0.058450367 0.58208132
0.40031058 0.058357298 0.58115447
0.40171853 0.05826452 0.58023053
0.40312201 0.058172036 0.57930952
0.4045209 0.058079828 0.57839125
0.40591538 0.05798791 0.57747591
0.40730542 0.057896283 0.57656342
0.40869111 0.057804946 0.57565385
0.41007245 0.0577139 0.57474715
0.41144943 0.057623137 0.5738433
0.41282201 0.057532653 0.5729422
0.41419038 0.05744246 0.57204401
0.41555443 0.05735255 0.57114863
0.41691419 0.057262916 0.57025599
0.42554373 0.058167845 0.5792678
0.43677372 0.059417907 0.59171659
0.44851974 0.06072595 0.60474283
0.46076468 0.062088855 0.6183154
0.47358489 0.063516088 0.6325286
0.37825474 0.06182003 0.59476918
0.37973148 0.061719444 0.59380144
0.38120344 0.061619185 0.59283686
0.38267067 0.061519261 0.59187549
0.38413307 0.061419655 0.59091717
0.38559079 0.061320368 0.58996195
0.3870438 0.061221406 0.58900982
0.38849214 0.061122764 0.5880608
0.38993576 0.061024431 0.58711475
0.39137477 0.060926415 0.58617175
0.39280918 0.060828716 0.58523178
0.39423904 0.06073134 0.58429492
0.39566427 0.060634267 0.58336097
0.39708495 0.060537502 0.58243001
0.39850113 0.060441047 0.58150202
0.39991277 0.060344897 0.58057696
0.40131998 0.060249057 0.57965487
0.40272266 0.06015351 0.57873565
0.40412086 0.060058266 0.57781929
0.4055146 0.059963312 0.57690573
0.40690389 0.059868652 0.57599503
0.40828887 0.059774298 0.57508725
0.40966946 0.059680242 0.57418233
0.4110457 0.059586477 0.57328022
0.41241762 0.059493009 0.57238096
0.41378528 0.059399832 0.57148451
0.41514868 0.059306953 0.57059091
0.42053965 0.059787564 0.57521486
0.43158263 0.061063252 0.58748823
0.44311097 0.0623951 0.60030192
0.45514739 0.063785501 0.61367893
0.46775556 0.065242499 0.62769669
0.48093662 0.066765316 0.64234769
0.37638938 0.063954741 0.59513319
0.37787008 0.063850619 0.59416431
0.37934592 0.06374684 0.59319854
0.38081703 0.063643396 0.59223592
0.38228336 0.063540287 0.59127647
0.38374496 0.063437514 0.59032011
0.38520184 0.063335076 0.58936685
0.38665402 0.063232958 0.58841664
0.38810149 0.063131176 0.58746946
0.38954431 0.063029714 0.58652532
0.39098254 0.062928587 0.58558428
0.39241615 0.062827781 0.58464622
0.39384514 0.062727295 0.58371115
0.39526957 0.062627129 0.58277905
0.39668953 0.062527291 0.58184999
0.39810494 0.062427763 0.58092386
0.39951581 0.062328555 0.58000064
0.40092221 0.062229656 0.57908034
0.4023242 0.062131077 0.57816303
0.4037216 0.062032789 0.57724839
0.40511456 0.061934806 0.57633662
0.40650317 0.06183714 0.57542777
0.4078874 0.06173978 0.57452178
0.40926728 0.061642725 0.57361865
0.41064277 0.061545968 0.57271826
0.41201401 0.061449524 0.5718208
0.41338098 0.061353382 0.57092613
0.4156051 0.061384771 0.57121825
0.42646518 0.062685244 0.58331984
0.43779951 0.064042613 0.5959509
0.44961265 0.065456733 0.60911006
0.4620159 0.066942923 0.62293983
0.47496182 0.068493307 0.63736701
0.3745217 0.066092066 0.59549761
0.37600636 0.065984406 0.5945276
0.37748617 0.065877087 0.59356064
0.37896118 0.065770119 0.59259689
0.38043141 0.065663502 0.59163624
0.38189688 0.065557227 0.59067869
0.38335761 0.065451302 0.58972424
0.38481364 0.065345712 0.58877289
0.38626495 0.065240465 0.58782458
0.38771161 0.065135553 0.58687931
0.38915366 0.065030985 0.58593714
0.39059106 0.064926744 0.58499795
0.39202383 0.064822838 0.58406174
0.39345208 0.064719267 0.58312857
0.39487571 0.064616024 0.58219832
0.39629486 0.064513117 0.58127111
0.39770946 0.06441053 0.58034676
0.39911956 0.064308271 0.57942539
0.40052527 0.064206339 0.57850701
0.40192643 0.064104721 0.57759142
0.40332314 0.064003423 0.57667869
0.40471536 0.063902423 0.57576871
0.40610322 0.063801758 0.57486165
0.40748674 0.063701399 0.57395744
0.40886584 0.063601352 0.57305598
0.41024065 0.063501626 0.57215744
0.41161117 0.063402213 0.5712617
0.4129774 0.063303106 0.57036877
0.42141983 0.064284377 0.57921016
0.43257105 0.065667413 0.59167147
0.4441767 0.06710583 0.60463178
0.45636502 0.068618126 0.61825776
0.46907899 0.070194721 0.63246304
0.48239362 0.071845859 0.64734
0.37414038 0.0681208 0.59489131
0.37562412 0.068009943 0.59392321
0.37710303 0.067899436 0.59295821
0.3785772 0.067789309 0.59199643
0.38004658 0.067679524 0.59103775
0.38151115 0.067570098 0.59008211
0.38297108 0.067461029 0.58912963
0.38442627 0.06735231 0.58818018
0.38587674 0.067243934 0.58723378
0.38732257 0.067135915 0.58629042
0.38876376 0.067028239 0.5853501
0.39020038 0.066920906 0.58441281
0.39163232 0.066813916 0.58347845
0.39305976 0.066707268 0.58254713
0.39448264 0.066600963 0.58161879
0.39590096 0.066494994 0.58069336
0.39731479 0.06638936 0.57977086
0.39872414 0.066284068 0.57885134
0.40012905 0.066179104 0.57793474
0.40152946 0.066074468 0.57702094
0.4029254 0.065970153 0.57611001
0.40431693 0.065866165 0.57520187
0.40570405 0.065762505 0.57429659
0.40708685 0.065659165 0.57339418
0.40846524 0.065556146 0.57249451
0.4098393 0.065453455 0.5715977
0.41120914 0.065351084 0.57070374
0.41644508 0.065861143 0.575158
0.42739615 0.067265734 0.58742416
0.43882012 0.068730861 0.60021895
0.45076597 0.070263281 0.61360139
0.46328601 0.071870141 0.62763393
0.47636142 0.07354749 0.64228201
0.3722721 0.070259809 0.59525549
0.37375981 0.070145398 0.5942862
0.37524268 0.07003136 0.59332007
0.3767207 0.069917694 0.59235704
0.378194 0.069804408 0.59139723
0.37966251 0.069691472 0.59044045
0.38112625 0.069578908 0.58948678
0.38258532 0.06946671 0.5885362
0.38403961 0.069354862 0.58758861
0.38548926 0.069243379 0.58664411
0.38693428 0.069132254 0.58570266
0.38837466 0.069021493 0.58476424
0.38981044 0.068911083 0.58382881
0.39124161 0.068801023 0.58289635
0.39266825 0.068691313 0.58196688
0.39409032 0.068581954 0.58104038
0.39550784 0.068472937 0.58011675
0.39692089 0.06836427 0.5791961
0.39832953 0.068255953 0.57827842
0.39973363 0.068147972 0.57736361
0.4011333 0.068040334 0.57645166
0.40252855 0.06793303 0.57554257
0.40391928 0.067826048 0.57463616
0.40530568 0.067719407 0.57373267
0.40668768 0.067613088 0.57283193
0.40806538 0.067507111 0.5719341
0.40943879 0.067401469 0.57103908
0.41153947 0.067415997 0.57116216
0.42231229 0.068844095 0.58326131
0.43354115 0.070332341 0.59587002
0.44528177 0.071888864 0.60905719
0.45758134 0.073520258 0.62287873
0.47042271 0.075222723 0.63730234
0.37040153 0.072401434 0.5956201
0.3718932 0.072283469 0.59464961
0.37338001 0.072165884 0.59368229
0.37486199 0.072048679 0.59271812
0.37633917 0.071931861 0.59175712
0.37781155 0.071815416 0.59079915
0.3792792 0.071699359 0.58984435
0.38074207 0.071583658 0.58889258
0.38220027 0.071468346 0.58794391
0.38365379 0.071353398 0.58699828
0.3851026 0.071238823 0.5860557
0.38654682 0.071124613 0.58511615
0.38798636 0.071010768 0.58417958
0.38942131 0.070897281 0.58324599
0.39085168 0.070784159 0.58231539
0.39227751 0.070671402 0.58138776
0.39369881 0.070559002 0.58046311
0.39511555 0.070446961 0.57954133
0.39652783 0.070335269 0.57862252
0.39793566 0.070223942 0.57770663
0.39933899 0.070112959 0.57679361
0.40073791 0.070002317 0.57588345
0.40213239 0.069892034 0.57497615
0.40352243 0.069782078 0.57407159
0.40490806 0.069672458 0.57316983
0.40628937 0.069563195 0.57227093
0.40766636 0.069454268 0.57137483
0.40903902 0.069345683 0.57048154
0.41729674 0.070399694 0.57915252
0.42833814 0.071910784 0.59158367
0.43987811 0.07349053 0.60457969
0.45193648 0.075141251 0.61815953
0.46457541 0.076872192 0.63239938
0.47778273 0.07868021 0.6472733
0.37002432 0.074424155 0.5950135
0.37151507 0.074303009 0.59404498
0.37300098 0.074182265 0.59307963
0.37448213 0.074061923 0.59211749
0.37595835 0.073941953 0.59115833
0.37742987 0.073822372 0.59020233
0.37889665 0.073703185 0.58924943
0.38035873 0.073584385 0.58829963
0.38181603 0.073465958 0.58735281
0.38326868 0.073347919 0.58640909
0.38471669 0.073230259 0.58546841
0.38616005 0.073112972 0.58453071
0.38759878 0.072996058 0.58359599
0.38903293 0.072879523 0.58266431
0.39046252 0.072763361 0.58173561
0.39188755 0.072647564 0.58080983
0.39330804 0.072532132 0.57988697
0.39472401 0.072417066 0.57896703
0.39613554 0.072302371 0.57805008
0.39754254 0.072188027 0.57713592
0.39894515 0.072074063 0.57622474
0.40034333 0.071960449 0.57531643
0.40173709 0.071847185 0.57441092
0.40312639 0.071734272 0.57350814
0.40451124 0.071621694 0.57260811
0.40589181 0.071509473 0.57171094
0.40726808 0.071397617 0.57081664
0.41235131 0.071933523 0.57510114
0.42321122 0.073466986 0.58736104
0.4345533 0.075068817 0.60016751
0.44640306 0.076742411 0.61354774
0.45881736 0.078496464 0.62757123
0.47178718 0.080328271 0.64221632
0.36815315 0.076567464 0.59537786
0.36964786 0.076442763 0.59440815
0.37113771 0.076318458 0.59344161
0.37262273 0.076194562 0.59247822
0.37410295 0.076071076 0.59151798
0.37557834 0.075947978 0.59056079
0.37704903 0.075825289 0.58960676
0.37851492 0.075702988 0.58865577
0.37997612 0.075581081 0.58770788
0.38143259 0.075459562 0.58676296
0.38288438 0.075338438 0.58582109
0.38433158 0.075217709 0.58488232
0.38577408 0.075097352 0.58394647
0.38721201 0.07497739 0.58301365
0.38864535 0.074857809 0.58208382
0.39007413 0.074738614 0.58115697
0.39149833 0.074619785 0.58023298
0.39291805 0.074501343 0.57931197
0.39433324 0.074383274 0.57839388
0.39574397 0.074265577 0.57747871
0.39715025 0.074148253 0.5765664
0.39855209 0.074031301 0.57565701
0.39994949 0.073914714 0.57475042
0.40134251 0.0737985 0.57384676
0.40273103 0.073682621 0.57294571
0.4041152 0.073567107 0.57204747
0.40549505 0.073451959 0.57115209
0.40747461 0.073446043 0.57110608
0.41816428 0.075002439 0.58320844
0.42930573 0.076624252 0.59581941
0.44095156 0.078319862 0.60900426
0.45313594 0.080094248 0.6228016
0.46588451 0.081950769 0.63723767
0.36627966 0.078713395 0.59574258
0.36777836 0.078585118 0.59477174
0.36927217 0.078457259 0.593804
0.3707611 0.078329809 0.59283942
0.37224528 0.078202792 0.59187806
0.37372455 0.078076161 0.59091967
0.37519911 0.077949949 0.58996445
0.37666887 0.077824153 0.58901232
0.37813395 0.07769876 0.5880633
0.37959427 0.077573761 0.58711725
0.3810499 0.077449165 0.58617425
0.38250089 0.077324979 0.58523434
0.38394722 0.077201188 0.58429742
0.38538888 0.077077776 0.58336341
0.38682601 0.076954775 0.58243245
0.38825852 0.07683216 0.58150446
0.38968652 0.076709941 0.58057946
0.39110991 0.076588102 0.57965732
0.39252886 0.076466657 0.57873815
0.39394325 0.076345593 0.57782185
0.3953532 0.076224908 0.57690847
0.39675868 0.076104604 0.57599795
0.39815977 0.075984687 0.57509035
0.39955646 0.075865149 0.57418561
0.4009487 0.075745977 0.57328367
0.40233651 0.075627163 0.57238442
0.40371993 0.075508714 0.57148796
0.40509903 0.075390644 0.57059431
0.41317579 0.076514035 0.57909673
0.42413357 0.078157291 0.59153372
0.43558019 0.079874121 0.60452753
0.447541 0.081668064 0.61810499
0.4600727 0.083548315 0.63233566
0.47317275 0.085513152 0.64720654
0.36590657 0.080730103 0.59513575
0.36740434 0.080598675 0.59416687
0.36889723 0.080467664 0.5932011
0.37038532 0.0803371 0.59223855
0.37186852 0.080206938 0.59127903
0.37334695 0.080077201 0.59032261
0.37482065 0.079947889 0.58936936
0.37628955 0.079818994 0.58841914
0.3777537 0.079690509 0.58747196
0.37921318 0.079562441 0.58652782
0.38066801 0.07943479 0.58558679
0.38211811 0.079307534 0.58464867
0.38356364 0.079180695 0.58371365
0.38500449 0.079054259 0.58278155
0.38644078 0.078928225 0.58185244
0.38787249 0.078802593 0.5809263
0.38929966 0.078677356 0.58000308
0.39072227 0.078552522 0.57908279
0.39214039 0.078428075 0.57816541
0.39355403 0.07830403 0.57725096
0.3949632 0.078180373 0.57633936
0.39636794 0.07805711 0.57543069
0.39776823 0.077934235 0.57452482
0.39916414 0.077811748 0.57362187
0.40055564 0.077689633 0.57272166
0.40194276 0.077567898 0.57182425
0.40332547 0.077446535 0.57092959
0.40825838 0.078004703 0.57504433
0.41903532 0.079668447 0.5873093
0.43028721 0.081405692 0.60011613
0.4420408 0.083220392 0.61349398
0.45434931 0.085121401 0.62750804
0.46721384 0.087107666 0.64215064
0.36403248 0.08287771 0.59550023
0.36553425 0.082742706 0.59453017
0.36703107 0.082608134 0.5935632
0.36852309 0.082474001 0.59259945
0.37001023 0.082340308 0.5916388
0.37149259 0.082207039 0.59068125
0.37297013 0.08207421 0.58972681
0.37444293 0.081941806 0.58877546
0.37591097 0.081809826 0.58782715
0.37737429 0.081678271 0.58688188
0.37883291 0.081547134 0.58593965
0.38028684 0.081416428 0.58500046
0.38173613 0.081286132 0.58406425
0.38318077 0.081156246 0.58313102
0.38462085 0.081026793 0.58220083
0.3860563 0.080897741 0.58127356
0.38748723 0.080769107 0.58034927
0.38891354 0.080640867 0.57942784
0.39033538 0.080513045 0.57850939
0.39175275 0.080385625 0.57759386
0.39316553 0.0802586 0.57668114
0.39457402 0.080131993 0.57577145
0.39597794 0.080005772 0.57486451
0.39737746 0.079879947 0.57396042
0.39877263 0.079754524 0.5730592
0.40016341 0.079629496 0.57216084
0.40154976 0.07950484 0.57126516
0.40341058 0.079474904 0.57105005
0.41400939 0.081158169 0.58314478
0.425071 0.082915083 0.59576875
0.43662208 0.084749736 0.60895127
0.44869593 0.086667433 0.62273043
0.46134722 0.088677451 0.637173
0.36215609 0.085027955 0.59586513
0.36366183 0.08488936 0.59489387
0.36516264 0.084751211 0.59392577
0.36665854 0.084613509 0.59296077
0.36814967 0.08447627 0.59199899
0.36963591 0.084339462 0.59104025
0.37111738 0.084203102 0.59008467
0.37259406 0.084067188 0.58913219
0.37406594 0.083931692 0.58818269
0.37553313 0.08379665 0.58723629
0.37699556 0.083662033 0.58629292
0.37845334 0.083527848 0.5853526
0.37990645 0.083394095 0.58441526
0.3813549 0.083260775 0.58348095
0.3827987 0.083127871 0.58254957
0.38423795 0.0829954 0.58162123
0.3856726 0.082863346 0.58069581
0.38710266 0.082731701 0.57977331
0.38852823 0.082600489 0.57885379
0.38994926 0.082469687 0.57793713
0.3913658 0.082339302 0.57702339
0.39277786 0.082209319 0.57611251
0.39418551 0.082079761 0.57520455
0.39558873 0.081950605 0.57429945
0.3969875 0.081821851 0.57339716
0.39838189 0.0816935 0.57249773
0.3997719 0.081565551 0.57160103
0.40115756 0.081438005 0.5707072
0.40905422 0.082626909 0.57903892
0.41992971 0.084402747 0.59148377
0.43128303 0.086256608 0.60447538
0.44314629 0.088193737 0.61805052
0.45555589 0.090220116 0.63225114
0.46856377 0.092344686 0.64713985
0.36178714 0.087038644 0.59525806
0.36329192 0.086896911 0.59428877
0.36479181 0.086755648 0.59332263
0.36628684 0.08661484 0.59235966
0.36777699 0.086474478 0.59139973
0.36926237 0.086334579 0.59044296
0.37074292 0.086195134 0.58948928
0.37221873 0.086056143 0.58853871
0.37368974 0.085917585 0.58759111
0.37515604 0.085779481 0.58664662
0.37661767 0.085641831 0.58570522
0.37807459 0.085504606 0.58476675
0.37952679 0.085367814 0.58383125
0.38097441 0.085231476 0.5828988
0.38241744 0.085095569 0.58196938
0.38385585 0.084960096 0.58104283
0.38528967 0.084825046 0.58011925
0.38671896 0.084690429 0.5791986
0.38814369 0.084556237 0.57828087
0.38956392 0.084422469 0.57736599
0.39097965 0.084289119 0.57645404
0.39239097 0.0841562 0.57554501
0.39379784 0.084023699 0.57463884
0.39520025 0.083891608 0.57373548
0.39659828 0.083759941 0.57283497
0.39799193 0.083628684 0.57193732
0.39938119 0.08349783 0.57104242
0.40076613 0.083367392 0.57015032
0.41486198 0.085869186 0.58726013
0.42602187 0.087741479 0.60006475
0.43767935 0.089697249 0.61344028
0.44986838 0.091742203 0.62742573
0.46264145 0.093885675 0.64208496
0.35991013 0.089190558 0.59562266
0.3614189 0.089045234 0.59465218
0.36292273 0.08890038 0.59368485
0.36442173 0.088756002 0.59272069
0.36591586 0.088612102 0.59175968
0.36740512 0.088468656 0.59080172
0.36888954 0.088325664 0.58984685
0.37036926 0.088183157 0.58889514
0.37184414 0.088041089 0.58794641
0.37331429 0.087899491 0.58700079
0.37477973 0.08775834 0.5860582
0.37624049 0.087617651 0.58511865
0.37769657 0.087477408 0.58418208
0.37914798 0.087337606 0.5832485
0.38059473 0.087198257 0.58231789
0.38203686 0.087059341 0.5813902
0.38347447 0.08692088 0.58046556
0.38490751 0.086782858 0.57954383
0.38633594 0.086645268 0.57862496
0.38775986 0.08650811 0.57770902
0.38917935 0.086371399 0.57679605
0.3905943 0.086235106 0.57588589
0.39200479 0.086099245 0.57497859
0.39341089 0.085963815 0.57407421
0.39481255 0.085828811 0.57317263
0.39620978 0.085694224 0.57227385
0.39760268 0.085560068 0.57137793
0.39899123 0.085426331 0.57048482
0.4003754 0.085293002 0.56959444
0.40175527 0.085160099 0.56870687
0.4031308 0.08502759 0.56782198
0.44426826 0.093241483 0.62267512
0.45681086 0.095402762 0.63710833
0.35954359 0.091196187 0.59501606
0.36105144 0.091047756 0.59404761
0.36255437 0.090899795 0.59308225
0.36405239 0.090752319 0.59211999
0.3655456 0.090605319 0.59116089
0.36703396 0.090458795 0.59020489
0.36851752 0.090312749 0.589252
0.36999631 0.090167165 0.58830214
0.37147033 0.090022057 0.58735538
0.37293962 0.089877419 0.58641165
0.37440419 0.089733236 0.58547091
0.37586406 0.089589514 0.58453321
0.37731925 0.089446254 0.58359849
0.37876979 0.089303449 0.58266675
0.38021576 0.089161113 0.58173805
0.38165712 0.089019217 0.58081228
0.38309386 0.088877775 0.57988942
0.38452604 0.08873678 0.57896948
0.38595369 0.088596232 0.57805246
0.38737684 0.088456132 0.57713836
0.3887955 0.08831647 0.57622713
0.39020965 0.088177241 0.57531875
0.39161938 0.088038467 0.5744133
0.39302468 0.087900124 0.57351065
0.39442557 0.087762214 0.57261086
0.39582208 0.087624736 0.57171386
0.3972142 0.087487683 0.57081968
0.39860198 0.087351069 0.56992829
0.3999854 0.087214865 0.56903964
0.40136456 0.087079093 0.5681538
0.40273938 0.086943738 0.56727064
0.40410987 0.086808786 0.56639016
0.40547618 0.086674266 0.56551248
0.35878259 0.093641207 0.59723914
0.35986155 0.093375154 0.59554225
0.36093441 0.093110614 0.59385502
0.36218667 0.092895143 0.59248078
0.36368385 0.092744589 0.59152055
0.36517611 0.092594512 0.59056336
0.36666355 0.092444919 0.58960927
0.36814621 0.092295811 0.58865827
0.36962411 0.092147186 0.58771032
0.37109724 0.091999039 0.58676547
0.37256563 0.091851361 0.5858236
0.37402934 0.09170416 0.58488476
0.37548834 0.091557428 0.58394891
0.37694272 0.091411173 0.5830161
0.37839246 0.091265388 0.58208627
0.37983754 0.091120057 0.58115935
0.38127801 0.09097518 0.58023536
0.382714 0.090830788 0.57931441
0.38414535 0.090686828 0.57839626
0.3855722 0.090543337 0.57748109
0.38699454 0.090400301 0.57656878
0.38841239 0.090257704 0.57565933
0.38982579 0.09011557 0.57475281
0.39123473 0.089973874 0.57384908
0.39263925 0.089832634 0.57294822
0.39403936 0.089691825 0.57205015
0.39543512 0.089551464 0.57115495
0.39682648 0.089411534 0.57026249
0.39821351 0.089272045 0.56937283
0.39959624 0.089132994 0.56848598
0.40097466 0.088994376 0.56760186
0.40234876 0.088856176 0.56672043
0.40371853 0.088718392 0.56584167
0.4050841 0.088581048 0.56496567
0.40644544 0.088444114 0.56409234
0.40780258 0.088307619 0.56322175
0.35926363 0.09587387 0.59803987
0.36034265 0.095601112 0.59633845
0.36141559 0.095329911 0.59464675
0.3624824 0.095060229 0.59296453
0.36354321 0.094792075 0.59129184
0.36480731 0.094579674 0.58996695
0.36629388 0.094427034 0.58901483
0.36777565 0.094274886 0.58806574
0.36925265 0.094123222 0.5871197
0.37072492 0.093972057 0.58617675
0.37219241 0.093821354 0.58523673
0.37365529 0.093671165 0.58429986
0.37511343 0.093521431 0.58336586
0.37656695 0.093372181 0.58243489
0.37801579 0.093223408 0.58150685
0.3794601 0.093075112 0.58058184
0.38089973 0.092927285 0.5796597
0.38233483 0.09277992 0.57874048
0.38376543 0.092633031 0.57782423
0.38519144 0.092486598 0.57691079
0.38661298 0.092340633 0.57600033
0.38803005 0.092195123 0.57509267
0.38944265 0.092050083 0.57418793
0.39085078 0.091905482 0.57328594
0.39225456 0.091761351 0.57238686
0.39365393 0.091617666 0.57149059
0.39504889 0.091474429 0.57059711
0.39643949 0.091331631 0.56970638
0.39782581 0.091189295 0.56881851
0.39920777 0.091047384 0.56793332
0.40058547 0.090905927 0.56705093
0.40195882 0.090764895 0.56617123
0.40332797 0.09062431 0.56529427
0.4046928 0.090484142 0.56441993
0.40605345 0.090344414 0.56354833
0.40740991 0.090205111 0.56267941
0.40876213 0.090066232 0.56181312
0.41011024 0.089927785 0.5609495
0.35866067 0.098393641 0.60055852
0.35974595 0.098112531 0.59884274
0.36082506 0.09783303 0.5971368
0.36189803 0.097555116 0.59544051
0.3629649 0.097278774 0.59375381
0.3640258 0.097004004 0.59207672
0.36508065 0.096730769 0.59040898
0.36612964 0.096459083 0.58875072
0.36740583 0.096249975 0.58747441
0.36888194 0.096095294 0.58653027
0.37035334 0.095941119 0.58558923
0.37181997 0.095787421 0.58465111
0.37328196 0.095634215 0.58371603
0.37473923 0.095481507 0.58278394
0.37619191 0.095329285 0.58185482
0.37763995 0.095177546 0.58092868
0.37908334 0.095026277 0.58000541
0.38052216 0.0948755 0.57908511
0.38195646 0.094725199 0.57816774
0.38338622 0.094575383 0.57725328
0.38481146 0.094426028 0.57634169
0.38623217 0.094277143 0.57543296
0.38764846 0.094128735 0.57452714
0.38906026 0.093980789 0.57362413
0.39046767 0.093833312 0.57272398
0.39187065 0.093686298 0.57182664
0.39326921 0.093539737 0.57093209
0.39466342 0.093393639 0.57004035
0.39605331 0.093247995 0.5691514
0.39743885 0.093102798 0.5682652
0.39882004 0.092958055 0.56738174
0.40019697 0.09281376 0.56650102
0.40156969 0.092669927 0.5656231
0.40293813 0.092526533 0.56474787
0.40430224 0.092383556 0.5638752
0.40566218 0.092241034 0.56300527
0.40701792 0.092098944 0.56213802
0.40836945 0.091957286 0.5612734
0.40971687 0.091816068 0.56041145
0.41106015 0.091675289 0.55955219
0.41239932 0.091534927 0.5586955
0.35914427 0.10064515 0.60136825
0.36022958 0.10035721 0.59964782
0.36130875 0.10007094 0.59793729
0.36238179 0.099786289 0.59623647
0.36344874 0.099503256 0.5945453
0.36450964 0.099221818 0.59286368
0.36556453 0.098941967 0.59119153
0.36661354 0.098663703 0.58952886
0.36765662 0.098386988 0.58787543
0.36869389 0.098111823 0.58623129
0.36998245 0.097906217 0.58500278
0.37144828 0.097749546 0.58406663
0.37290937 0.09759336 0.5831334
0.37436578 0.097437672 0.58220315
0.3758176 0.097282484 0.58127588
0.3772648 0.097127795 0.58035159
0.37870735 0.096973583 0.57943016
0.3801454 0.09681987 0.57851171
0.38157883 0.096666642 0.57759613
0.38300776 0.096513897 0.57668346
0.3844322 0.09636163 0.57577366
0.38585216 0.096209854 0.57486677
0.38726762 0.096058547 0.57396269
0.38867864 0.095907718 0.57306147
0.39008522 0.095757358 0.57216305
0.39148745 0.095607474 0.57126749
0.3928853 0.095458061 0.57037473
0.39427873 0.095309108 0.56948471
0.39566782 0.095160618 0.56859744
0.39705262 0.09501259 0.56771296
0.39843315 0.094865032 0.56683129
0.39980933 0.094717927 0.5659523
0.40118125 0.094571263 0.56507599
0.40254897 0.094425067 0.56420243
0.40391243 0.094279312 0.56333154
0.40527165 0.094134003 0.56246328
0.4066267 0.093989141 0.5615977
0.40797755 0.093844712 0.56073475
0.40932429 0.093700737 0.55987448
0.41066688 0.093557201 0.55901682
0.41200536 0.093414105 0.5581618
0.41333976 0.093271442 0.55730939
0.41467008 0.093129218 0.55645955
0.35853744 0.10319921 0.6039151
0.35962912 0.10290273 0.60218012
0.36071455 0.10260795 0.60045511
0.36179376 0.10231485 0.59873992
0.36286682 0.10202343 0.59703451
0.36393383 0.10173366 0.59533882
0.36499476 0.10144553 0.59365273
0.36604971 0.10115904 0.59197617
0.36709872 0.10087415 0.59030902
0.36814183 0.10059086 0.58865124
0.36917913 0.10030917 0.58700281
0.37021059 0.10002904 0.58536351
0.37123632 0.099750482 0.58373338
0.37253752 0.099548593 0.58255196
0.3739931 0.099389948 0.58162355
0.37544405 0.099231809 0.58069813
0.37689039 0.09907417 0.57977563
0.37833214 0.098917022 0.57885605
0.37976933 0.098760381 0.57793939
0.38120195 0.09860424 0.57702565
0.38263011 0.098448597 0.57611483
0.38405371 0.098293431 0.57520682
0.38547283 0.098138757 0.57430166
0.38688752 0.097984567 0.57339936
0.38829777 0.097830869 0.57249993
0.3897036 0.097677648 0.5716033
0.39110506 0.097524911 0.57070947
0.39250207 0.097372636 0.56981838
0.39389476 0.097220838 0.56893009
0.39528316 0.097069539 0.56804466
0.39666718 0.09691868 0.56716186
0.39804694 0.096768305 0.56628186
0.39942238 0.096618384 0.56540453
0.40079364 0.09646894 0.56453001
0.40216061 0.096319951 0.56365812
0.40352336 0.096171416 0.5627889
0.40488189 0.096023336 0.56192237
0.4062362 0.095875695 0.5610584
0.40758637 0.095728517 0.56019711
0.40893245 0.0955818 0.55933851
0.41027433 0.095435515 0.55848247
0.41161215 0.095289692 0.55762911
0.4129459 0.095144302 0.55677831
0.41427556 0.094999366 0.55593014
0.41560116 0.094854854 0.55508447
0.41692275 0.09471079 0.55424142
0.35902354 0.10546983 0.60473388
0.36011529 0.10516641 0.6029942
0.36120081 0.10486475 0.60126454
0.36228007 0.1045648 0.5995447
0.36335322 0.10426658 0.59783477
0.36442021 0.10397003 0.59613448
0.3654812 0.10367519 0.59444392
0.3665362 0.103382 0.59276289
0.36758518 0.10309046 0.59109128
0.36862832 0.10280057 0.58942914
0.36966559 0.10251231 0.5877763
0.37069705 0.10222565 0.58613271
0.37172279 0.10194059 0.58449829
0.37274283 0.10165714 0.58287299
0.37375715 0.10137523 0.58125663
0.37507126 0.10117726 0.58012152
0.37651673 0.10101668 0.5792008
0.37795764 0.10085662 0.57828307
0.37939402 0.10069707 0.57736826
0.38082585 0.10053802 0.57645631
0.38225314 0.10037947 0.57554722
0.38367596 0.10022143 0.57464105
0.38509429 0.10006388 0.57373768
0.3865082 0.099906817 0.57283717
0.38791764 0.099750251 0.57193947
0.38932267 0.099594176 0.57104456
0.39072332 0.099438585 0.57015246
0.39211962 0.099283487 0.56926316
0.39351159 0.099128872 0.56837666
0.39489916 0.098974727 0.56749284
0.39628243 0.098821066 0.56661177
0.39766148 0.098667882 0.56573349
0.39903623 0.098515175 0.5648579
0.40040669 0.098362938 0.56398499
0.40177298 0.098211169 0.56311482
0.40313503 0.098059878 0.56224734
0.40449286 0.097909026 0.56138241
0.40584651 0.097758643 0.56052017
0.40719599 0.097608723 0.55966055
0.40854132 0.097459257 0.55880356
0.40988258 0.097310245 0.55794919
0.41121972 0.097161695 0.55709743
0.41255271 0.097013585 0.55624819
0.41388172 0.096865937 0.55540162
0.4152067 0.096718736 0.55455762
0.41652766 0.096571982 0.55371618
0.41784459 0.096425675 0.55287731
0.41915753 0.096279807 0.55204093
0.42046654 0.096134387 0.55120713
0.35841277 0.10805877 0.60730928
0.35951093 0.1077466 0.60555482
0.3606028 0.10743623 0.60381049
0.36168835 0.10712764 0.60207611
0.3627677 0.10682081 0.60035169
0.36384085 0.10651573 0.5986371
0.36490792 0.10621239 0.59693229
0.36596894 0.10591079 0.5952372
0.36702394 0.10561088 0.5935517
0.36807299 0.10531267 0.59187567
0.3691161 0.10501613 0.59020907
0.37015337 0.10472126 0.58855188
0.37118483 0.10442804 0.58690393
0.37221053 0.10413647 0.58526522
0.37323052 0.10384651 0.58363563
0.37424487 0.10355817 0.5820151
0.37525356 0.10327142 0.58040351
0.37625673 0.10298626 0.57880086
0.37758392 0.10279239 0.57771128
0.37901941 0.10262992 0.5767982
0.38045046 0.10246799 0.5758881
0.38187695 0.10230655 0.5749808
0.38329896 0.10214563 0.57407641
0.38471648 0.10198521 0.57317477
0.38612956 0.10182529 0.572276
0.38753825 0.10166588 0.57138008
0.38894251 0.10150696 0.57048696
0.39034238 0.10134854 0.56959659
0.39173791 0.10119061 0.56870902
0.39312908 0.10103317 0.56782418
0.39451596 0.10087623 0.56694216
0.39589852 0.10071977 0.56606281
0.39727679 0.10056379 0.5651862
0.39865077 0.1004083 0.56431228
0.40002051 0.10025328 0.56344104
0.40138611 0.10009876 0.5625726
0.40274742 0.099944688 0.56170672
0.40410456 0.099791102 0.56084353
0.40545753 0.099637978 0.55998296
0.40680632 0.099485323 0.55912501
0.40815097 0.09933313 0.55826962
0.40949151 0.099181391 0.55741686
0.41082796 0.09903013 0.55656672
0.41216037 0.09887933 0.5557192
0.41348869 0.098728977 0.55487418
0.41481298 0.098579086 0.55403179
0.41613331 0.098429658 0.55319196
0.41744959 0.098280668 0.55235463
0.41876191 0.098132141 0.55151987
0.42007026 0.097984061 0.55068761
0.42137468 0.09783642 0.54985785
0.4226751 0.097689211 0.54903054
0.35890144 0.1103488 0.60813731
0.35999969 0.11002958 0.60637808
0.36109158 0.10971219 0.60462892
0.36217722 0.10939664 0.6028899
0.3632566 0.10908289 0.60116082
0.36432984 0.10877094 0.59944165
0.36539695 0.10846076 0.59773225
0.366458 0.10815236 0.59603262
0.367513 0.10784569 0.59434259
0.36856204 0.10754076 0.5926621
0.36960515 0.10723756 0.59099108
0.37064245 0.10693606 0.58932954
0.37167388 0.10663624 0.58767724
0.37269956 0.10633811 0.58603418
0.37371951 0.10604163 0.5844003
0.37473381 0.1057468 0.58277547
0.37574252 0.10545363 0.58115977
0.37674558 0.10516205 0.57955289
0.37774315 0.10487209 0.57795489
0.37873524 0.10458373 0.57636571
0.38007578 0.10439415 0.57532096
0.3815015 0.10422985 0.5744155
0.38292265 0.10406605 0.57351279
0.38433942 0.10390278 0.572613
0.38575172 0.10374001 0.57171601
0.38715962 0.10357776 0.57082182
0.3885631 0.10341602 0.56993043
0.3899622 0.10325477 0.56904179
0.391357 0.10309404 0.568156
0.39274737 0.10293379 0.56727284
0.39413348 0.10277405 0.56639248
0.39551529 0.1026148 0.56551486
0.39689279 0.10245603 0.56463993
0.39826608 0.10229778 0.56376773
0.39963514 0.10213999 0.56289822
0.40099996 0.10198271 0.56203139
0.40236056 0.10182589 0.56116718
0.40371701 0.10166956 0.56030566
0.40506929 0.10151371 0.55944675
0.40641737 0.10135833 0.55859041
0.40776134 0.10120342 0.55773669
0.40910122 0.10104898 0.5568856
0.41043699 0.10089502 0.55603707
0.4117687 0.10074151 0.5551911
0.4130964 0.10058849 0.55434775
0.41442007 0.10043592 0.55350697
0.41573969 0.10028381 0.55266869
0.41705534 0.10013217 0.55183297
0.418367 0.099980973 0.55099976
0.41967469 0.09983024 0.55016905
0.42097843 0.099679947 0.54934078
0.42227834 0.099530131 0.54851514
0.42357427 0.099380746 0.54769188
0.42486635 0.099231817 0.54687113
0.35828674 0.1129733 0.61074197
0.35939145 0.11264508 0.6089676
0.36048976 0.11231877 0.60720354
0.36158174 0.11199434 0.60544968
0.36266741 0.11167178 0.60370588
0.36374682 0.11135107 0.6019721
0.36482009 0.1110322 0.60024828
0.36588725 0.11071517 0.59853435
0.36694831 0.11039992 0.59683013
0.36800334 0.11008647 0.59513557
0.36905244 0.1097748 0.59345067
0.37009552 0.10946488 0.59177518
0.37113279 0.1091567 0.59010917
0.37216425 0.10885027 0.58845258
0.3731899 0.10854553 0.58680516
0.37420982 0.10824251 0.58516699
0.37522408 0.10794117 0.58353794
0.37623271 0.10764151 0.58191794
0.37723574 0.1073435 0.58030689
0.37823325 0.10704715 0.57870477
0.37922525 0.10675242 0.57711142
0.38021183 0.10645931 0.57552689
0.38119295 0.1061678 0.57395095
0.38254714 0.10598271 0.57295036
0.38396308 0.1058166 0.5720523
0.38537461 0.105651 0.5711571
0.38678169 0.10548592 0.57026464
0.3881844 0.10532135 0.56937498
0.38958275 0.1051573 0.56848812
0.39097673 0.10499375 0.56760395
0.39236638 0.10483071 0.56672257
0.39375177 0.10466819 0.56584394
0.39513281 0.10450616 0.56496799
0.39650962 0.10434464 0.56409478
0.39788216 0.10418361 0.56322426
0.39925042 0.10402306 0.56235635
0.40061459 0.10386304 0.56149125
0.40197447 0.10370349 0.56062871
0.40333018 0.10354443 0.5597688
0.40468177 0.10338586 0.55891156
0.40602919 0.10322776 0.55805689
0.4073725 0.10307015 0.55720484
0.40871164 0.10291301 0.5563553
0.41004679 0.10275636 0.55550843
0.41137782 0.10260017 0.55466408
0.41270486 0.10244447 0.55382234
0.41402784 0.10228923 0.55298311
0.41534683 0.10213447 0.55214643
0.41666177 0.10198015 0.55131221
0.4179728 0.10182633 0.5504806
0.41927987 0.10167295 0.54965144
0.42058304 0.10152005 0.54882485
0.42188227 0.10136759 0.54800069
0.4231776 0.1012156 0.54717898
0.42446905 0.10106406 0.54635978
0.42575666 0.10091298 0.54554302
0.35877803 0.11528303 0.61157942
0.3598828 0.11494764 0.60980016
0.36098117 0.1146142 0.60803127
0.36207321 0.1142827 0.60627264
0.36315897 0.11395311 0.60452414
0.36423844 0.1136254 0.60278565
0.36531174 0.11329958 0.60105717
0.36637887 0.11297561 0.59933853
0.36743999 0.11265352 0.59762979
0.36849502 0.11233324 0.5959307
0.36954409 0.11201478 0.59424126
0.3705872 0.11169811 0.59256136
0.37162447 0.11138324 0.59089094
0.3726559 0.11107014 0.58922994
0.37368152 0.11075878 0.58757818
0.37470141 0.11044918 0.58593571
0.37571561 0.11014129 0.58430237
0.37672415 0.10983511 0.58267808
0.37772715 0.10953064 0.58106285
0.37872458 0.10922784 0.57945651
0.37971655 0.10892674 0.5778591
0.38070306 0.10862727 0.57627046
0.38168409 0.10832945 0.57469046
0.38265982 0.10803325 0.57311916
0.38363022 0.10773867 0.57155639
0.3849982 0.10755825 0.57059926
0.38640451 0.10739034 0.56970853
0.38780645 0.10722297 0.5688206
0.38920403 0.10705612 0.56793547
0.39059722 0.10688978 0.56705302
0.39198616 0.10672396 0.56617337
0.39337075 0.10655866 0.56529641
0.39475104 0.10639386 0.56442213
0.3961271 0.10622957 0.56355059
0.39749894 0.1060658 0.56268179
0.39886653 0.10590253 0.56181562
0.40022987 0.10573975 0.56095207
0.40158907 0.10557748 0.5600912
0.40294415 0.1054157 0.55923301
0.404295 0.10525442 0.55837739
0.40564176 0.10509363 0.55752438
0.40698436 0.10493332 0.55667394
0.40832287 0.10477349 0.55582607
0.4096573 0.10461415 0.55498075
0.4109877 0.10445531 0.55413806
0.41231403 0.10429693 0.55329788
0.41363633 0.10413902 0.55246019
0.41495463 0.10398161 0.55162507
0.416269 0.10382467 0.55079252
0.41757938 0.1036682 0.54996246
0.4188858 0.1035122 0.54913485
0.42018834 0.10335667 0.5483098
0.42148697 0.10320161 0.5474872
0.42278168 0.10304701 0.54666704
0.42407253 0.10289288 0.54584938
0.35815927 0.11794369 0.61421365
0.3592706 0.11759908 0.61241907
0.36037546 0.1172565 0.61063498
0.36147395 0.1169159 0.60886127
0.36256602 0.11657728 0.6070978
0.36365181 0.11624061 0.60534453
0.36473134 0.11590588 0.6036014
0.36580467 0.11557307 0.60186821
0.36687186 0.11524217 0.60014498
0.36793295 0.11491315 0.59843159
0.36898801 0.11458602 0.59672797
0.37003708 0.11426074 0.595034
0.37108019 0.1139373 0.59334964
0.3721174 0.11361568 0.59167475
0.37314883 0.11329588 0.59000933
0.37417442 0.11297787 0.58835322
0.37519425 0.11266164 0.5867064
0.37620842 0.11234717 0.58506876
0.37721694 0.11203445 0.58344024
0.3782199 0.1117235 0.58182085
0.37921727 0.11141424 0.58021033
0.38020912 0.11110669 0.57860869
0.38119552 0.11080083 0.57701588
0.38217649 0.11049665 0.57543182
0.38315216 0.11019415 0.57385653
0.3841224 0.10989329 0.57228971
0.38508746 0.10959408 0.57073152
0.38604718 0.10929647 0.56918168
0.38742924 0.1091209 0.56826735
0.38882604 0.10895126 0.56738389
0.3902185 0.10878213 0.56650317
0.39160663 0.10861354 0.56562519
0.3929905 0.10844548 0.56474996
0.39437005 0.10827792 0.5638774
0.39574537 0.10811089 0.56300753
0.39711645 0.10794437 0.56214035
0.39848331 0.10777836 0.56127584
0.39984599 0.10761287 0.56041402
0.4012045 0.10744788 0.55955482
0.40255877 0.10728339 0.55869818
0.40390897 0.10711941 0.55784422
0.40525502 0.10695592 0.55699283
0.40659696 0.10679294 0.55614406
0.40793478 0.10663044 0.55529779
0.40926859 0.10646844 0.55445415
0.41059822 0.1063069 0.55361295
0.41192392 0.10614588 0.55277437
0.41324556 0.10598533 0.5519383
0.41456324 0.10582528 0.55110478
0.41587695 0.10566571 0.55027378
0.41718671 0.10550661 0.54944527
0.41849253 0.105348 0.54861927
0.41979438 0.10518986 0.54779571
0.42109239 0.1050322 0.54697466
0.42238647 0.10487501 0.54615605
0.42664212 0.10545123 0.54915684
0.35865316 0.12027342 0.61506063
0.35976458 0.11992152 0.6132611
0.36086953 0.11957169 0.61147213
0.36196804 0.11922389 0.60969353
0.36306018 0.11887811 0.60792524
0.36414605 0.11853434 0.60616726
0.36522558 0.11819253 0.60441929
0.36629894 0.1178527 0.60268146
0.36736616 0.11751482 0.60095358
0.36842725 0.11717886 0.59923553
0.36948228 0.11684483 0.59752733
0.37053135 0.11651269 0.59582883
0.37157449 0.11618245 0.59413999
0.3726117 0.11585406 0.59246069
0.37364307 0.11552752 0.59079081
0.37466863 0.11520282 0.58913034
0.37568843 0.11487994 0.58747917
0.37670258 0.11455886 0.58583724
0.37771103 0.11423957 0.58420444
0.37871388 0.11392207 0.58258075
0.37971121 0.11360632 0.58096606
0.38070297 0.11329231 0.57936025
0.38168928 0.11298003 0.57776332
0.38267016 0.11266947 0.57617515
0.38364571 0.11236062 0.57459575
0.3846159 0.11205345 0.57302493
0.38558081 0.11174796 0.57146269
0.38654047 0.11144414 0.56990898
0.38749492 0.11114195 0.56836367
0.38844877 0.11084271 0.56683338
0.38984048 0.11067083 0.56595439
0.39122787 0.11049948 0.56507814
0.39261097 0.11032865 0.56420457
0.3939898 0.11015835 0.56333369
0.39536434 0.10998858 0.56246549
0.39673474 0.10981935 0.56160003
0.39810085 0.1096506 0.56073713
0.39946279 0.10948239 0.55987692
0.40082058 0.1093147 0.55901939
0.40217417 0.10914752 0.55816442
0.40352365 0.10898084 0.55731207
0.40486905 0.10881469 0.55646235
0.4062103 0.10864902 0.55561519
0.40754744 0.10848385 0.55477053
0.40888053 0.10831919 0.55392843
0.41020957 0.10815501 0.5530889
0.41153455 0.10799134 0.55225188
0.41285557 0.10782816 0.55141741
0.41417259 0.10766547 0.55058545
0.41548568 0.10750329 0.54975605
0.41679478 0.10734157 0.5489291
0.41809994 0.10718036 0.54810464
0.4194012 0.10701962 0.54728264
0.42069858 0.10685936 0.54646313
0.42199203 0.10669958 0.54564601
0.44282261 0.11145875 0.56998372
0.35803029 0.12297089 0.61772496
0.35914838 0.12260956 0.61590987
0.36025986 0.12225035 0.6141054
0.36136493 0.12189324 0.61231154
0.36246347 0.1215382 0.61052805
0.36355567 0.12118523 0.60875493
0.36464158 0.12083431 0.60699213
0.36572117 0.1204854 0.60523945
0.36679456 0.12013851 0.60349691
0.36786178 0.1197936 0.60176432
0.36892289 0.11945067 0.60004169
0.36997795 0.11910971 0.59832889
0.37102696 0.11877067 0.5966258
0.37207007 0.11843357 0.59493244
0.37310728 0.11809839 0.59324867
0.37413859 0.11776507 0.59157431
0.37516415 0.11743365 0.58990949
0.37618393 0.11710409 0.58825397
0.37719798 0.11677636 0.58660769
0.37820637 0.11645046 0.58497059
0.37920919 0.11612639 0.58334267
0.38020641 0.11580411 0.58172375
0.38119811 0.11548361 0.58011377
0.38218433 0.11516488 0.57851267
0.38316512 0.11484791 0.57692039
0.38414055 0.11453267 0.57533687
0.38511065 0.11421917 0.57376206
0.38607541 0.11390737 0.57219577
0.38703495 0.11359727 0.57063806
0.38798931 0.11328886 0.56908882
0.38893846 0.11298212 0.56754792
0.38988248 0.11267703 0.56601536
0.39084983 0.11238176 0.5645321
0.39223218 0.11220819 0.5636602
0.39361027 0.11203517 0.56279105
0.3949841 0.11186267 0.56192452
0.39635372 0.1116907 0.56106067
0.39771912 0.11151925 0.56019944
0.39908034 0.11134834 0.55934089
0.40043741 0.11117795 0.55848497
0.40179032 0.11100809 0.55763167
0.40313908 0.11083873 0.55678093
0.40448377 0.1106699 0.55593282
0.40582439 0.11050158 0.55508733
0.40716085 0.11033376 0.55424428
0.40849325 0.11016644 0.55340379
0.4098216 0.10999962 0.55256581
0.41114596 0.10983332 0.55173039
0.41246632 0.10966752 0.55089754
0.41378269 0.1095022 0.55006713
0.41509506 0.1093374 0.54923922
0.41640356 0.10917309 0.54841387
0.41770807 0.10900927 0.54759091
0.4190087 0.10884593 0.54677045
0.42030543 0.10868309 0.54595244
0.432556 0.11134129 0.55930549
0.35852683 0.12532093 0.61858165
0.35964501 0.12495219 0.61676157
0.36075658 0.12458561 0.61495209
0.36186165 0.12422116 0.61315322
0.36296028 0.12385885 0.61136484
0.36405253 0.12349865 0.60958689
0.36513844 0.12314054 0.60781926
0.36621812 0.1227845 0.60606188
0.36729151 0.1224305 0.60431457
0.36835873 0.12207854 0.60257727
0.36941984 0.1217286 0.60084999
0.3704749 0.12138067 0.5991326
0.37152392 0.1210347 0.59742492
0.372567 0.12069072 0.59572703
0.37360418 0.12034868 0.59403872
0.37463546 0.12000857 0.59235996
0.37566096 0.11967038 0.59069067
0.3766807 0.11933411 0.5890308
0.3776947 0.1189997 0.58738017
0.37870306 0.11866717 0.58573884
0.37970576 0.11833648 0.58410656
0.38070291 0.11800765 0.58248341
0.38169456 0.11768062 0.58086926
0.38268068 0.11735541 0.57926399
0.38366139 0.11703199 0.57766759
0.3846367 0.11671034 0.57607996
0.38560668 0.11639047 0.57450104
0.38657135 0.11607233 0.57293075
0.38753071 0.11575593 0.57136899
0.38848493 0.11544126 0.56981575
0.38943395 0.11512829 0.56827098
0.39037788 0.11481702 0.56673455
0.39131668 0.11450743 0.56520641
0.39225042 0.11419949 0.56368643
0.39323148 0.11390836 0.56224942
0.39460456 0.11373314 0.56138456
0.39597341 0.11355846 0.56052232
0.39733812 0.11338433 0.55966282
0.39869863 0.11321072 0.55880588
0.40005496 0.11303764 0.55795157
0.40140715 0.11286509 0.55709988
0.40275526 0.11269308 0.55625081
0.40409923 0.11252158 0.55540431
0.40543914 0.11235061 0.55456036
0.40677497 0.11218014 0.55371898
0.40810671 0.1120102 0.55288011
0.40943438 0.11184075 0.55204374
0.41075811 0.11167182 0.55120993
0.41207781 0.11150341 0.55037862
0.4133935 0.11133549 0.54954976
0.41470528 0.11116808 0.54872346
0.41601303 0.11100116 0.54789954
0.41731697 0.11083476 0.54707819
0.41861698 0.11066885 0.54625928
0.422667 0.11122815 0.54901999
0.44927567 0.11769181 0.58092445
0.36293006 0.12906632 0.62617874
0.36014298 0.12730129 0.61761552
0.36125463 0.1269273 0.6158011
0.36235979 0.1265555 0.61399728
0.36345848 0.12618588 0.61220402
0.36455074 0.1258184 0.61042112
0.36563671 0.12545307 0.60864866
0.36671638 0.12508984 0.60688645
0.3677898 0.12472872 0.60513443
0.36885706 0.12436967 0.60339248
0.36991817 0.12401268 0.60166049
0.37097323 0.12365774 0.59993845
0.37202224 0.12330482 0.59822625
0.37306529 0.12295391 0.59652376
0.37410241 0.12260499 0.59483093
0.37513366 0.12225804 0.5931477
0.37615913 0.12191307 0.591474
0.37717876 0.12157002 0.58980966
0.37819272 0.1212289 0.58815467
0.37920099 0.12088969 0.58650899
0.38020366 0.12055238 0.58487248
0.38120076 0.12021695 0.5832451
0.38219228 0.11988337 0.58162671
0.38317832 0.11955164 0.58001727
0.38415891 0.11922173 0.57841671
0.38513413 0.11889365 0.57682496
0.38610399 0.11856737 0.57524198
0.38706854 0.11824287 0.57366765
0.38802782 0.11792014 0.57210189
0.38898185 0.11759917 0.57054466
0.38993073 0.11727994 0.56899589
0.39087451 0.11696244 0.56745553
0.39181313 0.11664665 0.56592345
0.39274672 0.11633258 0.56439966
0.3936753 0.11602018 0.56288403
0.3945989 0.11570945 0.56137651
0.39559391 0.11542266 0.5599851
0.39695787 0.11524583 0.55912721
0.39831764 0.11506954 0.55827188
0.39967328 0.11489379 0.55741924
0.40102479 0.11471859 0.55656922
0.40237215 0.1145439 0.5557217
0.40371543 0.11436975 0.5548768
0.40505466 0.11419613 0.55403447
0.4063898 0.11402304 0.5531947
0.40772089 0.11385047 0.55235744
0.40904793 0.1136784 0.55152267
0.41037098 0.11350686 0.55069041
0.41168997 0.11333583 0.5498606
0.41300502 0.11316531 0.54903334
0.41431612 0.1129953 0.54820853
0.41562334 0.11282583 0.54738629
0.41692659 0.11265684 0.54656643
0.41822597 0.11248837 0.54574907
0.4386926 0.11745317 0.56983632
0.36809894 0.13233769 0.63125938
0.36484537 0.13038017 0.6219219
0.36285925 0.12889627 0.61484361
0.363958 0.1285193 0.61304539
0.36505035 0.12814452 0.61125767
0.36613631 0.12777191 0.60948032
0.36721599 0.12740147 0.60771328
0.36828944 0.12703317 0.60595649
0.36935669 0.12666699 0.60420978
0.3704178 0.12630291 0.60247314
0.37147281 0.12594092 0.60074639
0.37252188 0.12558103 0.59902966
0.37356487 0.12522316 0.59732258
0.37460199 0.12486733 0.59562528
0.37563318 0.12451351 0.59393752
0.37665859 0.12416169 0.59225935
0.37767819 0.12381186 0.5905906
0.37869206 0.12346399 0.58893126
0.37970027 0.12311807 0.58728123
0.38070282 0.12277409 0.58564037
0.38169983 0.12243202 0.58400869
0.38269129 0.12209187 0.58238614
0.38367727 0.12175359 0.58077252
0.38465774 0.12141716 0.57916778
0.38563281 0.1210826 0.57757187
0.38660255 0.12074988 0.57598478
0.38756698 0.12041898 0.57440639
0.38852614 0.1200899 0.57283664
0.38948005 0.11976261 0.57127541
0.39042878 0.11943708 0.56972265
0.39137238 0.11911333 0.56817836
0.39231089 0.11879133 0.5666424
0.39324433 0.11847108 0.56511474
0.39417273 0.11815253 0.56359524
0.39509618 0.1178357 0.56208396
0.39601466 0.11752056 0.56058073
0.39692828 0.11720711 0.55908555
0.39793739 0.11692481 0.55773896
0.39929232 0.1167464 0.55688792
0.40064308 0.11656853 0.55603945
0.40198979 0.1163912 0.5551936
0.40333238 0.11621442 0.55435032
0.40467092 0.11603817 0.55350959
0.40600535 0.11586244 0.55267137
0.40733579 0.11568725 0.55183572
0.40866217 0.11551259 0.55100256
0.40998453 0.11533844 0.55017185
0.41130289 0.11516481 0.54934365
0.41261733 0.11499171 0.54851794
0.41392776 0.11481912 0.54769468
0.4152343 0.11464706 0.54687393
0.41653693 0.11447551 0.54605561
0.42850593 0.11722346 0.55916351
0.45598128 0.12416881 0.59229332
0.37681377 0.13774763 0.64620459
0.37335238 0.13566257 0.63642311
0.36999425 0.13363972 0.62693346
0.3667348 0.13167629 0.61772257
0.36555129 0.13047701 0.61209649
0.36663729 0.13009711 0.61031425
0.367717 0.12971941 0.60854238
0.36879048 0.1293439 0.60678083
0.3698577 0.12897055 0.60502934
0.37091881 0.12859936 0.60328799
0.37197384 0.1282303 0.60155666
0.37302279 0.12786333 0.59983516
0.37406579 0.12749848 0.59812355
0.37510285 0.12713569 0.59642166
0.37613401 0.12677498 0.59472942
0.37715942 0.12641631 0.59304684
0.37817892 0.12605964 0.59137362
0.37919277 0.125705 0.58970994
0.38020086 0.12535234 0.58805549
0.38120335 0.12500164 0.58641034
0.38220027 0.12465291 0.58477437
0.38319159 0.12430612 0.58314747
0.38417742 0.12396125 0.58152962
0.38515785 0.1236183 0.57992077
0.38613281 0.12327723 0.57832074
0.38710243 0.12293804 0.57672954
0.38806677 0.12260073 0.57514709
0.38902575 0.12226523 0.57357323
0.38997954 0.12193158 0.57200801
0.39092815 0.12159976 0.57045132
0.39187157 0.12126972 0.56890303
0.39280993 0.12094148 0.5673632
0.39374316 0.120615 0.5658316
0.39467141 0.12029028 0.56430829
0.39559466 0.1199673 0.56279314
0.39651302 0.11964607 0.56128615
0.39742646 0.11932655 0.55978721
