# .PCD v0.7 - Point Cloud Data file format
VERSION 0.7
FIELDS x y z
SIZE 4 4 4
TYPE F F F
COUNT 1 1 1
WIDTH 1116
HEIGHT 1
VIEWPOINT 0 0 0 1 0 0 0
POINTS 1116
DATA ascii
-0.21804911 -0.33150557 1.0062838
-0.21539997 -0.33289087 1.0104889
-0.2127286 -0.33428779 1.0147293
-0.21003473 -0.33569652 1.0190054
-0.20731802 -0.33711714 1.0233177
-0.20457825 -0.33854985 1.0276667
-0.20181508 -0.33999479 1.0320528
-0.19902821 -0.34145206 1.0364764
-0.19621736 -0.34292194 1.0409381
-0.1933822 -0.34440449 1.0454384
-0.19052243 -0.34589994 1.0499779
-0.18763773 -0.34740847 1.054557
-0.18472773 -0.34893015 1.0591761
-0.18179214 -0.35046527 1.0638359
-0.17883055 -0.35201383 1.0685365
-0.22612822 -0.32939938 1.0107001
-0.22208063 -0.32867935 1.0084908
-0.2180507 -0.32796246 1.0062912
-0.21403831 -0.32724866 1.004101
-0.21043055 -0.32713991 1.0037674
-0.2077563 -0.32850355 1.0079514
-0.20505968 -0.32987863 1.0121706
-0.20234039 -0.33126524 1.0164251
-0.1995981 -0.33266351 1.0207155
-0.1968326 -0.33407366 1.0250423
-0.19404355 -0.33549583 1.029406
-0.19123064 -0.33693019 1.0338069
-0.18839358 -0.33837682 1.0382457
-0.18553205 -0.33983594 1.0427227
-0.18264575 -0.3413077 1.0472386
-0.17973424 -0.34279212 1.0517932
-0.17679733 -0.34428954 1.0563878
-0.17383465 -0.3458001 1.0610226
-0.17084584 -0.34732395 1.0656983
-0.23047641 -0.3269549 1.0141636
-0.22640544 -0.32623777 1.0119392
-0.22235231 -0.32552379 1.0097245
-0.21831687 -0.32481292 1.0075195
-0.21429904 -0.32410514 1.0053241
-0.21029861 -0.32340038 1.0031381
-0.20631552 -0.32269862 1.0009613
-0.20285 -0.32279608 1.0012636
-0.20015094 -0.32413825 1.0054268
-0.19742934 -0.32549161 1.0096247
-0.19468489 -0.32685629 1.0138577
-0.19191736 -0.3282325 1.0181265
-0.18912642 -0.32962033 1.0224314
-0.18631177 -0.33101994 1.0267727
-0.18347313 -0.3324315 1.0311512
-0.18061006 -0.33385497 1.0355666
-0.17772244 -0.33529079 1.0400202
-0.17480983 -0.33673891 1.0445122
-0.17187198 -0.33819968 1.0490432
-0.16890851 -0.33967316 1.0536137
-0.1659191 -0.34115949 1.0582241
-0.16290341 -0.34265891 1.062875
-0.23896715 -0.32521093 1.0199006
-0.2348545 -0.32449362 1.017651
-0.23075995 -0.32377946 1.0154113
-0.22668336 -0.32306841 1.0131813
-0.22262466 -0.32236052 1.0109613
-0.21858369 -0.32165566 1.0087508
-0.21456036 -0.32095394 1.0065501
-0.21055456 -0.32025525 1.0043589
-0.20656607 -0.31955948 1.0021769
-0.20259489 -0.31886676 1.0000044
-0.1986409 -0.31817701 0.9978413
-0.19530717 -0.31847385 0.9987722
-0.19258356 -0.31979471 1.0029147
-0.18983726 -0.32112658 1.0070915
-0.187068 -0.32246962 1.0113034
-0.18427545 -0.32382384 1.0155505
-0.18145929 -0.32518941 1.0198331
-0.1786193 -0.32656658 1.024152
-0.17575514 -0.32795545 1.0285077
-0.17286652 -0.32935622 1.0329007
-0.16995312 -0.33076897 1.0373312
-0.16701463 -0.33219391 1.0418
-0.16405068 -0.33363119 1.0463074
-0.16106099 -0.33508089 1.050854
-0.15804522 -0.33654332 1.0554403
-0.15500297 -0.33801854 1.0600667
-0.2475545 -0.32344711 1.0257027
-0.24339944 -0.32272965 1.0234275
-0.23926277 -0.32201532 1.0211623
-0.23514438 -0.32130417 1.0189071
-0.23104416 -0.32059616 1.0166619
-0.22696194 -0.31989124 1.0144265
-0.22289765 -0.31918943 1.012201
-0.21885116 -0.31849071 1.0099852
-0.21482232 -0.31779501 1.007779
-0.21081106 -0.31710234 1.0055825
-0.20681724 -0.31641269 1.0033954
-0.20284069 -0.31572592 1.0012176
-0.19888137 -0.31504217 0.99904931
-0.19493917 -0.31436133 0.99689031
-0.19101393 -0.31368345 0.99474055
-0.18780178 -0.31417307 0.99629325
-0.18505387 -0.31547278 1.0004148
-0.18228309 -0.31678322 1.0045705
-0.1794892 -0.31810462 1.0087608
-0.17667194 -0.31943712 1.0129864
-0.17383094 -0.32078081 1.0172474
-0.17096594 -0.32213584 1.0215445
-0.16807665 -0.32350236 1.025878
-0.16516273 -0.32488051 1.0302483
-0.16222386 -0.32627046 1.034656
-0.15925978 -0.32767242 1.0391018
-0.15628964 -0.32912758 1.0437164
-0.15332042 -0.33065486 1.0485597
-0.15032353 -0.33219641 1.0534482
-0.14729857 -0.33375245 1.0583826
-0.25204194 -0.3209455 1.0292699
-0.24786252 -0.32023114 1.026979
-0.24370161 -0.31951991 1.024698
-0.23955916 -0.3188118 1.0224272
-0.23543501 -0.31810686 1.0201664
-0.23132907 -0.31740502 1.0179156
-0.22724122 -0.31670627 1.0156747
-0.22317132 -0.31601059 1.0134437
-0.21911927 -0.31531796 1.0112225
-0.21508493 -0.31462836 1.0090109
-0.2110682 -0.31394178 1.006809
-0.20706896 -0.31325817 1.0046167
-0.20308706 -0.31257749 1.0024338
-0.19912243 -0.31189975 1.0002602
-0.19517495 -0.31122491 0.99809611
-0.19124448 -0.31055298 0.99594116
-0.18733096 -0.30988392 0.99379557
-0.18430109 -0.31067899 0.99634528
-0.18159129 -0.31205493 1.0007579
-0.17885739 -0.31344315 1.0052099
-0.17609906 -0.31484377 1.0097017
-0.17331596 -0.31625697 1.0142338
-0.17050777 -0.31768289 1.0188068
-0.16767415 -0.31912178 1.0234213
-0.16481476 -0.32057375 1.0280777
-0.16192921 -0.32203898 1.0327767
-0.15901715 -0.32351762 1.0375187
-0.15607822 -0.32500991 1.0423045
-0.15311207 -0.32651609 1.0471348
-0.15011831 -0.32803631 1.0520101
-0.14709666 -0.32957101 1.0569319
-0.25235665 -0.31771523 1.0305551
-0.24817125 -0.31700709 1.0282582
-0.24400452 -0.31630215 1.0259717
-0.23985626 -0.31560034 1.0236952
-0.23572636 -0.31490162 1.0214288
-0.23161472 -0.31420603 1.0191725
-0.22752121 -0.31351349 1.0169262
-0.22344567 -0.31282395 1.0146896
-0.21938804 -0.31213745 1.0124629
-0.21534818 -0.311454 1.0102459
-0.21132597 -0.31077349 1.0080386
-0.20732129 -0.31009594 1.0058409
-0.20333403 -0.30942136 1.0036528
-0.19936408 -0.30874968 1.0014741
-0.19541129 -0.30808085 0.99930471
-0.19147557 -0.30741492 0.99714458
-0.18755682 -0.30675182 0.99499375
-0.18406309 -0.30677181 0.99505866
-0.18135577 -0.30812874 0.99945998
-0.17862436 -0.30949765 1.0039003
-0.17586862 -0.31087887 1.0083804
-0.17308815 -0.31227246 1.0129007
-0.17028265 -0.31367856 1.0174617
-0.16745175 -0.31509739 1.0220639
-0.16459514 -0.31652912 1.0267079
-0.16171245 -0.31797391 1.0313942
-0.1588033 -0.31943193 1.0361235
-0.15586738 -0.32090342 1.0408965
-0.15290427 -0.32238853 1.0457137
-0.14991373 -0.32388771 1.0505764
-0.1468953 -0.32540098 1.055485
-0.25267214 -0.31447682 1.0318434
-0.24848081 -0.31377503 1.0295408
-0.24430819 -0.31307641 1.0272485
-0.24015412 -0.31238091 1.0249665
-0.23601845 -0.31168848 1.0226945
-0.23190105 -0.3109991 1.0204325
-0.22780184 -0.31031275 1.0181805
-0.2237207 -0.30962947 1.0159385
-0.21965748 -0.30894914 1.0137063
-0.21561208 -0.30827183 1.0114839
-0.21158436 -0.30759743 1.0092711
-0.20757425 -0.30692601 1.0070682
-0.20358159 -0.30625752 1.0048747
-0.19960628 -0.30559191 1.0026908
-0.19564819 -0.30492917 1.0005162
-0.19170721 -0.30426925 0.99835092
-0.18778324 -0.30361214 0.9961949
-0.18387619 -0.30295789 0.99404818
-0.18112084 -0.30421269 0.99816531
-0.17839195 -0.30556247 1.0025941
-0.17563877 -0.30692431 1.0070626
-0.17286092 -0.30829835 1.0115709
-0.1700581 -0.30968475 1.01612
-0.16722995 -0.31108367 1.02071
-0.16437614 -0.31249529 1.0253417
-0.16149628 -0.31391975 1.0300156
-0.15859006 -0.31535724 1.0347322
-0.15565711 -0.31680802 1.0394924
-0.15269715 -0.31827235 1.0442971
-0.14970976 -0.31975046 1.049147
-0.14669448 -0.32124236 1.0540421
-0.14365095 -0.32274821 1.0589831
-0.2529884 -0.31123033 1.0331349
-0.24879117 -0.31053495 1.0308267
-0.24461262 -0.30984265 1.0285286
-0.24045271 -0.30915347 1.0262408
-0.23631124 -0.30846736 1.0239632
-0.23218811 -0.30778423 1.0216956
-0.22808319 -0.30710414 1.019438
-0.2239964 -0.30642706 1.0171905
-0.21992758 -0.30575296 1.0149528
-0.21587661 -0.30508181 1.0127249
-0.21184339 -0.30441362 1.0105067
-0.20782782 -0.30374834 1.0082984
-0.20382974 -0.30308595 1.0060996
-0.19984907 -0.30242649 1.0039104
-0.19588569 -0.30176982 1.0017307
-0.19193941 -0.30111596 0.99956012
-0.18801022 -0.30046493 0.99739903
-0.18409795 -0.29981667 0.99524707
-0.18088652 -0.30030674 0.99687392
-0.17816015 -0.30163747 1.0012913
-0.17540951 -0.30298007 1.005748
-0.17263429 -0.30433467 1.0102447
-0.16983414 -0.30570143 1.0147817
-0.16700873 -0.30708054 1.0193597
-0.1641577 -0.30847216 1.0239792
-0.16128069 -0.30987638 1.0286405
-0.15837739 -0.31129348 1.0333446
-0.15544745 -0.3127237 1.0380923
-0.1524906 -0.31416738 1.0428846
-0.14950633 -0.31562448 1.0477214
-0.14649422 -0.31709507 1.0526031
-0.14345393 -0.31857949 1.0575306
-0.25752753 -0.30866775 1.0367543
-0.25330544 -0.30797568 1.0344297
-0.24910228 -0.30728674 1.0321157
-0.24491782 -0.30660084 1.0298119
-0.24075204 -0.30591801 1.0275184
-0.23660477 -0.30523822 1.0252351
-0.23247588 -0.30456141 1.0229619
-0.22836524 -0.30388761 1.0206987
-0.22427277 -0.30321679 1.0184455
-0.22019833 -0.30254894 1.0162023
-0.21614181 -0.301884 1.0139689
-0.21210307 -0.30122203 1.0117455
-0.20808201 -0.30056289 1.0095316
-0.2040785 -0.29990667 1.0073274
-0.20009243 -0.29925328 1.0051329
-0.19612369 -0.29860273 1.0029478
-0.19217217 -0.29795501 1.0007722
-0.18823771 -0.29731002 0.99860591
-0.18432024 -0.29666781 0.99644881
-0.18065281 -0.29641092 0.99558598
-0.17792895 -0.2977227 0.99999195
-0.17518087 -0.29904613 1.0044371
-0.17240825 -0.30038139 1.008922
-0.16961077 -0.30172861 1.013447
-0.16678809 -0.30308801 1.018013
-0.16393982 -0.30445966 1.0226201
-0.16106568 -0.30584383 1.0272692
-0.15816531 -0.30724064 1.0319608
-0.15523843 -0.30865055 1.0366964
-0.15228462 -0.31007349 1.0414759
-0.14930344 -0.31150964 1.0462996
-0.14629452 -0.31295916 1.0511682
-0.14325745 -0.31442219 1.0560822
-0.25785142 -0.30539849 1.0380582
-0.25362331 -0.30471289 1.0357277
-0.24941413 -0.30403036 1.0334078
-0.24522379 -0.30335093 1.0310984
-0.24105211 -0.30267444 1.0287991
-0.23689899 -0.302001 1.02651
-0.23276435 -0.30133057 1.0242312
-0.22864799 -0.30066311 1.0219624
-0.22454984 -0.29999861 1.0197037
-0.22046977 -0.299337 1.017455
-0.21640766 -0.29867834 1.0152161
-0.21236338 -0.29802257 1.0129871
-0.20833682 -0.29736963 1.0107678
-0.20432785 -0.29671958 1.0085583
-0.2003364 -0.29607236 1.0063584
-0.1963623 -0.29542798 1.004168
-0.19240548 -0.29478636 1.0019872
-0.18846577 -0.29414752 0.99981576
-0.18454307 -0.29351136 0.99765348
-0.1806373 -0.29287794 0.99550045
-0.17769834 -0.29381806 0.99869591
-0.17495281 -0.29512241 1.0031295
-0.17218281 -0.29643846 1.0076027
-0.169388 -0.29776627 1.012116
-0.16656801 -0.299106 1.0166698
-0.16372253 -0.30045784 1.0212647
-0.16085123 -0.30182198 1.0259014
-0.15795389 -0.30319884 1.0305815
-0.15503 -0.30458835 1.0353044
-0.15207919 -0.3059907 1.040071
-0.14910109 -0.30740595 1.0448816
-0.14609532 -0.30883443 1.049737
-0.14306149 -0.31027621 1.0546377
-0.13999918 -0.31173152 1.0595843
-0.25817612 -0.30212098 1.0393653
-0.25394195 -0.30144188 1.037029
-0.24972679 -0.30076584 1.0347033
-0.2455305 -0.30009282 1.032388
-0.24135293 -0.2994228 1.0300829
-0.237194 -0.29875579 1.0277883
-0.23305354 -0.29809174 1.0255038
-0.22893144 -0.29743063 1.0232294
-0.22482759 -0.29677242 1.020965
-0.22074188 -0.29611716 1.0187107
-0.21667416 -0.29546475 1.0164664
-0.21262431 -0.29481521 1.0142318
-0.20859222 -0.29416853 1.012007
-0.20457782 -0.29352468 1.0097921
-0.20058094 -0.29288366 1.0075868
-0.19660147 -0.29224542 1.0053911
-0.19263932 -0.29161 1.0032051
-0.18869436 -0.2909773 1.0010284
-0.18476644 -0.29034728 0.99886101
-0.18085547 -0.28971991 0.99670279
-0.17746833 -0.28992349 0.99740314
-0.17472534 -0.29120889 1.0018252
-0.17195794 -0.29250577 1.0062867
-0.16916576 -0.29381421 1.0107881
-0.16634852 -0.29513445 1.0153301
-0.16350582 -0.29646662 1.019913
-0.16063748 -0.29781106 1.0245382
-0.15774304 -0.29916784 1.0292058
-0.15482213 -0.30053705 1.0339162
-0.15187433 -0.30191886 1.0386699
-0.14889933 -0.30331346 1.0434676
-0.1458967 -0.30472097 1.0483098
-0.14286609 -0.30614161 1.0531971
-0.13980708 -0.30757555 1.0581303
-0.25850162 -0.29883522 1.0406758
-0.25426143 -0.29816267 1.0383337
-0.25004023 -0.29749313 1.036002
-0.245838 -0.29682663 1.0336809
-0.24165453 -0.29616308 1.0313702
-0.23748972 -0.29550248 1.0290697
-0.23334347 -0.29484484 1.0267795
-0.22921561 -0.29419011 1.0244994
-0.22510603 -0.29353827 1.0222294
-0.22101465 -0.29288933 1.0199696
-0.21694131 -0.29224324 1.0177196
-0.21288592 -0.29160005 1.0154797
-0.2088483 -0.2909596 1.0132494
-0.20482841 -0.29032201 1.011029
-0.20082608 -0.28968719 1.0088183
-0.19684123 -0.28905514 1.0066172
-0.19287373 -0.28842586 1.0044258
-0.18892345 -0.28779927 1.0022438
-0.18499033 -0.28717548 1.0000714
-0.18107419 -0.28655431 0.99790817
-0.17723891 -0.28603905 0.99611384
-0.17449847 -0.28730556 1.0005244
-0.17173368 -0.2885834 1.0049744
-0.16894414 -0.28987259 1.0094639
-0.16612962 -0.29117343 1.013994
-0.16328979 -0.2924861 1.0185653
-0.16042431 -0.29381081 1.0231786
-0.15753277 -0.2951476 1.0278338
-0.15461479 -0.2964966 1.0325316
-0.15167002 -0.297858 1.0372727
-0.14869809 -0.29923198 1.0420574
-0.14569861 -0.30061865 1.0468864
-0.1426712 -0.30201825 1.0517604
-0.13961546 -0.30343094 1.0566801
-0.13653101 -0.30485693 1.061646
-0.25882792 -0.29554111 1.0419893
-0.25458169 -0.29487517 1.0396415
-0.2503545 -0.29421219 1.037304
-0.24614623 -0.29355216 1.034977
-0.24195686 -0.29289514 1.0326605
-0.23778617 -0.29224104 1.0303543
-0.2336341 -0.29158986 1.0280584
-0.22950047 -0.29094154 1.0257727
-0.22538519 -0.29029611 1.0234971
-0.2212881 -0.28965354 1.0212315
-0.21720915 -0.28901383 1.0189761
-0.21314815 -0.2883769 1.0167305
-0.209105 -0.28774276 1.0144948
-0.2050796 -0.28711146 1.0122689
-0.20107184 -0.2864829 1.0100528
-0.19708158 -0.28585708 1.0078464
-0.19310872 -0.285234 1.0056496
-0.18915313 -0.28461358 1.0034622
-0.18521473 -0.28399593 1.0012845
-0.18129341 -0.28338096 0.9991163
-0.17738894 -0.28276852 0.996957
-0.17427221 -0.2834124 0.99922711
-0.17150998 -0.28467122 1.0036653
-0.16872312 -0.2859413 1.0081433
-0.16591132 -0.28722283 1.0126616
-0.16307436 -0.28851619 1.0172216
-0.1602117 -0.28982118 1.0218226
-0.15732305 -0.29113805 1.0264655
-0.15440802 -0.29246697 1.0311508
-0.15146625 -0.29380801 1.035879
-0.1484974 -0.29516149 1.040651
-0.14550105 -0.29652745 1.0454669
-0.14247684 -0.2979061 1.0503277
-0.1394244 -0.29929769 1.055234
-0.13634327 -0.3007023 1.0601861
-0.2506693 -0.29092276 1.0386084
-0.24645512 -0.29026937 1.0362757
-0.2422598 -0.28961885 1.0339534
-0.2380833 -0.28897133 1.0316417
-0.23392539 -0.28832665 1.0293401
-0.22978599 -0.28768483 1.0270488
-0.22566497 -0.28704584 1.0247676
-0.22156225 -0.28640974 1.0224967
-0.21747762 -0.28577638 1.0202355
-0.213411 -0.28514579 1.0179844
-0.20936233 -0.28451803 1.0157433
-0.20533143 -0.28389302 1.0135119
-0.20131819 -0.28327075 1.0112903
-0.19732253 -0.28265119 1.0090785
-0.19334428 -0.28203431 1.0068762
-0.18938339 -0.28142017 1.0046837
-0.18543969 -0.28080869 1.0025007
-0.18151309 -0.28019983 1.000327
-0.17760348 -0.27959362 0.99816281
-0.17404652 -0.27952924 0.99793303
-0.17128685 -0.28076917 1.0023596
-0.16850267 -0.28202027 1.006826
-0.1656937 -0.28328279 1.0113333
-0.16285948 -0.28455669 1.0158812
-0.15999967 -0.28584212 1.0204703
-0.15711389 -0.28713918 1.0251008
-0.15420179 -0.28844807 1.0297736
-0.15126303 -0.28976893 1.0344892
-0.14829724 -0.29110199 1.0392482
-0.14530402 -0.29244736 1.0440513
-0.14228304 -0.29380521 1.0488989
-0.13923384 -0.29517573 1.0537918
-0.13615607 -0.29655913 1.0587305
-0.24256344 -0.28633428 1.0352494
-0.238381 -0.28569326 1.0329317
-0.23421727 -0.28505513 1.0306245
-0.23007207 -0.2844198 1.0283275
-0.22594531 -0.28378731 1.0260407
-0.22183686 -0.28315762 1.023764
-0.21774659 -0.2825307 1.0214974
-0.21367441 -0.28190657 1.0192409
-0.20962018 -0.2812852 1.0169942
-0.20558381 -0.28066659 1.0147576
-0.20156512 -0.28005064 1.0125307
-0.19756405 -0.27943745 1.0103136
-0.19358042 -0.27882683 1.008106
-0.18961416 -0.27821892 1.005908
-0.18566519 -0.27761367 1.0037197
-0.18173331 -0.27701098 1.0015407
-0.17781854 -0.276411 0.99937141
-0.17392063 -0.27581352 0.99721128
-0.17106435 -0.27687734 1.0010575
-0.16828291 -0.27810964 1.005513
-0.16547666 -0.27935308 1.0100086
-0.16264519 -0.28060764 1.0145445
-0.15978819 -0.28187355 1.0191214
-0.15690529 -0.28315091 1.0237398
-0.15399612 -0.28443992 1.0284002
-0.15106036 -0.28574067 1.0331031
-0.14809763 -0.28705344 1.0378494
-0.14510754 -0.28837827 1.0426394
-0.14208972 -0.28971541 1.0474739
-0.13904382 -0.29106507 1.0523536
-0.13601892 -0.29253384 1.057664
-0.13296485 -0.29402086 1.0630404
-0.23450986 -0.28177541 1.031912
-0.23035884 -0.28114662 1.0296092
-0.22622633 -0.28052065 1.0273168
-0.22211216 -0.27989745 1.0250345
-0.21801622 -0.279277 1.0227623
-0.2139384 -0.27865925 1.0205001
-0.20987859 -0.27804428 1.018248
-0.20583667 -0.27743202 1.0160058
-0.20181249 -0.27682245 1.0137733
-0.19780597 -0.27621555 1.0115508
-0.19381697 -0.27561131 1.0093379
-0.1898454 -0.27500969 1.0071347
-0.18589112 -0.27441069 1.0049411
-0.18195404 -0.27381432 1.0027571
-0.17803402 -0.27322054 1.0005825
-0.17413101 -0.27262935 0.9984175
-0.17089519 -0.27307993 1.0000676
-0.16817579 -0.2743921 1.0048729
-0.16543014 -0.2757169 1.0097246
-0.16265786 -0.27705461 1.0146235
-0.15985854 -0.27840531 1.0195701
-0.15703177 -0.27976927 1.0245651
-0.1541772 -0.28114668 1.0296094
-0.15129437 -0.28253767 1.0347035
-0.14838287 -0.28394252 1.0398483
-0.14544226 -0.28536141 1.0450445
-0.14247215 -0.28679457 1.0502931
-0.13947204 -0.28824222 1.0555946
-0.13644147 -0.2897045 1.0609497
-0.24640933 -0.29225293 1.0842731
-0.23064636 -0.27786529 1.0308943
-0.22650804 -0.27724582 1.028596
-0.22238812 -0.27662912 1.0263081
-0.2182865 -0.27601516 1.0240302
-0.21420306 -0.27540392 1.0217625
-0.21013765 -0.27479538 1.0195048
-0.20609015 -0.2741895 1.017257
-0.20206048 -0.2735863 1.0150191
-0.1980485 -0.27298579 1.012791
-0.19405411 -0.27238786 1.0105728
-0.19007716 -0.27179256 1.0083642
-0.18611756 -0.27119988 1.0061653
-0.18217519 -0.27060977 1.0039759
-0.17824994 -0.27002218 1.001796
-0.17434172 -0.26943722 0.99962568
-0.17139709 -0.27034798 1.0030047
-0.16867208 -0.27165085 1.0078384
-0.16592069 -0.2729663 1.0127188
-0.16314253 -0.27429458 1.0176468
-0.16033719 -0.27563584 1.0226229
-0.15750431 -0.27699032 1.0276481
-0.15464342 -0.27835816 1.0327228
-0.15175414 -0.27973956 1.0378479
-0.14883605 -0.28113475 1.0430242
-0.1458887 -0.28254396 1.0482523
-0.14291167 -0.28396735 1.0535332
-0.13990444 -0.28540507 1.0588672
-0.13686644 -0.28685704 1.0642542
-0.24671797 -0.28879389 1.0856313
-0.24234925 -0.28814754 1.0832014
-0.23800004 -0.28750405 1.0807824
-0.2226648 -0.27335271 1.0275849
-0.21855748 -0.27274528 1.0253015
-0.21446836 -0.27214053 1.023028
-0.21039735 -0.27153844 1.0207647
-0.20634432 -0.27093908 1.0185115
-0.20230912 -0.27034226 1.016268
-0.19829166 -0.26974812 1.0140345
-0.1942918 -0.26915655 1.0118107
-0.19030949 -0.26856759 1.0095967
-0.18634453 -0.2679812 1.0073923
-0.18239689 -0.26739737 1.0051976
-0.17846638 -0.26681608 1.0030124
-0.17460625 -0.26631862 1.0011424
-0.17190188 -0.26759982 1.0059587
-0.16917132 -0.26889336 1.0108213
-0.16641419 -0.27019936 1.0157309
-0.16363013 -0.27151811 1.0206883
-0.16081876 -0.2728498 1.0256944
-0.15797967 -0.2741946 1.0307497
-0.15511245 -0.27555269 1.0358551
-0.15221672 -0.27692437 1.0410115
-0.14929201 -0.27830979 1.0462195
-0.14633787 -0.2797091 1.0514797
-0.14335388 -0.28112254 1.0567931
-0.14033933 -0.28254986 1.0621587
-0.13729405 -0.28399181 1.0675793
-0.24702735 -0.28532615 1.0869926
-0.24265251 -0.2846868 1.0845568
-0.23829718 -0.28405023 1.0821317
-0.23396175 -0.28341708 1.0797197
-0.22964557 -0.28278667 1.0773181
-0.21473432 -0.26886901 1.0242966
-0.21065767 -0.26827344 1.0220277
-0.20659904 -0.2676805 1.0197688
-0.20255834 -0.2670902 1.01752
-0.1985354 -0.26650247 1.015281
-0.1945301 -0.2659173 1.0130516
-0.19054238 -0.26533473 1.0108322
-0.1865721 -0.26475468 1.0086225
-0.18261912 -0.26417717 1.0064224
-0.17868337 -0.2636022 1.0042319
-0.17511955 -0.26356378 1.0040855
-0.17240964 -0.26483542 1.0089301
-0.16967349 -0.26611948 1.0138218
-0.1669106 -0.26741591 1.0187608
-0.16412063 -0.26872498 1.0237479
-0.16130319 -0.27004692 1.028784
-0.15845791 -0.27138194 1.03387
-0.15558437 -0.27273026 1.0390066
-0.15268213 -0.27409202 1.0441945
-0.14975077 -0.27546746 1.0494344
-0.14678979 -0.27685669 1.0547268
-0.1437986 -0.27825963 1.0600716
-0.14077695 -0.27967688 1.0654708
-0.25173837 -0.28248504 1.0908107
-0.24733755 -0.28184977 1.0883576
-0.2429565 -0.28121737 1.0859156
-0.23859507 -0.28058779 1.0834845
-0.23425379 -0.27996185 1.0810674
-0.22993141 -0.27933815 1.0786591
-0.22562812 -0.2787171 1.0762608
-0.22134393 -0.27809879 1.0738733
-0.20685442 -0.26441392 1.0210294
-0.20280817 -0.2638301 1.018775
-0.19877973 -0.26324883 1.0165304
-0.194769 -0.2626701 1.0142957
-0.19077587 -0.26209396 1.0120709
-0.1868002 -0.26152027 1.0098556
-0.1828419 -0.26094913 1.0076501
-0.17890087 -0.26038048 1.0054543
-0.17563586 -0.26079264 1.0070459
-0.17292044 -0.26205468 1.0119193
-0.17017861 -0.263329 1.01684
-0.16740999 -0.26461577 1.0218089
-0.16461408 -0.26591507 1.026826
-0.16179058 -0.26722714 1.0318925
-0.15893906 -0.26855221 1.0370094
-0.15605916 -0.26989055 1.0421773
-0.15315039 -0.27124226 1.0473969
-0.1502123 -0.27260751 1.0526688
-0.14724429 -0.27398619 1.0579926
-0.14424612 -0.27537894 1.0633706
-0.14121729 -0.27678591 1.0688035
-0.25205559 -0.27899283 1.0921853
-0.24764855 -0.27836466 1.0897261
-0.24326129 -0.27773929 1.0872779
-0.2388937 -0.27711669 1.0848407
-0.23454602 -0.27649733 1.0824161
-0.2302181 -0.2758812 1.080004
-0.22590873 -0.27526692 1.0775993
-0.22161859 -0.27465552 1.0752058
-0.21734746 -0.27404681 1.0728228
-0.21309523 -0.27344078 1.0704504
-0.19902465 -0.25998718 1.0177829
-0.19500846 -0.25941491 1.0155427
-0.19100991 -0.25884521 1.0133125
-0.18702887 -0.25827795 1.0110918
-0.18306524 -0.2577132 1.008881
-0.1791189 -0.25715089 1.0066797
-0.17615524 -0.25800514 1.0100238
-0.17343427 -0.25925744 1.0149262
-0.17068677 -0.26052192 1.0198764
-0.16791232 -0.26179877 1.0248749
-0.16511051 -0.26308817 1.0299226
-0.16228089 -0.26439023 1.0350198
-0.15942317 -0.26570529 1.0401679
-0.15653685 -0.26703346 1.0453674
-0.15362149 -0.26837489 1.0506188
-0.15067649 -0.26972952 1.0559218
-0.14770161 -0.2710979 1.0612786
-0.1446964 -0.27248022 1.0666901
-0.14166039 -0.27387676 1.0721571
-0.25237361 -0.2754918 1.0935632
-0.2479603 -0.27487072 1.0910978
-0.24356681 -0.27425238 1.0886434
-0.23919307 -0.27363688 1.0862001
-0.23483892 -0.27302411 1.0837678
-0.23050474 -0.27241468 1.0813487
-0.22619 -0.27180815 1.078941
-0.22189392 -0.27120367 1.0765415
-0.2176169 -0.27060187 1.0741527
-0.21335879 -0.27000272 1.0717744
-0.20911953 -0.26940623 1.0694066
-0.19524851 -0.25615174 1.0167929
-0.19124451 -0.25558844 1.014557
-0.18725808 -0.25502768 1.012331
-0.18328913 -0.25446936 1.0101148
-0.17937794 -0.25397074 1.0081356
-0.17667769 -0.2552011 1.0130194
-0.17395116 -0.25644347 1.017951
-0.17119795 -0.25769797 1.0229307
-0.16841768 -0.25896481 1.0279595
-0.16560991 -0.26024416 1.0330378
-0.16277424 -0.26153612 1.0381663
-0.15991022 -0.26284093 1.0433457
-0.15701741 -0.2641587 1.0485766
-0.15409528 -0.26548946 1.053859
-0.15114357 -0.26683369 1.0591949
-0.1481618 -0.26819161 1.0645852
-0.14514953 -0.26956344 1.0700306
-0.14210628 -0.2709493 1.0755318
-0.25269243 -0.27198192 1.0949447
-0.24827282 -0.27136797 1.092473
-0.24387313 -0.27075678 1.0900126
-0.23949321 -0.27014834 1.087563
-0.23513293 -0.26954263 1.0851246
-0.23079289 -0.26894048 1.0827005
-0.22647095 -0.26833951 1.0802811
-0.22216989 -0.2677432 1.0778805
-0.217887 -0.26714841 1.0754859
-0.21362302 -0.26655614 1.0731016
-0.20937793 -0.26596656 1.0707281
-0.20515156 -0.26537955 1.0683649
-0.20094383 -0.26479512 1.0660121
-0.18748789 -0.25176942 1.0135733
-0.18351354 -0.25121757 1.0113516
-0.17990895 -0.25116 1.0111198
-0.17720327 -0.2523804 1.0160329
-0.17447114 -0.2536127 1.0209938
-0.1717122 -0.25485706 1.0260035
-0.16892606 -0.25611371 1.0310625
-0.1661123 -0.25738281 1.0361716
-0.16327053 -0.25866455 1.0413316
-0.16040017 -0.25995889 1.0465424
-0.15750074 -0.26126593 1.0518043
-0.15457201 -0.26258618 1.0571194
-0.15161353 -0.26391986 1.0624884
-0.14862485 -0.26526713 1.0679123
-0.1456055 -0.26662827 1.0733919
-0.25745806 -0.26907271 1.0988189
-0.25301206 -0.26846316 1.0963297
-0.24858615 -0.26785639 1.0938518
-0.24418023 -0.26725239 1.0913851
-0.23979409 -0.26665103 1.0889294
-0.23542769 -0.26605242 1.0864849
-0.2310821 -0.26545796 1.0840572
-0.2267541 -0.26486403 1.0816318
-0.22244662 -0.26427418 1.079223
-0.21815775 -0.26368633 1.0768224
-0.2138879 -0.26310104 1.0744323
-0.20963696 -0.26251835 1.0720527
-0.2054048 -0.26193824 1.0696837
-0.20119132 -0.26136068 1.0673251
-0.19699638 -0.26078567 1.0649769
-0.19281983 -0.26021317 1.062639
-0.18866162 -0.25964323 1.0603114
-0.18452157 -0.25907573 1.057994
-0.18039958 -0.25851074 1.0556867
-0.17629553 -0.25794819 1.0533894
-0.17220929 -0.25738809 1.051102
-0.16814077 -0.25683039 1.0488247
-0.16408989 -0.25627521 1.0465574
-0.16089295 -0.25705886 1.0497576
-0.15798707 -0.25835532 1.055052
-0.15505171 -0.25966492 1.0604
-0.15208644 -0.26098782 1.0658025
-0.14909083 -0.26232436 1.0712605
-0.14606434 -0.26367459 1.0767745
-0.25778487 -0.26553783 1.1002138
-0.25333253 -0.26493555 1.0977184
-0.24890031 -0.26433599 1.0952342
-0.24448809 -0.26373911 1.0927612
-0.24009575 -0.26314494 1.0902992
-0.23572318 -0.26255345 1.0878485
-0.2313702 -0.26196459 1.0854087
-0.22703715 -0.26137888 1.0829819
-0.22272341 -0.2607958 1.0805659
-0.21842916 -0.26021561 1.0781621
-0.21415342 -0.25963736 1.0757661
-0.20989662 -0.2590616 1.0733806
-0.20565869 -0.25848845 1.0710058
-0.20143944 -0.25791779 1.0686414
-0.1972388 -0.25734967 1.0662875
-0.19305661 -0.25678402 1.0639439
-0.18889275 -0.25622088 1.0616105
-0.18474713 -0.25566018 1.0592873
-0.18061961 -0.25510192 1.0569743
-0.1765102 -0.25454628 1.0546721
-0.17241859 -0.25399297 1.0523796
-0.16834466 -0.25344196 1.0500965
-0.16428836 -0.25289333 1.0478233
-0.16138878 -0.25414097 1.0529927
-0.1584764 -0.25542668 1.0583198
-0.15553439 -0.25672543 1.063701
-0.15256231 -0.25803748 1.0691373
-0.14955969 -0.259363 1.0746294
-0.14652608 -0.26070225 1.0801784
-0.25811252 -0.26199391 1.1016121
-0.25365376 -0.26139891 1.0991102
-0.24921522 -0.26080662 1.0966198
-0.24479672 -0.26021701 1.0941406
-0.24039818 -0.25963005 1.0916727
-0.2360194 -0.25904569 1.0892156
-0.23166034 -0.25846401 1.0867698
-0.22732148 -0.25788569 1.0843382
-0.22300242 -0.25731048 1.0819196
-0.21870127 -0.25673628 1.0795052
-0.21441962 -0.25616503 1.0771033
-0.21015696 -0.25559631 1.0747119
-0.2059132 -0.2550301 1.0723312
-0.20168819 -0.25446638 1.069961
-0.19748178 -0.25390515 1.0676011
-0.19329393 -0.25334641 1.0652517
-0.18912433 -0.25278994 1.062912
-0.18497327 -0.25223628 1.0605839
-0.18084 -0.25168455 1.058264
-0.17672545 -0.25113615 1.0559583
-0.1726283 -0.25058946 1.0536596
-0.16854897 -0.25004518 1.051371
-0.16477714 -0.24994287 1.0509408
-0.16188765 -0.25120497 1.0562476
-0.15896876 -0.25247979 1.0616078
-0.15602008 -0.25376758 1.0670227
-0.15304117 -0.2550686 1.0724931
-0.15003155 -0.25638303 1.0780199
-0.14699076 -0.25771108 1.083604
-0.258441 -0.258441 1.103014
-0.25397584 -0.25785333 1.1005058
-0.24953094 -0.25726834 1.0980091
-0.24510615 -0.25668597 1.0955236
-0.24070136 -0.25610626 1.0930494
-0.23631641 -0.25552914 1.0905863
-0.23195116 -0.25495458 1.0881342
-0.22760652 -0.25438374 1.0856979
-0.22328016 -0.25381422 1.0832671
-0.21897407 -0.25324827 1.0808517
-0.21468645 -0.25268406 1.0784436
-0.21041793 -0.25212237 1.0760465
-0.20616831 -0.25156316 1.0736598
-0.20193751 -0.25100645 1.0712837
-0.1977251 -0.25045177 1.0689164
-0.19353178 -0.24990025 1.0665625
-0.18935655 -0.24935071 1.0642171
-0.18519986 -0.24880384 1.0618831
-0.18106169 -0.24825983 1.0595613
-0.17694113 -0.24771757 1.0572469
-0.17283854 -0.24717769 1.0549427
-0.16875379 -0.24664015 1.0526485
-0.16528548 -0.24699965 1.0541829
-0.16238961 -0.24825078 1.0595226
-0.1594642 -0.24951455 1.0649164
-0.15650882 -0.25079122 1.0703652
-0.15352303 -0.25208101 1.0758699
-0.15050638 -0.25338414 1.0814316
-0.25877047 -0.25487918 1.1044202
-0.25429931 -0.25429931 1.1019075
-0.24984811 -0.25372174 1.0994048
-0.24541697 -0.25314665 1.0969129
-0.2410053 -0.25257355 1.0944296
-0.23661412 -0.25200367 1.0919602
-0.23224273 -0.25143635 1.089502
-0.22789186 -0.25087255 1.087059
-0.22355908 -0.25030974 1.0846202
-0.21924639 -0.24975024 1.0821959
-0.21495397 -0.24919443 1.0797875
-0.21067955 -0.24863982 1.0773844
-0.20642364 -0.24808712 1.0749894
-0.2021873 -0.24753773 1.0726088
-0.1979696 -0.24699064 1.0702382
-0.19376983 -0.24644512 1.0678744
-0.18959004 -0.24590392 1.0655293
-0.18542759 -0.24536379 1.0631889
-0.1812834 -0.24482603 1.0608587
-0.17715733 -0.24429063 1.0585388
-0.17304927 -0.24375758 1.056229
-0.1689591 -0.24322683 1.0539292
-0.165797 -0.24403827 1.0574453
-0.1628947 -0.24527822 1.0628182
-0.15996273 -0.24653079 1.0682456
-0.15700063 -0.24779616 1.0737287
-0.15400796 -0.24907459 1.0792682
-0.15098424 -0.25036627 1.0848652
-0.25462264 -0.25073528 1.1033086
-0.25016546 -0.25016546 1.1008012
-0.24572775 -0.24959747 1.0983019
-0.24131022 -0.24903215 1.0958143
-0.23691393 -0.24847072 1.0933439
-0.23253608 -0.24791037 1.0908781
-0.22859411 -0.2478037 1.0904088
-0.22599134 -0.24916995 1.0964206
-0.22332671 -0.25051433 1.1023363
-0.22060187 -0.25183752 1.1081588
-0.21094157 -0.2451483 1.0787243
-0.20668069 -0.24460374 1.076328
-0.20243788 -0.24406062 1.0739381
-0.19821447 -0.24352063 1.0715621
-0.19401003 -0.24298345 1.0691983
-0.18982354 -0.24244788 1.0668416
-0.18565546 -0.2419147 1.0644954
-0.18150568 -0.24138385 1.0621595
-0.17737408 -0.24085532 1.0598339
-0.17326051 -0.2403291 1.0575184
-0.16919102 -0.23984222 1.0553759
-0.16631165 -0.24105845 1.0607277
-0.16340294 -0.24228711 1.0661342
-0.16046439 -0.24352831 1.0715958
-0.15749553 -0.24478219 1.0771133
-0.15449594 -0.24604909 1.082688
-0.15146512 -0.24732912 1.0883205
-0.25494742 -0.24716276 1.1047158
-0.25048319 -0.24659973 1.1021993
-0.2460402 -0.2460402 1.0996984
-0.24161664 -0.2454825 1.0972058
-0.23721211 -0.24492632 1.0947199
-0.23282793 -0.24437311 1.0922472
-0.2299816 -0.24544254 1.0970272
-0.2272253 -0.24664627 1.1024073
-0.22443005 -0.24784885 1.1077824
-0.22159731 -0.24905185 1.1131593
-0.21873163 -0.2502605 1.1185615
-0.20693696 -0.24111003 1.0776626
-0.20268938 -0.24057524 1.0752723
-0.19846052 -0.24004272 1.0728922
-0.19424978 -0.23951186 1.0705194
-0.19005759 -0.23898332 1.0681571
-0.18588388 -0.2384571 1.0658051
-0.1817285 -0.23793319 1.0634634
-0.17759134 -0.23741159 1.0611321
-0.17347229 -0.23689227 1.0588109
-0.1697152 -0.23685527 1.0586456
-0.16682953 -0.23806012 1.0640308
-0.16391437 -0.23927729 1.069471
-0.16096921 -0.24050693 1.074967
-0.15799356 -0.24174917 1.0805193
-0.15498701 -0.24300432 1.0861293
-0.15194909 -0.24427259 1.0917979
-0.25527304 -0.24358115 1.1061268
-0.25080234 -0.24302554 1.1036037
-0.24635203 -0.24247247 1.1010922
-0.2419219 -0.2419219 1.098592
-0.2375131 -0.2413751 1.0961089
-0.2334848 -0.24120331 1.0953288
-0.23069163 -0.24232313 1.100414
-0.22786926 -0.24345008 1.1055316
-0.22501045 -0.24457659 1.1106472
-0.22212106 -0.24570914 1.1157902
-0.21919769 -0.24684425 1.1209449
-0.20719607 -0.23761018 1.079012
-0.20294191 -0.23708166 1.076612
-0.19870663 -0.23655552 1.0742227
-0.19449012 -0.2360317 1.071844
-0.19029224 -0.23551019 1.0694758
-0.18611285 -0.23499097 1.0671179
-0.18195187 -0.23447405 1.0647706
-0.17780915 -0.23395941 1.0624335
-0.17368457 -0.233447 1.0601066
-0.17024264 -0.23384978 1.0619357
-0.16735063 -0.23504302 1.0673543
-0.16442898 -0.23624852 1.0728287
-0.16147721 -0.23746648 1.0783595
-0.15849476 -0.23869692 1.0839471
-0.15548123 -0.23994018 1.0895928
-0.25112233 -0.23944221 1.1050117
-0.24666561 -0.23889661 1.1024938
-0.24222915 -0.23835349 1.0999873
-0.23781285 -0.23781285 1.0974922
-0.23387839 -0.23774415 1.0971752
-0.23104045 -0.23880652 1.102078
-0.22816859 -0.23986955 1.1069838
-0.22526494 -0.24093555 1.1119033
-0.22232799 -0.24200304 1.1168298
-0.21936117 -0.24307589 1.1217809
-0.20745359 -0.23409902 1.0803531
-0.20319444 -0.23357865 1.0779517
-0.19895333 -0.23305961 1.0755564
-0.19473104 -0.2325429 1.0731717
-0.19052747 -0.2320285 1.0707978
-0.1863424 -0.23151632 1.0684341
-0.18217579 -0.23100641 1.0660809
-0.17802748 -0.23049875 1.0637381
-0.17389736 -0.22999328 1.0614054
-0.17077336 -0.23082554 1.0652462
-0.16787502 -0.23200706 1.0706989
-0.16494684 -0.23320071 1.0762075
-0.16198839 -0.23440674 1.0817733
-0.15899913 -0.23562522 1.0873965
-0.15597862 -0.23685642 1.0930784
-0.25144315 -0.23584977 1.1064234
-0.24698001 -0.23531166 1.103899
-0.24253719 -0.23477599 1.1013861
-0.23811455 -0.23424277 1.0988846
-0.233982 -0.233982 1.0976613
-0.23109962 -0.23498365 1.1023602
-0.22818737 -0.23598865 1.1070749
-0.22524062 -0.2369923 1.1117833
-0.22226603 -0.23800169 1.1165185
-0.21925589 -0.23900868 1.1212425
-0.20771238 -0.23057981 1.0817008
-0.20344676 -0.23006596 1.0792903
-0.19920066 -0.22955504 1.0768934
-0.19497257 -0.22904545 1.0745028
-0.19076325 -0.22853814 1.0721229
-0.18657251 -0.22803307 1.0697535
-0.18240026 -0.22753021 1.0673945
-0.17824635 -0.22702956 1.0650458
-0.17418256 -0.22662464 1.0631462
-0.1713074 -0.22778237 1.0685774
-0.16840269 -0.22895196 1.0740643
-0.16546801 -0.23013365 1.0796078
-0.16250286 -0.23132759 1.0852089
-0.15950675 -0.23253395 1.0908681
-0.15647919 -0.23375286 1.0965863
-0.24729519 -0.23171753 1.1053077
-0.242846 -0.2311894 1.1027884
-0.2384171 -0.2306637 1.1002809
-0.23400937 -0.23014145 1.0977896
-0.23088518 -0.23088518 1.1013373
-0.22792797 -0.23182417 1.1058164
-0.22493929 -0.23276326 1.1102959
-0.22191952 -0.23370285 1.1147778
-0.21886648 -0.23464064 1.1192511
-0.20797139 -0.22705133 1.0830497
-0.20370115 -0.22654614 1.0806398
-0.19944768 -0.22604069 1.0782288
-0.19521473 -0.22553936 1.0758374
-0.19099961 -0.22503915 1.0734514
-0.18680319 -0.2245412 1.0710762
-0.18262529 -0.22404546 1.0687114
-0.17846577 -0.22355185 1.0663569
-0.17472619 -0.22357437 1.0664643
-0.17184478 -0.22472009 1.0719295
-0.16893369 -0.22587763 1.077451
-0.16599245 -0.22704715 1.0830296
-0.16302058 -0.22822882 1.0886663
-0.16001761 -0.22942285 1.0943619
-0.24761118 -0.22811423 1.1067201
-0.24315561 -0.22759365 1.1041944
-0.23872049 -0.22707559 1.101681
-0.2343068 -0.22656113 1.099185
-0.23035355 -0.22648205 1.0988014
-0.22733988 -0.22733988 1.1029632
-0.22429383 -0.22819458 1.1071099
-0.22121148 -0.22904196 1.1112211
-0.21808645 -0.22987491 1.1152622
-0.208231 -0.22351401 1.0844016
-0.20395488 -0.22301608 1.0819858
-0.1996963 -0.22251873 1.0795729
-0.19545646 -0.22202335 1.0771695
-0.19123659 -0.2215315 1.0747832
-0.18703443 -0.22104068 1.072402
-0.18285085 -0.22055206 1.0700314
-0.17868572 -0.22006558 1.0676712
-0.17527322 -0.22050503 1.0698032
-0.17238556 -0.22163858 1.0753027
-0.16946805 -0.22278383 1.0808591
-0.16652022 -0.22394098 1.0864731
-0.16354163 -0.22511025 1.0921459
-0.16053176 -0.22629175 1.0978781
-0.24792798 -0.22450171 1.1081361
-0.24346603 -0.22398874 1.1056041
-0.23902507 -0.22347872 1.1030866
-0.23460345 -0.22297022 1.1005766
-0.23020239 -0.2224645 1.0980804
-0.2262335 -0.22236626 1.0975955
-0.2230597 -0.2230597 1.1010183
-0.21981369 -0.2237042 1.1041995
-0.21279554 -0.22046384 1.0882052
-0.20849246 -0.21996911 1.0857632
-0.20421019 -0.21947823 1.0833403
-0.19994499 -0.21898738 1.0809174
-0.19570005 -0.21850005 1.078512
-0.19147371 -0.21801461 1.0761158
-0.18726625 -0.2175315 1.0737312
-0.18307699 -0.21705005 1.0713547
-0.17890622 -0.21657069 1.0689887
-0.17582367 -0.21741636 1.0731629
-0.17292973 -0.21853758 1.0786972
-0.1700058 -0.21967041 1.0842888
-0.16705139 -0.22081505 1.0899388
-0.16406602 -0.22197168 1.0956478
-0.1610492 -0.22314046 1.1014169
-0.24377753 -0.22037488 1.1070186
-0.23932934 -0.21987167 1.1044908
-0.23490165 -0.21937096 1.1019756
-0.2304941 -0.21887255 1.0994718
-0.22610651 -0.21837637 1.0969794
-0.22173882 -0.21788248 1.0944984
-0.21739139 -0.21739139 1.0920315
-0.21306303 -0.216902 1.0895731
-0.20875409 -0.21641478 1.0871257
-0.20446484 -0.21593015 1.0846912
-0.20019475 -0.21544768 1.0822675
-0.1959437 -0.21496736 1.0798547
-0.19171184 -0.21448949 1.0774542
-0.18749838 -0.21401329 1.0750622
-0.18330368 -0.21353933 1.0726813
-0.17924817 -0.21321097 1.0710318
-0.17637762 -0.21430829 1.076544
-0.17347737 -0.21541694 1.0821131
-0.17054698 -0.21653716 1.0877404
-0.16758592 -0.21766907 1.0934263
-0.16459376 -0.21881288 1.0991721
-0.23963489 -0.21625587 1.1059009
-0.2352009 -0.21576281 1.1033794
-0.23078707 -0.21527196 1.1008693
-0.22639325 -0.21478334 1.0983706
-0.22201934 -0.21429694 1.0958831
-0.21766566 -0.21381316 1.0934092
-0.21333121 -0.21333121 1.0909445
-0.2090164 -0.21285155 1.0884917
-0.20472115 -0.21237428 1.086051
-0.20044518 -0.21189919 1.0836214
-0.19618824 -0.21142615 1.0812024
-0.19195029 -0.21095528 1.0787944
-0.18773118 -0.21048646 1.0763969
-0.18353076 -0.21001974 1.0740101
-0.17981176 -0.21009584 1.0743994
-0.17759475 -0.21196793 1.0839729
-0.17537394 -0.21391766 1.0939436
-0.17311211 -0.21590386 1.1041007
-0.23108076 -0.2116622 1.1022702
-0.22668071 -0.21118118 1.0997652
-0.2223006 -0.21070231 1.0972714
-0.2179402 -0.21022549 1.0947883
-0.21360005 -0.2097514 1.0923194
-0.20927934 -0.20927934 1.089861
-0.20497814 -0.20880951 1.0874143
-0.2006962 -0.20834178 1.0849785
-0.1964334 -0.20787612 1.0825535
-0.19218962 -0.20741256 1.0801394
-0.18850943 -0.20755079 1.0808593
-0.18639521 -0.20945442 1.0907727
-0.18424182 -0.21139324 1.1008695
-0.18205109 -0.21337171 1.1111728
-0.2269689 -0.20756985 1.1011634
-0.22258259 -0.20709859 1.0986633
-0.21821614 -0.20662944 1.0961745
-0.2138696 -0.20616259 1.0936978
-0.20954296 -0.20569813 1.0912338
-0.20523575 -0.20523575 1.0887809
-0.20094787 -0.20477545 1.086339
-0.19735277 -0.20501694 1.0876201
-0.19530678 -0.20690916 1.0976584
-0.19322529 -0.20883946 1.1078987
-0.19110532 -0.21080689 1.118336
-0.21849267 -0.20302416 1.0975636
-0.21413994 -0.20256481 1.0950803
-0.20980723 -0.20210789 1.0926101
-0.20630738 -0.20245117 1.094466
-0.20433387 -0.20433387 1.1046439
-0.20232449 -0.20625311 1.1150196
