# .PCD v0.7 - Point Cloud Data file format
VERSION 0.7
FIELDS x y z
SIZE 4 4 4
TYPE F F F
COUNT 1 1 1
WIDTH 1379
HEIGHT 1
VIEWPOINT 0 0 0 1 0 0 0
POINTS 1379
DATA ascii
-0.46432582 -0.2393567 0.7424475
-0.46113551 -0.23905893 0.74152386
-0.45795333 -0.23876201 0.74060285
-0.45477891 -0.23846573 0.73968387
-0.45161188 -0.23816995 0.73876643
-0.44845363 -0.2378754 0.73785275
-0.44530213 -0.23758101 0.73693961
-0.44215861 -0.23728748 0.73602909
-0.43902305 -0.23699474 0.73512107
-0.43589529 -0.23670278 0.7342155
-0.43277532 -0.23641159 0.73331225
-0.42966297 -0.23612109 0.73241115
-0.42655823 -0.23583129 0.73151225
-0.42346114 -0.23554221 0.73061556
-0.42037165 -0.23525386 0.72972113
-0.41728964 -0.23496617 0.72882879
-0.41421524 -0.23467922 0.72793871
-0.41114828 -0.23439294 0.72705072
-0.40808883 -0.23410738 0.72616494
-0.40503684 -0.23382252 0.72528136
-0.40199223 -0.23353834 0.72439986
-0.39895502 -0.23325485 0.72352052
-0.39592519 -0.23297207 0.72264338
-0.39290267 -0.23268995 0.72176826
-0.38988748 -0.23240851 0.72089529
-0.38687956 -0.23212774 0.72002441
-0.38387892 -0.23184767 0.71915567
-0.38088551 -0.23156828 0.71828902
-0.37789935 -0.23128957 0.71742451
-0.37492028 -0.23101149 0.71656197
-0.37263128 -0.23115771 0.7170155
-0.37178758 -0.23220862 0.72027528
-0.37093616 -0.23326913 0.7235648
-0.37007692 -0.23433937 0.72688454
-0.36920977 -0.23541948 0.73023486
-0.36833462 -0.23650959 0.73361623
-0.36745131 -0.23760985 0.73702908
-0.36655974 -0.2387204 0.74047381
-0.3656598 -0.23984137 0.7439509
-0.36475137 -0.24097292 0.74746078
-0.36383429 -0.24211518 0.75100392
-0.36290851 -0.24326836 0.75458086
-0.36197388 -0.24443254 0.758192
-0.36103022 -0.24560793 0.76183784
-0.36007747 -0.24679467 0.76551896
-0.36196205 -0.24995869 0.77533329
-0.36433604 -0.2535114 0.78635317
-0.36677846 -0.2571665 0.79769081
-0.51614434 -0.24140084 0.75706202
-0.51282531 -0.2410945 0.75610131
-0.50951546 -0.24078931 0.75514418
-0.50621283 -0.2404843 0.75418764
-0.50292033 -0.24018094 0.75323629
-0.49963427 -0.23987746 0.75228453
-0.4978632 -0.24030198 0.75361586
-0.49635971 -0.24086088 0.75536865
-0.49476174 -0.24137972 0.7569958
-0.49306068 -0.24185361 0.75848198
-0.49122795 -0.24226773 0.7597807
-0.48923838 -0.24260862 0.76084977
-0.48701137 -0.24283487 0.76155931
-0.47364721 -0.23747963 0.74476463
-0.47043544 -0.23718332 0.74383539
-0.46723175 -0.2368878 0.7429086
-0.46403578 -0.23659289 0.74198371
-0.46084744 -0.23629855 0.74106061
-0.45766801 -0.23600544 0.74014139
-0.45449525 -0.23571244 0.73922253
-0.45133063 -0.2354203 0.73830634
-0.44817388 -0.23512891 0.73739249
-0.44502521 -0.23483838 0.73648137
-0.44188434 -0.23454858 0.73557252
-0.43875119 -0.23425949 0.73466587
-0.43562573 -0.23397109 0.73376143
-0.43250799 -0.23368341 0.73285925
-0.42939785 -0.23339643 0.73195922
-0.42629537 -0.23311016 0.73106146
-0.42320052 -0.23282459 0.7301659
-0.42011324 -0.23253974 0.72927254
-0.41703346 -0.23225556 0.72838134
-0.41396126 -0.23197211 0.72749239
-0.41089651 -0.2316893 0.72660547
-0.40783924 -0.23140721 0.72572082
-0.40478939 -0.2311258 0.72483826
-0.40174693 -0.23084506 0.72395784
-0.39871186 -0.23056501 0.72307956
-0.39568418 -0.23028564 0.72220343
-0.39266378 -0.23000695 0.72132939
-0.3896507 -0.22972892 0.72045749
-0.3866449 -0.22945157 0.71958768
-0.38364643 -0.22917493 0.71872008
-0.38065508 -0.2288989 0.71785444
-0.37767097 -0.22862357 0.71699095
-0.37469396 -0.22834885 0.71612942
-0.37256634 -0.22859156 0.71689057
-0.37172246 -0.2296306 0.72014916
-0.37087095 -0.23067918 0.72343761
-0.3700116 -0.23173736 0.72675622
-0.36914429 -0.23280528 0.73010534
-0.368269 -0.23388311 0.73348552
-0.36738551 -0.23497094 0.73689711
-0.36649376 -0.23606893 0.74034053
-0.36559367 -0.23717727 0.74381638
-0.36468509 -0.23829605 0.747325
-0.36376792 -0.23942542 0.75086689
-0.36284196 -0.24056555 0.75444245
-0.36190718 -0.24171659 0.75805229
-0.3609634 -0.24287872 0.76169682
-0.3600105 -0.24405205 0.76537657
-0.35904834 -0.24523678 0.76909202
-0.35889596 -0.24699685 0.77461177
-0.36122414 -0.25050411 0.78561097
-0.36361942 -0.25411242 0.79692703
-0.51581532 -0.23858124 0.7565794
-0.51249874 -0.23827864 0.75561982
-0.50919169 -0.23797731 0.75466424
-0.50589222 -0.2376764 0.75371003
-0.50260025 -0.23737586 0.75275695
-0.50041181 -0.23759605 0.75345522
-0.49911609 -0.23824476 0.75551236
-0.49775484 -0.23886894 0.75749177
-0.49631792 -0.23946336 0.75937676
-0.49480173 -0.24002577 0.76116025
-0.49318799 -0.24054673 0.76281232
-0.49147716 -0.24102579 0.76433146
-0.48963049 -0.24144313 0.76565492
-0.47335041 -0.23470837 0.74429792
-0.47014061 -0.23441552 0.74336922
-0.46693969 -0.23412381 0.74244422
-0.46374553 -0.23383226 0.74151963
-0.46055961 -0.23354156 0.74059778
-0.45738149 -0.23325153 0.73967803
-0.45421165 -0.23296243 0.73876125
-0.45104972 -0.23267406 0.73784679
-0.44789553 -0.23238637 0.73693448
-0.44474915 -0.23209941 0.7360245
-0.44161052 -0.23181315 0.73511672
-0.43847966 -0.23152761 0.73421121
-0.43535647 -0.23124276 0.7333079
-0.43224096 -0.2309586 0.7324068
-0.42913309 -0.23067513 0.7315079
-0.42603287 -0.2303924 0.73061126
-0.42294019 -0.23011032 0.72971678
-0.41985515 -0.22982897 0.72882456
-0.41677761 -0.22954829 0.72793448
-0.41370755 -0.22926827 0.72704649
-0.41064501 -0.22898896 0.72616076
-0.40758988 -0.22871031 0.72527713
-0.40454221 -0.22843234 0.72439563
-0.40150189 -0.22815505 0.72351629
-0.39846903 -0.22787845 0.72263914
-0.39544344 -0.22760248 0.72176403
-0.39242524 -0.22732724 0.72089118
-0.38941425 -0.22705261 0.72002029
-0.38641056 -0.22677867 0.71915156
-0.38341412 -0.22650537 0.7182849
-0.38042489 -0.22623274 0.71742034
-0.37744284 -0.22596076 0.71655786
-0.37446791 -0.22568941 0.71569735
-0.37250146 -0.22602631 0.7167657
-0.37165746 -0.22705354 0.72002321
-0.37080574 -0.22809012 0.72331041
-0.36994624 -0.22913624 0.72662783
-0.36907881 -0.23019201 0.72997582
-0.36820331 -0.23125753 0.73335475
-0.36731973 -0.23233297 0.73676515
-0.36642784 -0.23341845 0.74020737
-0.36552763 -0.23451413 0.74368197
-0.36461887 -0.23562014 0.74718928
-0.36370152 -0.23673663 0.75072986
-0.36277542 -0.23786373 0.75430411
-0.36184052 -0.23900166 0.75791264
-0.36089656 -0.2401505 0.76155579
-0.35994354 -0.24131046 0.76523423
-0.35898122 -0.24248165 0.76894826
-0.35800955 -0.24366429 0.77269858
-0.35702831 -0.2448585 0.77648562
-0.35811815 -0.24750249 0.78487015
-0.36046642 -0.25106415 0.79616475
-0.51548672 -0.23576523 0.75609744
-0.51217264 -0.23546639 0.75513905
-0.50886708 -0.23516835 0.75418323
-0.50557172 -0.23487189 0.75323248
-0.50238103 -0.23462123 0.75242859
-0.50127798 -0.23534802 0.75475943
-0.50010759 -0.23605077 0.75701314
-0.49887416 -0.23673116 0.75919515
-0.49756968 -0.23738499 0.76129198
-0.49619815 -0.23801374 0.76330841
-0.49474886 -0.23861185 0.76522648
-0.49321711 -0.23917651 0.76703739
-0.49158981 -0.23970082 0.76871884
-0.47305351 -0.23194036 0.7438311
-0.46984604 -0.23165111 0.74290347
-0.46664646 -0.23136254 0.74197799
-0.46345511 -0.23107481 0.74105525
-0.46027187 -0.23078787 0.74013507
-0.45709655 -0.23050167 0.73921722
-0.45392901 -0.23021615 0.73830152
-0.45076934 -0.22993132 0.73738813
-0.44761747 -0.22964722 0.73647702
-0.44447339 -0.22936381 0.73556811
-0.44133708 -0.22908112 0.73466152
-0.43820843 -0.2287991 0.73375708
-0.43508753 -0.22851779 0.7328549
-0.43197423 -0.22823714 0.73195487
-0.42886868 -0.22795723 0.73105723
-0.4257707 -0.22767799 0.73016167
-0.42268023 -0.22739939 0.72926825
-0.41959739 -0.22712152 0.7283771
-0.41652206 -0.22684431 0.7274881
-0.4134542 -0.22656778 0.72660124
-0.4103938 -0.22629191 0.72571653
-0.40734085 -0.2260167 0.72483397
-0.40429533 -0.22574219 0.7239536
-0.40125725 -0.22546835 0.72307539
-0.39822647 -0.22519515 0.72219926
-0.39520305 -0.22492263 0.72132528
-0.39218691 -0.22465076 0.72045338
-0.38917807 -0.22437954 0.71958357
-0.38617647 -0.22410896 0.71871585
-0.38318211 -0.22383906 0.71785027
-0.38019499 -0.22356981 0.71698678
-0.377215 -0.22330119 0.71612531
-0.37424216 -0.22303319 0.71526587
-0.37243658 -0.22346196 0.71664089
-0.37159243 -0.22447734 0.71989721
-0.37074056 -0.22550198 0.72318327
-0.36988091 -0.22653607 0.72649956
-0.36901331 -0.22757964 0.7298463
-0.36813769 -0.22863288 0.73322403
-0.36725393 -0.22969592 0.73663318
-0.36636192 -0.2307689 0.74007422
-0.36546156 -0.23185195 0.74354756
-0.36455268 -0.2329452 0.74705362
-0.36363515 -0.23404881 0.75059289
-0.36270896 -0.23516294 0.75416589
-0.36177385 -0.23628773 0.75777304
-0.3608298 -0.23742332 0.76141489
-0.3598766 -0.23856987 0.7650919
-0.35891414 -0.23972756 0.76880455
-0.35794228 -0.24089652 0.77255344
-0.35696095 -0.24207696 0.77633911
-0.35596997 -0.24326904 0.7801621
-0.35501802 -0.24450657 0.78413081
-0.35731944 -0.24802174 0.79540396
-0.51515847 -0.2329528 0.75561601
-0.51184702 -0.23265772 0.75465888
-0.50854391 -0.2323634 0.75370419
-0.50525165 -0.23207097 0.75275564
-0.50287455 -0.23219801 0.75316775
-0.50189549 -0.23297536 0.7556892
-0.5008437 -0.23372705 0.75812739
-0.49973062 -0.23445806 0.76049852
-0.49855056 -0.23516536 0.76279277
-0.4973073 -0.23585033 0.76501459
-0.49599382 -0.23650931 0.76715207
-0.49461332 -0.23714337 0.76920873
-0.49315506 -0.23774692 0.77116644
-0.47275656 -0.22917561 0.74336416
-0.46955144 -0.22888999 0.74243766
-0.4663547 -0.22860524 0.74151409
-0.46316585 -0.22832119 0.74059272
-0.45998493 -0.22803785 0.73967367
-0.4568119 -0.22775522 0.7387569
-0.45364672 -0.22747327 0.73784238
-0.45048931 -0.22719201 0.73693007
-0.44733977 -0.22691147 0.73602009
-0.44419798 -0.22663163 0.73511237
-0.44106394 -0.22635247 0.73420686
-0.43793762 -0.226074 0.73330361
-0.43481895 -0.22579619 0.7324025
-0.43170792 -0.22551906 0.73150361
-0.42860454 -0.22524263 0.73060697
-0.4255088 -0.22496688 0.72971255
-0.42242059 -0.22469181 0.72882026
-0.4193399 -0.22441737 0.72793013
-0.41626677 -0.22414365 0.72704226
-0.41320109 -0.22387056 0.72615647
-0.4101429 -0.22359815 0.72527283
-0.40709215 -0.22332643 0.72439146
-0.4040488 -0.22305532 0.72351211
-0.40101284 -0.22278491 0.72263497
-0.39798421 -0.22251514 0.72175992
-0.39496288 -0.22224599 0.72088695
-0.39194888 -0.22197753 0.72001612
-0.38894212 -0.22170968 0.71914732
-0.38594267 -0.22144252 0.71828073
-0.3829504 -0.22117597 0.71741617
-0.37996536 -0.22091009 0.71655375
-0.37698746 -0.22064483 0.71569335
-0.37401667 -0.22038019 0.71483493
-0.37237173 -0.22089848 0.71651608
-0.3715274 -0.22190204 0.71977127
-0.37067541 -0.22291477 0.7230562
-0.36981562 -0.2239368 0.72637129
-0.36894786 -0.22496821 0.72971684
-0.36807209 -0.22600919 0.73309338
-0.36718819 -0.22705984 0.73650134
-0.36629605 -0.22812031 0.73994112
-0.36539549 -0.22919072 0.74341315
-0.36448646 -0.23027124 0.74691796
-0.36356884 -0.23136199 0.75045598
-0.36264247 -0.23246312 0.75402766
-0.36170721 -0.23357476 0.75763345
-0.36076301 -0.23469713 0.76127398
-0.3598097 -0.23583032 0.76494968
-0.35884711 -0.23697452 0.76866102
-0.35787514 -0.23812984 0.77240849
-0.35689366 -0.23929651 0.77619272
-0.35590249 -0.24047466 0.78001422
-0.35490149 -0.24166445 0.7838735
-0.35389057 -0.24286608 0.78777117
-0.35417846 -0.2449851 0.79464453
-0.51483071 -0.23014396 0.75513524
-0.51152176 -0.22985263 0.75417936
-0.50822115 -0.22956203 0.75322586
-0.50492895 -0.2292722 0.75227487
-0.50310224 -0.22964825 0.75350875
-0.50225216 -0.23047645 0.75622618
-0.50132823 -0.23127943 0.75886089
-0.50034273 -0.23206244 0.76143008
-0.49928203 -0.23281884 0.7639119
-0.49815956 -0.23355448 0.76632565
-0.49696949 -0.23426627 0.76866114
-0.49571618 -0.23495588 0.77092385
-0.49439445 -0.2356205 0.77310455
-0.47246087 -0.22641477 0.74289924
-0.46925858 -0.22613296 0.74197459
-0.46606418 -0.22585183 0.74105215
-0.46287775 -0.22557141 0.74013203
-0.45969927 -0.2252917 0.7392143
-0.4565286 -0.22501267 0.73829877
-0.45336577 -0.22473432 0.73738545
-0.45021078 -0.22445668 0.73647445
-0.44706357 -0.2241797 0.73556566
-0.44392413 -0.22390342 0.73465914
-0.44079238 -0.22362781 0.73375481
-0.43766797 -0.22335269 0.7328521
-0.43455121 -0.22307822 0.73195153
-0.43144208 -0.22280443 0.73105317
-0.42834076 -0.22253139 0.73015732
-0.42524722 -0.22225912 0.72926396
-0.42216122 -0.2219875 0.72837275
-0.41908279 -0.22171658 0.72748381
-0.41601184 -0.22144631 0.72659701
-0.41294837 -0.22117667 0.7257123
-0.40989235 -0.22090772 0.72482979
-0.40684372 -0.22063938 0.72394937
-0.40380254 -0.22037172 0.72307116
-0.4007687 -0.22010471 0.72219503
-0.39774221 -0.21983835 0.72132105
-0.39472303 -0.21957262 0.72044915
-0.39171112 -0.21930753 0.71957934
-0.38870654 -0.21904311 0.71871173
-0.38570917 -0.2187793 0.71784616
-0.38271901 -0.21851613 0.71698266
-0.37973601 -0.21825358 0.7161212
-0.37676018 -0.21799168 0.71526188
-0.37379143 -0.21773036 0.71440446
-0.37230685 -0.21833588 0.71639127
-0.37146243 -0.21932764 0.71964538
-0.37061027 -0.22032844 0.72292912
-0.36975032 -0.22133842 0.72624302
-0.36888245 -0.22235771 0.72958744
-0.36800653 -0.22338642 0.73296279
-0.36712247 -0.22442469 0.73636949
-0.36623019 -0.22547267 0.73980808
-0.36532947 -0.22653046 0.74327886
-0.36442035 -0.22759828 0.74678248
-0.36350256 -0.22867616 0.75031918
-0.36257604 -0.22976431 0.75388956
-0.36164066 -0.23086286 0.75749403
-0.36069629 -0.23197196 0.76113319
-0.35974282 -0.2330918 0.76480752
-0.35878009 -0.23422247 0.76851743
-0.35780796 -0.23536418 0.77226353
-0.35682631 -0.23651706 0.77604628
-0.35583502 -0.2376813 0.77986634
-0.3548339 -0.23885706 0.78372419
-0.35382283 -0.2400445 0.78762037
-0.35280162 -0.24124379 0.7915554
-0.51450342 -0.22733872 0.75465518
-0.51119691 -0.22705111 0.75370044
-0.50789881 -0.22676422 0.75274813
-0.50460941 -0.22647823 0.75179881
-0.50302798 -0.22695985 0.75339752
-0.50232959 -0.22784711 0.75634283
-0.5015437 -0.22870392 0.75918698
-0.50068778 -0.22953781 0.76195514
-0.49975842 -0.23034687 0.76464081
-0.49876398 -0.23113452 0.76725543
-0.49769628 -0.23189664 0.76978528
-0.49656495 -0.23263729 0.77224386
-0.49536723 -0.23335481 0.77462572
-0.47216532 -0.22365725 0.7424345
-0.46896526 -0.223379 0.74151081
-0.46577317 -0.22310144 0.74058944
-0.462589 -0.22282456 0.73967034
-0.45941269 -0.22254837 0.7387535
-0.45624426 -0.22227284 0.73783892
-0.45308366 -0.22199802 0.73692662
-0.44993094 -0.22172388 0.73601663
-0.44678593 -0.22145042 0.73510885
-0.4436487 -0.22117764 0.73420334
-0.44051918 -0.22090551 0.73330003
-0.43739733 -0.22063406 0.73239893
-0.4342832 -0.22036329 0.73150009
-0.43117669 -0.22009318 0.73060346
-0.42807773 -0.21982369 0.72970891
-0.42498636 -0.2195549 0.72881663
-0.4219026 -0.21928675 0.72792655
-0.41882634 -0.21901928 0.72703862
-0.41575751 -0.21875241 0.72615278
-0.41269615 -0.2184862 0.72526908
-0.40964225 -0.21822064 0.72438753
-0.40659574 -0.21795571 0.72350812
-0.40355673 -0.2176915 0.72263104
-0.40052512 -0.21742792 0.7217561
-0.39750078 -0.21716496 0.72088319
-0.39448377 -0.21690266 0.72001249
-0.3914738 -0.21664084 0.71914339
-0.38847122 -0.21637973 0.71827662
-0.3854759 -0.21611929 0.71741205
-0.38248783 -0.21585946 0.71654958
-0.37950692 -0.21560027 0.71568918
-0.37653315 -0.2153417 0.71483088
-0.37356648 -0.21508373 0.71397454
-0.37224206 -0.21577421 0.71626657
-0.37139747 -0.21675415 0.7195195
-0.37054515 -0.21774302 0.7228021
-0.36968508 -0.218741 0.72611487
-0.36881706 -0.21974815 0.72945815
-0.36794102 -0.22076461 0.73283231
-0.36705676 -0.22179048 0.7362377
-0.36616433 -0.22282597 0.73967505
-0.36526346 -0.22387114 0.74314451
-0.36435416 -0.22492622 0.74664682
-0.36343619 -0.22599122 0.75018215
-0.36250952 -0.2270664 0.75375122
-0.36157399 -0.22815184 0.75735438
-0.36062947 -0.22924772 0.76099217
-0.35967582 -0.23035417 0.76466507
-0.35871291 -0.23147136 0.76837355
-0.35774064 -0.23259942 0.77211821
-0.35675883 -0.23373854 0.77589953
-0.35576737 -0.23488888 0.7797181
-0.35476613 -0.23605061 0.78357446
-0.35375488 -0.23722386 0.78746909
-0.35273355 -0.23840885 0.7914027
-0.51748878 -0.22482161 0.75513154
-0.51417643 -0.224537 0.7541756
-0.51087248 -0.22425312 0.75322211
-0.50757694 -0.22396997 0.75227106
-0.50428987 -0.22368762 0.75132269
-0.50252926 -0.22408296 0.75265056
-0.50203741 -0.22505124 0.75590283
-0.50143915 -0.22598192 0.75902879
-0.50074136 -0.22687747 0.76203674
-0.49995881 -0.22774404 0.76494741
-0.49909946 -0.22858486 0.76777154
-0.49816433 -0.22939992 0.77050918
-0.4971619 -0.23019277 0.7731722
-0.47507614 -0.2211787 0.74289572
-0.47187075 -0.22090349 0.74197131
-0.46867263 -0.22062862 0.7410481
-0.46548283 -0.22035462 0.7401278
-0.46230099 -0.22008131 0.73920983
-0.45912704 -0.21980868 0.73829412
-0.45596096 -0.21953675 0.73738074
-0.45280266 -0.21926548 0.73646957
-0.44965219 -0.21899487 0.73556066
-0.44650951 -0.21872495 0.73465407
-0.44337451 -0.21845566 0.73374957
-0.44024724 -0.21818705 0.73284733
-0.43712762 -0.21791908 0.7319473
-0.43401572 -0.2176518 0.73104954
-0.43091142 -0.21738516 0.73015398
-0.42781469 -0.21711917 0.72926056
-0.42472553 -0.21685381 0.7283693
-0.42164394 -0.21658914 0.72748029
-0.41856986 -0.2163251 0.72659343
-0.41550323 -0.21606168 0.72570866
-0.41244408 -0.21579891 0.7248261
-0.40939239 -0.2155368 0.72394568
-0.40634808 -0.21527532 0.7230674
-0.40331116 -0.21501447 0.72219127
-0.40028158 -0.21475424 0.72131723
-0.39725932 -0.21449466 0.72044533
-0.39424434 -0.21423568 0.71957546
-0.39123666 -0.21397734 0.71870774
-0.38823625 -0.21371962 0.71784216
-0.38524303 -0.21346253 0.71697861
-0.38225698 -0.21320604 0.71611714
-0.37927812 -0.21295017 0.7152577
-0.37630641 -0.21269493 0.71440041
-0.37375084 -0.21267304 0.71432686
-0.37229952 -0.21328345 0.71637714
-0.37133238 -0.21418148 0.71939343
-0.37047991 -0.21515843 0.72267485
-0.36961967 -0.21614438 0.72598642
-0.36875147 -0.21713936 0.72932839
-0.36787525 -0.21814357 0.7327013
-0.36699092 -0.21915711 0.73610562
-0.36609828 -0.22018011 0.73954165
-0.3651973 -0.2212127 0.74300992
-0.36428782 -0.22225502 0.74651086
-0.36336973 -0.22330722 0.750045
-0.36244288 -0.22436939 0.75361264
-0.36150721 -0.22544177 0.75721455
-0.36056253 -0.22652441 0.76085091
-0.35960877 -0.22761753 0.76452249
-0.35864571 -0.22872123 0.7682296
-0.35767329 -0.22983569 0.77197284
-0.35669136 -0.23096107 0.77575278
-0.35569975 -0.23209751 0.77956986
-0.35469833 -0.23324521 0.78342474
-0.35368696 -0.2344043 0.78731787
-0.35266548 -0.23557496 0.79124993
-0.51715976 -0.22201973 0.75465137
-0.51384991 -0.22173886 0.75369668
-0.51054847 -0.22145869 0.75274438
-0.50725657 -0.22117975 0.75179625
-0.50397068 -0.22090055 0.75084722
-0.50138199 -0.22092557 0.75093228
-0.50124043 -0.22203489 0.75470287
-0.50090641 -0.22307032 0.75822234
-0.50042439 -0.22405061 0.76155436
-0.4998264 -0.22498924 0.76474482
-0.49912554 -0.22589152 0.76781166
-0.49834254 -0.22676623 0.77078485
-0.47798875 -0.21869622 0.74335468
-0.47477865 -0.21842434 0.74243051
-0.47157493 -0.21815239 0.74150616
-0.46838036 -0.21788166 0.74058598
-0.46519268 -0.21761115 0.73966646
-0.46201307 -0.21734136 0.73874944
-0.45884141 -0.21707229 0.73783487
-0.45567772 -0.21680392 0.73692268
-0.45252174 -0.21653618 0.73601264
-0.44937351 -0.21626909 0.7351048
-0.44623306 -0.21600267 0.73419923
-0.44310042 -0.21573694 0.73329598
-0.43997538 -0.21547182 0.73239481
-0.43685806 -0.21520735 0.73149592
-0.43374836 -0.21494354 0.73059922
-0.43064633 -0.2146804 0.7297048
-0.42755181 -0.21441787 0.72881246
-0.42446488 -0.214156 0.72792232
-0.4213855 -0.21389477 0.72703439
-0.41831362 -0.21363416 0.72614861
-0.4152492 -0.2133742 0.72526497
-0.4121922 -0.21311484 0.72438341
-0.40914267 -0.21285616 0.72350413
-0.40610054 -0.21259809 0.72262692
-0.40306574 -0.21234062 0.72175181
-0.4000383 -0.2120838 0.72087884
-0.39701819 -0.21182759 0.72000802
-0.39400533 -0.21157199 0.71913922
-0.39099976 -0.21131703 0.71827257
-0.38800141 -0.21106265 0.71740794
-0.38501027 -0.2108089 0.71654546
-0.38202634 -0.21055578 0.71568507
-0.37904954 -0.21030323 0.71482664
-0.37625453 -0.21014884 0.71430188
-0.3748104 -0.21075197 0.71635193
-0.37335801 -0.21135861 0.71841389
-0.37189725 -0.21196875 0.72048777
-0.370428 -0.21258239 0.72257358
-0.36955425 -0.21354865 0.72585791
-0.36868593 -0.21453153 0.72919875
-0.36780953 -0.21552348 0.73257041
-0.36692503 -0.21652466 0.73597348
-0.36603224 -0.21753518 0.73940825
-0.36513111 -0.21855518 0.74287528
-0.36422151 -0.21958482 0.74637502
-0.36330327 -0.22062416 0.74990779
-0.3623763 -0.22167341 0.75347424
-0.36144045 -0.22273268 0.75707471
-0.36049566 -0.22380213 0.76070982
-0.35954171 -0.22488189 0.76437992
-0.35857853 -0.22597215 0.76808572
-0.35760596 -0.22707298 0.77182752
-0.35662389 -0.22818463 0.77560604
-0.35563216 -0.22930722 0.77942175
-0.35463056 -0.23044087 0.78327507
-0.35361907 -0.23158582 0.78716677
-0.35259745 -0.23274218 0.79109728
-0.5168311 -0.21922143 0.75417185
-0.51352382 -0.21894427 0.75321835
-0.510225 -0.21866785 0.75226742
-0.50693452 -0.21839215 0.75131893
-0.50365239 -0.21811716 0.75037295
-0.5003798 -0.21784344 0.74943125
-0.49942735 -0.21858226 0.75197297
-0.49967441 -0.21985674 0.75635749
-0.49957398 -0.22099116 0.76026016
-0.49924982 -0.22203833 0.76386261
-0.49878338 -0.22303322 0.76728529
-0.48090714 -0.21621166 0.74381757
-0.47769165 -0.2159428 0.74289262
-0.47448143 -0.21567339 0.74196577
-0.47127953 -0.21540476 0.74104166
-0.46808779 -0.21513784 0.74012339
-0.46490231 -0.21487083 0.73920476
-0.46172616 -0.21460511 0.73829067
-0.45855621 -0.2143393 0.73737621
-0.45539472 -0.21407443 0.73646504
-0.45224109 -0.21381025 0.73555619
-0.44909522 -0.21354671 0.73464954
-0.44595706 -0.21328381 0.7337451
-0.44282663 -0.21302155 0.73284286
-0.43970391 -0.21275996 0.73194289
-0.43658882 -0.21249899 0.73104513
-0.43348137 -0.21223865 0.73014951
-0.43038157 -0.21197897 0.72925615
-0.42728928 -0.21171992 0.72836494
-0.42420456 -0.21146148 0.72747588
-0.42112738 -0.21120369 0.72658902
-0.41805771 -0.21094655 0.72570437
-0.41499543 -0.21068999 0.72482175
-0.41194063 -0.21043406 0.72394133
-0.40889326 -0.21017878 0.72306305
-0.4058533 -0.20992412 0.72218698
-0.40282065 -0.20967005 0.72131294
-0.39979532 -0.2094166 0.72044098
-0.3967773 -0.20916376 0.71957117
-0.39376661 -0.20891155 0.71870351
-0.39076313 -0.20865993 0.71783787
-0.38776687 -0.20840891 0.71697432
-0.38477787 -0.20815852 0.71611291
-0.38179597 -0.2079087 0.71525347
-0.37882128 -0.2076595 0.71439618
-0.37732109 -0.20822066 0.71632671
-0.37587601 -0.20882 0.71838856
-0.37442255 -0.20942278 0.72046226
-0.37296069 -0.21002907 0.72254801
-0.3714903 -0.21063882 0.72464573
-0.37001142 -0.2112522 0.72675586
-0.36862034 -0.21192458 0.72906905
-0.36774385 -0.21290432 0.73243958
-0.36685917 -0.21389316 0.73584139
-0.36596626 -0.21489123 0.73927498
-0.36506501 -0.21589865 0.74274075
-0.36415523 -0.21691558 0.74623919
-0.36323681 -0.21794209 0.74977064
-0.36230972 -0.2189784 0.75333577
-0.36137375 -0.22002462 0.756935
-0.36042881 -0.22108087 0.76056874
-0.35947472 -0.2221473 0.76423752
-0.35851139 -0.22322406 0.76794183
-0.35753867 -0.22431134 0.77168232
-0.35655645 -0.22540924 0.77545935
-0.35556453 -0.22651796 0.77927357
-0.35456282 -0.22763762 0.78312546
-0.35355118 -0.22876842 0.78701568
-0.35252947 -0.22991051 0.79094476
-0.51650292 -0.21642667 0.75369292
-0.51319814 -0.21615323 0.75274068
-0.50990212 -0.21588063 0.75179136
-0.50661415 -0.21560863 0.75084412
-0.5033353 -0.21533768 0.74990058
-0.50006396 -0.21506707 0.74895823
-0.49679905 -0.21479641 0.74801564
-0.49593779 -0.21556763 0.75070137
-0.49760517 -0.21745212 0.75726402
-0.48705927 -0.213991 0.74521083
-0.48382923 -0.21372402 0.74428111
-0.48060727 -0.21345772 0.74335372
-0.4773927 -0.21319181 0.74242771
-0.47418609 -0.21292654 0.74150389
-0.47098744 -0.21266192 0.74058241
-0.46779609 -0.21239766 0.73966217
-0.46461222 -0.21213387 0.73874348
-0.46143836 -0.2118717 0.73783052
-0.458271 -0.21160956 0.73691761
-0.4551129 -0.21134873 0.7360093
-0.45196086 -0.21108773 0.73510039
-0.44881722 -0.21082769 0.73419482
-0.44568139 -0.21056831 0.73329151
-0.44255319 -0.21030954 0.73239034
-0.43943274 -0.21005142 0.73149151
-0.43631989 -0.20979394 0.73059481
-0.43321469 -0.20953707 0.72970033
-0.4301171 -0.20928085 0.72880805
-0.42702708 -0.20902526 0.72791797
-0.42394453 -0.20877028 0.72702998
-0.42086956 -0.20851591 0.72614419
-0.41780204 -0.20826218 0.72526056
-0.41474199 -0.20800906 0.72437912
-0.41168937 -0.20775656 0.72349977
-0.40864417 -0.20750466 0.72262257
-0.40560633 -0.2072534 0.72174752
-0.40257582 -0.20700271 0.72087455
-0.39955264 -0.20675263 0.72000366
-0.39653677 -0.20650317 0.71913493
-0.39352816 -0.2062543 0.71826828
-0.3905268 -0.20600605 0.71740371
-0.38753265 -0.20575838 0.71654123
-0.38454568 -0.2055113 0.71568078
-0.3815659 -0.20526482 0.71482247
-0.37983167 -0.20568958 0.71630162
-0.3783938 -0.20628157 0.71836323
-0.37694767 -0.20687699 0.72043675
-0.37549317 -0.2074759 0.72252238
-0.3740302 -0.20807824 0.72461998
-0.37255871 -0.2086841 0.72672987
-0.37107867 -0.2092935 0.72885209
-0.36958995 -0.20990649 0.73098677
-0.36809245 -0.21052305 0.73313391
-0.36679339 -0.21126263 0.73570943
-0.36590031 -0.21224822 0.7391417
-0.36499891 -0.21324308 0.74260628
-0.36408895 -0.21424729 0.74610335
-0.36317044 -0.21526101 0.74963361
-0.36224318 -0.21628439 0.75319743
-0.36130705 -0.21731754 0.75679529
-0.36036193 -0.21836059 0.76042765
-0.35940775 -0.21941371 0.76409513
-0.35844427 -0.22047704 0.76779813
-0.35747141 -0.22155072 0.77153713
-0.35648903 -0.22263493 0.77531278
-0.355497 -0.22372976 0.77912551
-0.35449514 -0.22483544 0.78297597
-0.35348335 -0.22595209 0.78686464
-0.35246146 -0.2270799 0.79079217
-0.51617509 -0.21363546 0.7532146
-0.51287323 -0.21336587 0.75226408
-0.50957954 -0.2130969 0.75131577
-0.50629419 -0.21282864 0.75036997
-0.503016 -0.21256056 0.74942482
-0.49974781 -0.21229392 0.74848473
-0.49648696 -0.21202759 0.74754572
-0.4932344 -0.21176197 0.74660921
-0.48998919 -0.21149668 0.74567389
-0.48675427 -0.21123299 0.74474418
-0.48352572 -0.21096922 0.74381423
-0.48030636 -0.21070661 0.74288833
-0.47709408 -0.21044424 0.74196333
-0.47388992 -0.21018258 0.74104077
-0.47069359 -0.20992152 0.74012035
-0.46750531 -0.20966116 0.73920238
-0.46432486 -0.20940141 0.73828661
-0.46115208 -0.20914221 0.73737276
-0.45798612 -0.20888318 0.73645949
-0.45483008 -0.20862576 0.73555189
-0.4516806 -0.20836842 0.73464459
-0.44854 -0.20811221 0.73374128
-0.44540602 -0.20785615 0.73283845
-0.44228011 -0.20760086 0.73193842
-0.4391619 -0.20734623 0.73104066
-0.43605137 -0.20709224 0.73014516
-0.43294838 -0.20683883 0.72925174
-0.42985299 -0.20658606 0.72836053
-0.42676517 -0.20633392 0.72747153
-0.42368487 -0.20608237 0.72658467
-0.42061207 -0.20583144 0.72569996
-0.41754675 -0.20558111 0.7248174
-0.41448888 -0.20533141 0.72393703
-0.41143844 -0.20508231 0.72305876
-0.40839538 -0.20483382 0.72218263
-0.40535966 -0.20458591 0.72130859
-0.40233129 -0.20433861 0.72043669
-0.39931026 -0.20409191 0.71956688
-0.39629647 -0.2038458 0.71869916
-0.39328998 -0.20360029 0.71783358
-0.39029074 -0.20335537 0.71697009
-0.38729867 -0.20311104 0.71610862
-0.38431379 -0.20286728 0.71524924
-0.38234201 -0.20315862 0.71627641
-0.38091144 -0.20374332 0.71833789
-0.37947261 -0.20433141 0.7204113
-0.37802547 -0.20492288 0.72249669
-0.37656993 -0.20551783 0.72459424
-0.37510589 -0.2061162 0.72670394
-0.37363333 -0.2067181 0.72882605
-0.37215212 -0.20732349 0.73096049
-0.37066221 -0.20793246 0.73310751
-0.36916351 -0.208545 0.73526716
-0.36765599 -0.20916118 0.73743963
-0.36613953 -0.20978102 0.73962498
-0.36493281 -0.21058847 0.74247181
-0.36402276 -0.21158001 0.74596769
-0.36310405 -0.21258092 0.74949658
-0.36217669 -0.21359137 0.75305915
-0.36124039 -0.21461144 0.75665563
-0.36029515 -0.21564133 0.76028669
-0.35934076 -0.21668114 0.76395273
-0.35837716 -0.21773103 0.76765436
-0.35740414 -0.21879113 0.77139193
-0.35642165 -0.21986163 0.77516621
-0.35542947 -0.22094263 0.77897751
-0.35442746 -0.22203434 0.78282648
-0.35341555 -0.22313687 0.78671372
-0.35239348 -0.22425041 0.7906397
-0.51584774 -0.2108478 0.75273687
-0.51254827 -0.21058184 0.75178742
-0.50925732 -0.21031666 0.75084072
-0.50597399 -0.21005186 0.74989539
-0.50269932 -0.20978789 0.74895298
-0.49943274 -0.20952456 0.74801284
-0.49617442 -0.20926189 0.74707514
-0.49292427 -0.20899989 0.74613976
-0.48968163 -0.20873828 0.74520582
-0.48644927 -0.20847826 0.74427754
-0.48322275 -0.20821793 0.74334818
-0.48000577 -0.20795891 0.74242342
-0.47679591 -0.20770013 0.7414996
-0.47359404 -0.20744202 0.74057811
-0.47040018 -0.20718457 0.73965901
-0.46721417 -0.20692773 0.73874205
-0.46403608 -0.20667154 0.73782742
-0.4608658 -0.20641595 0.73691499
-0.45770344 -0.20616104 0.73600495
-0.45454887 -0.20590675 0.73509711
-0.45140088 -0.20565255 0.73418963
-0.44826245 -0.2053998 0.73328727
-0.44513077 -0.20514722 0.73238558
-0.44200748 -0.2048956 0.73148727
-0.43889141 -0.20464438 0.7305904
-0.43578312 -0.20439385 0.72969598
-0.43268237 -0.20414391 0.72880369
-0.42958921 -0.20389457 0.72791356
-0.42650357 -0.20364584 0.72702557
-0.42342553 -0.20339777 0.7261399
-0.4203549 -0.20315024 0.72525626
-0.41729176 -0.20290333 0.72437477
-0.41423604 -0.20265701 0.72349542
-0.4111878 -0.20241132 0.72261828
-0.40814686 -0.2021662 0.72174317
-0.40511328 -0.20192167 0.7208702
-0.40208712 -0.20167777 0.71999943
-0.39906818 -0.2014344 0.71913064
-0.39605653 -0.20119165 0.71826398
-0.39305213 -0.20094948 0.71739942
-0.390055 -0.20070791 0.716537
-0.38706499 -0.20046689 0.71567655
-0.38485217 -0.20062785 0.71625119
-0.3834289 -0.20120525 0.71831256
-0.38199741 -0.201786 0.72038585
-0.3805576 -0.20237009 0.72247106
-0.37910947 -0.2029576 0.72456849
-0.37765288 -0.20354851 0.72667807
-0.37618777 -0.20414285 0.72879994
-0.37471411 -0.2047407 0.73093426
-0.3732318 -0.20534207 0.73308116
-0.37174073 -0.20594695 0.73524064
-0.37024087 -0.20655543 0.73741293
-0.36873212 -0.20716751 0.7395981
-0.36721435 -0.20778322 0.7417962
-0.36568761 -0.20840262 0.74400747
-0.36415169 -0.2090257 0.74623191
-0.36303768 -0.20990179 0.74935961
-0.36211017 -0.21089932 0.75292087
-0.36117378 -0.21190639 0.7565161
-0.36022833 -0.21292306 0.76014572
-0.35927385 -0.21394959 0.76381046
-0.35831007 -0.21498604 0.76751065
-0.35733694 -0.21603261 0.77124691
-0.35635427 -0.21708938 0.77501965
-0.35536197 -0.21815658 0.77882957
-0.35435981 -0.21923429 0.78267705
-0.35334775 -0.22032271 0.7865628
-0.35232559 -0.221422 0.79048735
-0.51552081 -0.20806368 0.75225985
-0.51222384 -0.20780139 0.75131154
-0.50893503 -0.20753972 0.7503655
-0.50565451 -0.20727874 0.74942189
-0.50238222 -0.20701841 0.74848062
-0.49911818 -0.20675872 0.74754173
-0.49586233 -0.2064997 0.74660522
-0.49261457 -0.20624129 0.74567097
-0.48937452 -0.20598337 0.74473846
-0.48614439 -0.20572688 0.74381107
-0.48292008 -0.20547006 0.74288255
-0.47970557 -0.20521465 0.7419591
-0.47649813 -0.20495947 0.74103647
-0.47329861 -0.20470491 0.74011612
-0.47010711 -0.20445101 0.73919815
-0.46692342 -0.2041977 0.73828232
-0.46374765 -0.20394504 0.73736882
-0.46057978 -0.20369303 0.73645765
-0.45741966 -0.2034416 0.73554862
-0.45426735 -0.2031908 0.73464185
-0.45112279 -0.20294061 0.73373729
-0.44798601 -0.20269108 0.73283505
-0.44485614 -0.20244178 0.73193371
-0.441735 -0.20219357 0.73103631
-0.43862107 -0.20194577 0.73014039
-0.43551514 -0.20169875 0.72924727
-0.43241665 -0.20145227 0.72835612
-0.42932573 -0.20120639 0.72746712
-0.42624232 -0.2009611 0.72658026
-0.42316642 -0.20071639 0.72569555
-0.42009804 -0.20047231 0.72481304
-0.41703704 -0.2002288 0.72393262
-0.41398355 -0.19998589 0.72305441
-0.41093746 -0.19974358 0.72217834
-0.40789866 -0.19950184 0.7213043
-0.40486726 -0.19926068 0.7204324
-0.40184316 -0.19902012 0.71956259
-0.39882636 -0.19878013 0.71869493
-0.39581686 -0.19854072 0.71782935
-0.39281455 -0.19830188 0.71696579
-0.38981947 -0.19806361 0.71610433
-0.38736218 -0.19809727 0.71622604
-0.38594615 -0.19866736 0.71828723
-0.38452199 -0.19924077 0.7203604
-0.38308957 -0.19981748 0.72244549
-0.38164881 -0.20039754 0.72454268
-0.38019967 -0.20098098 0.72665215
-0.37874207 -0.20156781 0.72877389
-0.37727591 -0.20215809 0.73090804
-0.37580118 -0.20275185 0.73305476
-0.37431777 -0.2033491 0.73521417
-0.37282553 -0.20394985 0.73738623
-0.37132448 -0.2045542 0.73957121
-0.36981452 -0.20516212 0.74176919
-0.36829555 -0.20577368 0.74398029
-0.3667675 -0.20638888 0.74620456
-0.36523029 -0.20700778 0.74844223
-0.36368382 -0.2076304 0.75069332
-0.36212802 -0.20825678 0.752958
-0.36110714 -0.20920229 0.7563765
-0.36016157 -0.21020582 0.76000482
-0.35920691 -0.21121906 0.76366818
-0.35824305 -0.21224211 0.76736706
-0.35726973 -0.21327509 0.77110183
-0.35628694 -0.2143182 0.77487326
-0.35529447 -0.21537155 0.77868164
-0.35429221 -0.21643531 0.78252774
-0.35327998 -0.21750963 0.78641194
-0.35225767 -0.21859467 0.79033494
-0.51189965 -0.20502441 0.75083607
-0.50861341 -0.20476644 0.74989134
-0.50533539 -0.20450911 0.74894893
-0.5020656 -0.20425241 0.74800885
-0.49880397 -0.20399635 0.74707115
-0.49555054 -0.20374094 0.74613577
-0.49230522 -0.20348616 0.74520272
-0.48906791 -0.20323198 0.74427187
-0.48583874 -0.20297845 0.74334341
-0.48261881 -0.20272607 0.74241912
-0.47940573 -0.2024738 0.74149531
-0.47620067 -0.2022222 0.74057388
-0.47300354 -0.20197122 0.73965472
-0.46981436 -0.20172085 0.73873782
-0.46663305 -0.20147109 0.73782319
-0.46345961 -0.20122196 0.73691082
-0.46029401 -0.20097344 0.73600072
-0.45713621 -0.20072553 0.73509282
-0.45398623 -0.20047826 0.73418725
-0.45084402 -0.20023158 0.73328388
-0.44770941 -0.19998547 0.7323826
-0.44458261 -0.19974002 0.7314837
-0.44146344 -0.19949514 0.73058689
-0.43835163 -0.19925074 0.72969186
-0.43524748 -0.19900696 0.7287991
-0.43215129 -0.19876395 0.72790915
-0.4290626 -0.19852151 0.72702128
-0.4259814 -0.19827963 0.72613549
-0.42290768 -0.19803834 0.72525185
-0.41984147 -0.19779766 0.72437042
-0.41678268 -0.19755754 0.72349107
-0.41373134 -0.19731803 0.72261393
-0.41068736 -0.19707906 0.72173882
-0.4076508 -0.19684073 0.72086596
-0.40462148 -0.19660293 0.71999508
-0.40159953 -0.1963657 0.71912634
-0.39858484 -0.19612905 0.71825969
-0.39557746 -0.19589299 0.71739519
-0.39257726 -0.19565748 0.71653271
-0.38987201 -0.19556688 0.71620089
-0.38846329 -0.19612966 0.71826196
-0.3870464 -0.19669572 0.72033489
-0.38562134 -0.19726503 0.72241986
-0.38418797 -0.19783767 0.72451693
-0.38274628 -0.19841363 0.72662622
-0.38129619 -0.19899297 0.72874784
-0.3798376 -0.19957568 0.73088187
-0.37837037 -0.2001618 0.73302835
-0.37689459 -0.20075141 0.73518759
-0.37541005 -0.2013445 0.73735958
-0.37391672 -0.20194109 0.73954439
-0.3724145 -0.20254122 0.74174219
-0.37090337 -0.20314495 0.74395317
-0.36938313 -0.20375226 0.74617726
-0.36785382 -0.20436324 0.74841475
-0.36631534 -0.20497788 0.75066572
-0.36476749 -0.20559622 0.75293016
-0.36321035 -0.20621833 0.75520843
-0.36164373 -0.2068442 0.75750047
-0.36009485 -0.20748959 0.75986403
-0.35914004 -0.20848952 0.76352596
-0.35817602 -0.20949918 0.76722348
-0.35720256 -0.21051863 0.77095687
-0.35621965 -0.21154806 0.77472687
-0.35522705 -0.21258761 0.77853388
-0.35422462 -0.21363741 0.78237844
-0.35321227 -0.21469764 0.7862612
-0.35218978 -0.21576844 0.79018265
-0.5082922 -0.20199665 0.74941778
-0.50501668 -0.20174295 0.74847656
-0.5017494 -0.20148991 0.74753773
-0.49849021 -0.20123748 0.74660122
-0.4952392 -0.20098567 0.74566698
-0.49199632 -0.2007345 0.74473512
-0.48876178 -0.20048407 0.743806
-0.48553535 -0.20023425 0.74287921
-0.48231697 -0.19998509 0.7419548
-0.47910628 -0.19973642 0.74103218
-0.4759036 -0.19948836 0.74011189
-0.47270882 -0.19924091 0.73919386
-0.46952197 -0.19899407 0.73827809
-0.46634302 -0.19874786 0.73736459
-0.4631719 -0.19850224 0.73645335
-0.46000862 -0.19825724 0.73554438
-0.45685318 -0.19801284 0.73463768
-0.45370543 -0.19776903 0.73373312
-0.45056549 -0.19752584 0.73283088
-0.4474332 -0.19728322 0.73193073
-0.44430864 -0.19704123 0.73103291
-0.44119173 -0.1967998 0.73013723
-0.43808243 -0.19655898 0.72924376
-0.43498075 -0.19631875 0.72835249
-0.43188664 -0.19607909 0.72746336
-0.4287996 -0.19583981 0.72657561
-0.42572096 -0.19560152 0.72569156
-0.42264926 -0.19536357 0.72480869
-0.41958523 -0.19512625 0.72392827
-0.41652864 -0.19488955 0.72305006
-0.41347945 -0.19465341 0.72217399
-0.41043761 -0.19441782 0.72129995
-0.40740317 -0.19418283 0.72042811
-0.40437603 -0.19394837 0.7195583
-0.40135622 -0.19371451 0.71869063
-0.39834365 -0.19348121 0.71782506
-0.39533836 -0.19324847 0.71696156
-0.39238167 -0.19303663 0.71617568
-0.39098021 -0.19359213 0.71823663
-0.38957065 -0.19415084 0.72030944
-0.3881529 -0.19471277 0.72239423
-0.38672698 -0.19527797 0.72449118
-0.38529274 -0.19584648 0.72660035
-0.3838501 -0.19641827 0.72872174
-0.38239905 -0.19699344 0.73085564
-0.38093945 -0.19757199 0.73300207
-0.37947124 -0.19815391 0.73516107
-0.37799436 -0.19873931 0.73733288
-0.37650874 -0.19932817 0.73951757
-0.37501428 -0.19992051 0.74171519
-0.37351096 -0.2005164 0.74392599
-0.37199858 -0.20111585 0.74614996
-0.37047714 -0.20171887 0.74838722
-0.36894658 -0.20232555 0.75063801
-0.36740679 -0.20293589 0.75290239
-0.36585766 -0.20354989 0.75518042
-0.36429912 -0.20416763 0.75747228
-0.36273113 -0.20478916 0.75977814
-0.36115351 -0.20541446 0.76209801
-0.3595663 -0.2060436 0.76443219
-0.358109 -0.20675728 0.76707995
-0.35713544 -0.2077632 0.77081198
-0.35615233 -0.20877895 0.77458048
-0.35515958 -0.2098047 0.77838606
-0.354157 -0.21084055 0.78222913
-0.35314453 -0.21188672 0.78611046
-0.35212192 -0.2129433 0.79003042
-0.50797147 -0.19923037 0.74894488
-0.5046984 -0.19898032 0.74800485
-0.50143349 -0.19873087 0.74706715
-0.49817678 -0.19848204 0.74613178
-0.49492824 -0.19823386 0.74519879
-0.49168774 -0.19798626 0.74426806
-0.48845562 -0.19773941 0.74334008
-0.48523125 -0.19749305 0.74241394
-0.48201552 -0.19724755 0.74149108
-0.47880724 -0.19700244 0.74056965
-0.47560686 -0.19675791 0.73965043
-0.47241449 -0.19651401 0.73873359
-0.46922994 -0.19627069 0.7378189
-0.46605331 -0.19602799 0.73690653
-0.46288455 -0.19578591 0.73599648
-0.45972356 -0.19554439 0.73508859
-0.45657042 -0.1953035 0.73418301
-0.45342499 -0.19506317 0.73327959
-0.45028731 -0.19482344 0.73237842
-0.44715732 -0.19458431 0.73147947
-0.44403502 -0.19434576 0.73058271
-0.44092038 -0.1941078 0.72968817
-0.43781331 -0.19387041 0.72879577
-0.43471384 -0.1936336 0.72790557
-0.43162197 -0.19339739 0.72701758
-0.42853764 -0.19316174 0.72613174
-0.42546079 -0.19292666 0.72524804
-0.42239088 -0.19269192 0.72436559
-0.41932938 -0.19245815 0.72348684
-0.41627491 -0.19222482 0.72260964
-0.41322786 -0.19199201 0.72173452
-0.4101882 -0.19175981 0.72086161
-0.40715584 -0.19152814 0.71999073
-0.40413088 -0.19129705 0.71912205
-0.40111318 -0.19106653 0.71825546
-0.39810273 -0.19083655 0.71739089
-0.39509952 -0.19060712 0.71652842
-0.39349693 -0.19105478 0.71821129
-0.3920947 -0.19160615 0.72028399
-0.39068431 -0.19216068 0.7223686
-0.38926578 -0.19271846 0.72446537
-0.38783899 -0.1932795 0.72657442
-0.38640386 -0.1938438 0.72869575
-0.38496029 -0.1944114 0.73082942
-0.38350827 -0.19498232 0.73297566
-0.38204771 -0.19555663 0.7351346
-0.38057849 -0.1961343 0.73730618
-0.37910056 -0.19671541 0.73949069
-0.37761387 -0.19729999 0.74168819
-0.37611833 -0.19788805 0.74389881
-0.37461382 -0.19847961 0.7461226
-0.37310031 -0.19907473 0.7483598
-0.37157768 -0.19967341 0.75061035
-0.37004587 -0.20027572 0.75287455
-0.36850479 -0.20088167 0.75515246
-0.36695436 -0.2014913 0.75744414
-0.3653945 -0.20210464 0.75974983
-0.36382511 -0.20272173 0.76206958
-0.36224607 -0.20334259 0.76440346
-0.36065733 -0.20396726 0.76675177
-0.35905889 -0.20459582 0.76911461
-0.35745046 -0.20522821 0.77149189
-0.35608509 -0.20601092 0.77443427
-0.35509217 -0.20702285 0.7782383
-0.3540895 -0.2080448 0.78207999
-0.35307682 -0.20907687 0.78595972
-0.35205412 -0.21011925 0.78987825
-0.50438046 -0.19622113 0.74753368
-0.50111812 -0.19597532 0.74659723
-0.49786377 -0.19573009 0.74566299
-0.49461767 -0.1954855 0.74473119
-0.49137962 -0.19524151 0.74380165
-0.48814943 -0.19499803 0.74287409
-0.48492837 -0.1947556 0.74195051
-0.4817144 -0.1945134 0.74102783
-0.4785085 -0.19427185 0.7401076
-0.47531047 -0.19403085 0.73918951
-0.47212046 -0.1937905 0.7382738
-0.46893832 -0.19355072 0.73736036
-0.46576399 -0.19331151 0.73644906
-0.46259755 -0.19307293 0.73554015
-0.45943889 -0.19283491 0.73463339
-0.45628801 -0.19259749 0.73372889
-0.45314491 -0.19236065 0.73282665
-0.4500095 -0.1921244 0.73192656
-0.4468818 -0.19188872 0.73102874
-0.44376174 -0.19165361 0.73013306
-0.44064933 -0.19141911 0.72923964
-0.43754455 -0.19118515 0.72834837
-0.43444732 -0.19095176 0.72745925
-0.43135765 -0.19071896 0.72657233
-0.42827547 -0.1904867 0.7256875
-0.42520085 -0.19025503 0.72480494
-0.42213365 -0.19002391 0.72392446
-0.41907388 -0.18979335 0.72304606
-0.41602126 -0.18956321 0.72216934
-0.41297653 -0.18933386 0.7212956
-0.40993902 -0.18910499 0.7204237
-0.40690884 -0.18887669 0.71955395
-0.40388596 -0.18864892 0.71868622
-0.40087038 -0.18842173 0.7178207
-0.39786208 -0.18819506 0.71695721
-0.3960135 -0.1885176 0.71818596
-0.39461857 -0.18906163 0.72025847
-0.39321557 -0.1896088 0.72234303
-0.3918044 -0.19015914 0.72443962
-0.39038506 -0.19071271 0.72654849
-0.38895741 -0.19126949 0.72866964
-0.38752136 -0.1918295 0.73080313
-0.38607693 -0.19239284 0.73294926
-0.38462397 -0.1929595 0.73510802
-0.38316244 -0.1935295 0.73727953
-0.38169223 -0.19410287 0.73946387
-0.38021329 -0.19467965 0.74166119
-0.37872556 -0.19525988 0.74387169
-0.37722889 -0.19584356 0.7460953
-0.37572327 -0.19643077 0.74833232
-0.3742086 -0.19702148 0.75058275
-0.37268475 -0.19761576 0.75284672
-0.37115172 -0.19821364 0.75512445
-0.36960939 -0.19881515 0.75741601
-0.36805764 -0.19942032 0.75972146
-0.36649641 -0.20002918 0.76204103
-0.36492568 -0.2006418 0.76437485
-0.36334524 -0.20125814 0.76672292
-0.36175507 -0.20187831 0.76908553
-0.36015511 -0.2025023 0.77146274
-0.35854515 -0.20313014 0.77385461
-0.35692525 -0.20376192 0.77626145
-0.35529521 -0.20439763 0.7786833
-0.35402197 -0.2052501 0.78193086
-0.35300919 -0.20626812 0.78580916
-0.35198629 -0.20729627 0.78972608
-0.50080299 -0.19322319 0.74612772
-0.49755117 -0.19298159 0.74519479
-0.49430743 -0.19274056 0.74426407
-0.49107185 -0.19250017 0.74333578
-0.48784462 -0.19226049 0.74241024
-0.48462525 -0.19202133 0.74148673
-0.48141369 -0.19178268 0.74056524
-0.47821015 -0.19154467 0.73964614
-0.47501457 -0.19130723 0.7387293
-0.47182685 -0.19107038 0.73781466
-0.46864706 -0.19083412 0.73690236
-0.46547502 -0.19059841 0.73599219
-0.46231094 -0.19036333 0.73508441
-0.45915461 -0.19012882 0.73417884
-0.45600602 -0.18989486 0.73327541
-0.45286518 -0.18966149 0.73237425
-0.44973201 -0.18942867 0.73147523
-0.44660658 -0.18919645 0.73057854
-0.44348884 -0.18896481 0.72968405
-0.44037864 -0.1887337 0.72879165
-0.43727607 -0.18850318 0.72790146
-0.43418103 -0.18827319 0.72701341
-0.43109363 -0.1880438 0.72612762
-0.42801368 -0.18781495 0.72524393
-0.42494121 -0.18758667 0.72436237
-0.42187622 -0.18735893 0.72348297
-0.41881865 -0.18713175 0.72260571
-0.41576853 -0.18690512 0.72173059
-0.41272575 -0.18667904 0.72085756
-0.40969029 -0.18645348 0.71998662
-0.40666214 -0.18622845 0.7191177
-0.4036414 -0.18600403 0.71825105
-0.40062797 -0.18578017 0.7173866
-0.39852992 -0.18598062 0.71816069
-0.39714226 -0.1865173 0.72023302
-0.39574662 -0.18705708 0.7223174
-0.3943429 -0.18760002 0.72441393
-0.39293092 -0.18814608 0.72652256
-0.39151078 -0.18869536 0.7286436
-0.39008227 -0.18924783 0.73077697
-0.38864541 -0.18980357 0.73292291
-0.38720006 -0.19036257 0.73508149
-0.38574618 -0.19092488 0.73725283
-0.38428366 -0.1914905 0.73943698
-0.3828125 -0.19205952 0.74163419
-0.38133255 -0.19263192 0.74384451
-0.37984377 -0.19320773 0.746068
-0.378346 -0.19378698 0.74830478
-0.37683928 -0.19436973 0.7505551
-0.37532347 -0.194956 0.75281894
-0.37379843 -0.19554581 0.75509644
-0.37226418 -0.1961392 0.75738782
-0.37072062 -0.19673622 0.75969321
-0.36916757 -0.19733685 0.76201254
-0.36760506 -0.19794118 0.76434618
-0.36603293 -0.19854923 0.76669413
-0.36445111 -0.19916101 0.7690565
-0.36285952 -0.19977659 0.77143353
-0.36125806 -0.20039597 0.77382529
-0.35964659 -0.20101918 0.77623183
-0.3580251 -0.20164633 0.7786535
-0.35639349 -0.20227738 0.78109032
-0.35475162 -0.20291241 0.78354245
-0.35309941 -0.20355141 0.78600997
-0.35191855 -0.2044744 0.78957409
-0.49723893 -0.19023654 0.74472713
-0.49399766 -0.1899991 0.74379766
-0.49076447 -0.18976226 0.74287051
-0.48753935 -0.18952602 0.74194568
-0.48432255 -0.18929048 0.7410236
-0.4811134 -0.1890554 0.7401033
-0.47791219 -0.1888209 0.73918527
-0.47471896 -0.18858698 0.73826957
-0.47153357 -0.18835363 0.73735607
-0.4683561 -0.18812087 0.73644489
-0.46518651 -0.1878887 0.73553598
-0.46202466 -0.18765707 0.73462921
-0.45887065 -0.18742603 0.73372477
-0.4557243 -0.18719554 0.73282242
-0.45258576 -0.18696563 0.73192239
-0.44945496 -0.1867363 0.73102462
-0.44633174 -0.18650751 0.73012894
-0.44321623 -0.18627928 0.72923553
-0.44010827 -0.18605159 0.7283442
-0.43700793 -0.1858245 0.72745514
-0.43391517 -0.18559794 0.72656822
-0.43082991 -0.18537192 0.72568345
-0.42775214 -0.18514645 0.72480077
-0.42468187 -0.18492153 0.72392029
-0.42161906 -0.18469717 0.72304195
-0.41856369 -0.18447337 0.72216582
-0.41551569 -0.18425009 0.72129172
-0.41247508 -0.18402734 0.72041976
-0.40944177 -0.18380512 0.71954983
-0.40641582 -0.18358347 0.71868211
-0.40339717 -0.18336235 0.71781647
-0.40104607 -0.18344378 0.7181353
-0.3996658 -0.18397315 0.72020757
-0.39827749 -0.18450555 0.72229183
-0.39688113 -0.18504104 0.72438812
-0.39547667 -0.18557966 0.7264967
-0.39406395 -0.1861214 0.72861749
-0.39264297 -0.18666634 0.73075074
-0.39121366 -0.18721446 0.73289651
-0.38977596 -0.18776582 0.73505497
-0.38832971 -0.18832043 0.73722607
-0.38687494 -0.18887834 0.73941016
-0.38541147 -0.18943955 0.74160713
-0.38393933 -0.1900041 0.74381721
-0.38245836 -0.19057202 0.74604052
-0.38096848 -0.19114336 0.74827713
-0.37946969 -0.19171815 0.75052726
-0.37796184 -0.19229639 0.75279093
-0.37644491 -0.19287813 0.7550683
-0.3749187 -0.19346339 0.75735945
-0.37338328 -0.19405223 0.75966465
-0.37183842 -0.19464466 0.76198381
-0.37028411 -0.19524071 0.76431721
-0.36872026 -0.19584043 0.76666498
-0.36714676 -0.19644384 0.76902717
-0.36556354 -0.19705099 0.77140397
-0.36397055 -0.19766191 0.77379555
-0.3623676 -0.19827661 0.77620196
-0.36075464 -0.19889516 0.7786234
-0.35913163 -0.19951758 0.78106004
-0.35749838 -0.20014389 0.78351188
-0.35585487 -0.20077415 0.78597921
-0.35420099 -0.2014084 0.78846216
-0.49368826 -0.18726106 0.74333179
-0.4904575 -0.1870278 0.74240583
-0.48723477 -0.1867951 0.74148214
-0.4840202 -0.18656304 0.74056101
-0.48081344 -0.1863315 0.7396419
-0.47761461 -0.18610051 0.73872501
-0.47442371 -0.18587011 0.73781043
-0.47124073 -0.18564029 0.73689812
-0.46806556 -0.18541101 0.73598802
-0.46489823 -0.1851823 0.73508018
-0.46173871 -0.18495417 0.73417455
-0.45858699 -0.1847266 0.73327124
-0.45544299 -0.18449958 0.73237008
-0.45230669 -0.18427309 0.73147106
-0.44917813 -0.18404719 0.73057437
-0.44605717 -0.18382183 0.72967976
-0.4429439 -0.18359704 0.72878748
-0.43983826 -0.1833728 0.72789735
-0.4367401 -0.18314908 0.7270093
-0.43364954 -0.18292591 0.72612345
-0.43056649 -0.1827033 0.72523975
-0.42749098 -0.18248123 0.72435826
-0.42442292 -0.18225968 0.72347885
-0.42170441 -0.1821865 0.72318834
-0.41915977 -0.18218799 0.72319424
-0.4166151 -0.18218948 0.72320014
-0.41407037 -0.18219095 0.72320604
-0.41152561 -0.18219244 0.72321194
-0.40898082 -0.18219395 0.7232179
-0.40643597 -0.18219544 0.72322381
-0.403891 -0.18219689 0.72322959
-0.40134564 -0.18219818 0.72323471
-0.39941877 -0.18248205 0.72436154
-0.39802176 -0.18301322 0.72646999
-0.39661652 -0.18354745 0.72859061
-0.39520305 -0.18408482 0.73072368
-0.39378133 -0.18462534 0.73286933
-0.39235124 -0.18516906 0.73502761
-0.39091265 -0.18571597 0.73719859
-0.38946557 -0.18626614 0.73938245
-0.38800988 -0.18681957 0.74157929
-0.38654554 -0.18737631 0.74378926
-0.38507241 -0.18793637 0.74601239
-0.38359046 -0.18849978 0.74824888
-0.38209957 -0.18906656 0.75049871
-0.38059974 -0.1896368 0.75276226
-0.37909079 -0.19021048 0.75503945
-0.37757272 -0.19078763 0.75733048
-0.37604538 -0.19136828 0.75963539
-0.37450874 -0.19195251 0.76195449
