# .PCD v0.7 - Point Cloud Data file format
VERSION 0.7
FIELDS x y z
SIZE 4 4 4
TYPE F F F
COUNT 1 1 1
WIDTH 435
HEIGHT 1
VIEWPOINT 0 0 0 1 0 0 0
POINTS 435
DATA ascii
0.21976344 -0.2575722 1.3413551
0.22459954 -0.25769842 1.3420124
0.22943996 -0.25782427 1.3426678
0.23428512 -0.25795028 1.3433239
0.21312931 -0.2506026 1.3294532
0.21791963 -0.25072473 1.3301011
0.22271459 -0.25084695 1.3307495
0.22751425 -0.25096932 1.3313987
0.23231842 -0.25109163 1.3320475
0.23712663 -0.25121337 1.3326933
0.2419395 -0.2513352 1.3333397
0.24675705 -0.25145718 1.3339868
0.25157925 -0.25157925 1.3346344
0.25640616 -0.25170144 1.3352827
0.26123774 -0.25182378 1.3359315
0.26607403 -0.25194621 1.3365811
0.21204457 -0.2446668 1.3226868
0.21648964 -0.24442378 1.321373
0.22092587 -0.24418122 1.3200617
0.22561945 -0.24422725 1.3203105
0.23038286 -0.24434546 1.3209496
0.23515083 -0.24446374 1.321589
0.23992346 -0.24458218 1.3222293
0.24469993 -0.24469993 1.3228658
0.24948095 -0.24481775 1.3235028
0.25426656 -0.24493568 1.3241403
0.25905678 -0.24505371 1.3247784
0.26385161 -0.24517186 1.3254172
0.2686511 -0.24529012 1.3260565
0.27345517 -0.24540849 1.3266964
0.2782639 -0.24552697 1.3273369
0.2830773 -0.24564558 1.3279781
0.28789532 -0.2457643 1.32862
0.29271793 -0.24588308 1.329262
0.21243015 -0.24044292 1.325092
0.21688291 -0.24020365 1.3237734
0.2213268 -0.23996484 1.3224573
0.22576189 -0.23972654 1.321144
0.23018815 -0.23948869 1.3198332
0.23460566 -0.2392513 1.318525
0.2390144 -0.2390144 1.3172194
0.24341442 -0.23877795 1.3159163
0.24741715 -0.23816791 1.3125544
0.25216216 -0.23828168 1.3131813
0.25691164 -0.23839548 1.3138084
0.26166567 -0.2385094 1.3144363
0.26642421 -0.23862343 1.3150647
0.27118731 -0.23873755 1.3156936
0.27595499 -0.2388518 1.3163233
0.28072721 -0.23896615 1.3169534
0.28550404 -0.23908062 1.3175843
0.29217899 -0.24075548 1.3268145
0.21281715 -0.23620364 1.3275059
0.21727762 -0.23596816 1.3261825
0.22172919 -0.23573314 1.3248616
0.22617193 -0.23549861 1.3235435
0.2306058 -0.23526451 1.3222278
0.23503089 -0.23503089 1.3209149
0.23944719 -0.23479773 1.3196045
0.24385478 -0.23456508 1.3182969
0.2453863 -0.23162632 1.3017806
0.25009164 -0.2317363 1.3023987
0.25480124 -0.23184618 1.3030163
0.2595152 -0.23195606 1.3036338
0.26423362 -0.23206604 1.3042519
0.26895651 -0.23217614 1.3048707
0.27368391 -0.23228633 1.30549
0.27841577 -0.23239663 1.3061099
0.2831521 -0.23250702 1.3067303
0.20872836 -0.23218098 1.3312595
0.21320552 -0.23194885 1.3299285
0.21767373 -0.2317172 1.3286003
0.22213304 -0.23148601 1.3272747
0.22658345 -0.23125526 1.3259517
0.231025 -0.231025 1.3246313
0.23545769 -0.23079516 1.3233136
0.23988159 -0.2305658 1.3219985
0.24429668 -0.23033687 1.3206859
0.2433885 -0.22519124 1.2911823
0.24805459 -0.22529729 1.2917904
0.25272506 -0.22540343 1.2923989
0.25739983 -0.22550958 1.2930076
0.26207879 -0.22561565 1.2936157
0.26676211 -0.22572178 1.2942243
0.27144986 -0.22582805 1.2948335
0.27614203 -0.22593439 1.2954433
0.28083861 -0.22604084 1.2960536
0.20911036 -0.22790681 1.3336959
0.21359533 -0.22767855 1.3323601
0.21807133 -0.22745074 1.331027
0.22253835 -0.22722338 1.3296965
0.22699647 -0.22699647 1.3283687
0.2314457 -0.22677003 1.3270435
0.23588605 -0.22654402 1.325721
0.24031757 -0.22631848 1.3244011
0.23679985 -0.21875796 1.2801574
0.241423 -0.2188601 1.2807552
0.24605045 -0.21896231 1.2813534
0.25068223 -0.21906467 1.2819523
0.25531837 -0.21916708 1.2825516
0.25995877 -0.21926957 1.2831514
0.26460323 -0.2193719 1.2837502
0.269252 -0.21947432 1.2843496
0.27390513 -0.21957685 1.2849495
0.27856261 -0.21967946 1.28555
0.20949377 -0.22361694 1.3361412
0.21398658 -0.22339258 1.3348006
0.21847034 -0.22316863 1.3334625
0.22294515 -0.22294515 1.3321272
0.22741099 -0.22272211 1.3307945
0.23186794 -0.22249953 1.3294646
0.23631595 -0.22227739 1.3281372
0.24075505 -0.22205563 1.3268121
0.23490372 -0.21253194 1.2699069
0.23948896 -0.21263039 1.2704951
0.24407843 -0.2127289 1.2710837
0.24867217 -0.21282753 1.2716731
0.25327018 -0.21292625 1.2722629
0.25787243 -0.21302505 1.2728533
0.26247895 -0.21312393 1.2734441
0.26708946 -0.21322268 1.2740341
0.27170423 -0.21332151 1.2746246
0.27929124 -0.21571274 1.2889125
0.20987859 -0.21931134 1.3385956
0.21437925 -0.21909088 1.33725
0.21887086 -0.21887086 1.3359071
0.22335346 -0.21865128 1.3345668
0.22782707 -0.21843214 1.3332293
0.23229171 -0.21821344 1.3318944
0.2367474 -0.21799514 1.330562
0.24119416 -0.21777725 1.3292321
0.23375238 -0.20703782 1.2636826
0.23806521 -0.2069165 1.2629421
0.24237302 -0.20679533 1.2622025
0.24669407 -0.20668963 1.2615573
0.25125459 -0.20678474 1.2621379
0.25581926 -0.20687991 1.2627188
0.26038814 -0.20697519 1.2633003
0.26496124 -0.20707056 1.2638824
0.26953837 -0.20716585 1.264464
0.28580096 -0.21609341 1.3189546
0.21026485 -0.2149899 1.3410591
0.21477337 -0.21477337 1.3397084
0.21927285 -0.2145573 1.3383607
0.22376324 -0.21434164 1.3370154
0.22824463 -0.21412641 1.3356729
0.23271705 -0.21391164 1.3343332
0.23718043 -0.21369721 1.3329957
0.24163489 -0.21348324 1.331661
0.2335335 -0.20239571 1.2624993
0.23784244 -0.20227721 1.2617602
0.24214633 -0.20215887 1.261022
0.24644518 -0.20204064 1.2602845
0.25073901 -0.20192255 1.2595479
0.25502783 -0.20180462 1.2588123
0.25931165 -0.20168684 1.2580776
0.26359043 -0.20156915 1.2573435
0.26786429 -0.20145164 1.2566105
0.29260817 -0.21648248 1.3503695
0.21065249 -0.21065249 1.3435315
0.21516892 -0.21043994 1.3421758
0.21967627 -0.21022783 1.3408231
0.22417453 -0.21001615 1.3394729
0.22866376 -0.20980489 1.3381256
0.23314391 -0.20959403 1.3367807
0.23761506 -0.20938356 1.3354384
0.22900495 -0.19787806 1.2620568
0.23331502 -0.19776225 1.2613182
0.23762007 -0.1976466 1.2605805
0.24192007 -0.19753107 1.2598437
0.24621503 -0.19741565 1.2591076
0.250505 -0.19730039 1.2583724
0.25478992 -0.19718525 1.2576381
0.25906989 -0.19707027 1.2569047
0.26334491 -0.19695543 1.2561723
0.26761502 -0.19684079 1.2554412
0.2110416 -0.20629908 1.3460132
0.21556596 -0.20609054 1.3446525
0.22008123 -0.20588244 1.3432947
0.22458735 -0.20567474 1.3419396
0.22908439 -0.20546743 1.340587
0.23357235 -0.20526056 1.3392372
0.23805127 -0.20505406 1.3378899
0.22879079 -0.19325046 1.2608765
0.23309696 -0.19313748 1.2601393
0.2373981 -0.19302462 1.259403
0.24169421 -0.19291189 1.2586675
0.24598533 -0.1927993 1.2579329
0.25027141 -0.19268683 1.257199
0.25455251 -0.1925745 1.2564662
0.2588287 -0.19246237 1.2557346
0.26309997 -0.19235039 1.2550039
0.26736623 -0.19223854 1.2542741
0.20689055 -0.20213445 1.3498722
0.2114321 -0.20192954 1.3485038
0.21596447 -0.20172505 1.3471383
0.22048764 -0.20152096 1.3457754
0.22500169 -0.20131731 1.3444153
0.22950657 -0.201114 1.3430576
0.23400234 -0.20091109 1.3417026
0.23848906 -0.20070861 1.3403504
0.22857703 -0.18863152 1.2596985
0.2328793 -0.18852134 1.2589626
0.23717655 -0.18841128 1.2582277
0.2414688 -0.18830135 1.2574936
0.24575603 -0.18819156 1.2567604
0.2500383 -0.18808191 1.2560281
0.25431564 -0.18797244 1.2552971
0.25858808 -0.18786313 1.254567
0.26285547 -0.18775392 1.2538377
0.27313054 -0.19186856 1.2813157
0.20727451 -0.19774465 1.3523774
0.21182409 -0.19754381 1.3510039
0.21636444 -0.19734339 1.3496332
0.22089559 -0.19714338 1.3482653
0.22541754 -0.19694375 1.3469
0.22993031 -0.19674449 1.3455373
0.23443395 -0.19654563 1.3441774
0.23892851 -0.19634719 1.3428202
0.22836366 -0.1840212 1.2585226
0.23266205 -0.18391381 1.2577882
0.23695542 -0.18380654 1.2570546
0.24124381 -0.18369941 1.2563219
0.24552724 -0.18359244 1.2555903
0.24980575 -0.18348564 1.2548599
0.25407928 -0.18337896 1.2541304
0.25834784 -0.18327239 1.2534015
0.26261145 -0.18316595 1.2526736
0.27949333 -0.19171856 1.311165
0.20765989 -0.19333851 1.3548918
0.21221752 -0.1931418 1.3535132
0.21676588 -0.19294547 1.3521373
0.22130503 -0.19274954 1.3507644
0.22583491 -0.19255397 1.3493938
0.23035559 -0.19235879 1.348026
0.23486716 -0.19216403 1.3466612
0.23936954 -0.19196963 1.3452989
0.2281507 -0.17941949 1.257349
0.2324452 -0.17931487 1.2566159
0.2367347 -0.17921039 1.2558837
0.24101934 -0.17910612 1.2551529
0.245299 -0.17900197 1.2544231
0.24957363 -0.17889792 1.2536939
0.25384334 -0.178794 1.2529657
0.25810805 -0.1786902 1.2522383
0.26236787 -0.17858653 1.2515118
0.28608316 -0.19151022 1.3420793
0.20804669 -0.18891597 1.3574156
0.21261241 -0.18872337 1.3560318
0.21716884 -0.18853119 1.3546509
0.22171596 -0.18833937 1.3532726
0.22625384 -0.18814793 1.351897
0.23078248 -0.18795687 1.3505242
0.23530193 -0.18776619 1.3491541
0.22364251 -0.17492831 1.2569102
0.22793813 -0.17482634 1.2561775
0.23222883 -0.17472455 1.2554462
0.23651458 -0.17462292 1.2547159
0.24079537 -0.17452142 1.2539866
0.24507116 -0.17442001 1.253258
0.24934198 -0.17431873 1.2525302
0.25360784 -0.17421755 1.2518033
0.25786877 -0.17411652 1.2510773
0.26212475 -0.1740156 1.2503521
0.29308167 -0.19135083 1.3749108
0.20843494 -0.18447691 1.3599488
0.21300879 -0.1842885 1.3585598
0.21757326 -0.18410045 1.3571736
0.22212842 -0.18391277 1.35579
0.2266743 -0.18372549 1.3544093
0.23121092 -0.18353857 1.3530314
0.23573834 -0.18335204 1.3516563
0.22343422 -0.17034094 1.2557396
0.22772609 -0.17024183 1.2550089
0.23201296 -0.17014283 1.2542791
0.23629484 -0.17004395 1.2535502
0.24057177 -0.1699452 1.2528222
0.24484374 -0.16984655 1.252095
0.24911071 -0.16974801 1.2513685
0.25337276 -0.1696496 1.250643
0.25762987 -0.1695513 1.2499183
0.26188207 -0.1694531 1.2491945
0.20882465 -0.18002124 1.3624914
0.21340664 -0.17983706 1.3610973
0.21797919 -0.17965318 1.3597057
0.22254243 -0.1794697 1.358317
0.22709633 -0.17928658 1.3569311
0.23164098 -0.17910385 1.355548
0.23617636 -0.17892149 1.3541678
0.22365335 -0.16607922 1.2569711
0.22785044 -0.16591051 1.2556943
0.23203902 -0.16574216 1.25442
0.23621911 -0.16557415 1.2531484
0.24039072 -0.16540647 1.2518793
0.24461673 -0.16528158 1.2509341
0.24887991 -0.16518578 1.2502091
0.25313815 -0.16509011 1.249485
0.25739148 -0.16499454 1.2487617
0.271052 -0.1708311 1.2929357
0.20921582 -0.17554891 1.3650436
0.21380596 -0.17536892 1.3636441
0.21838666 -0.1751893 1.3622473
0.22295798 -0.17501004 1.3608534
0.22751997 -0.17483114 1.3594624
0.23207265 -0.17465262 1.3580742
0.23661603 -0.17447445 1.3566887
0.22406934 -0.16195111 1.2593091
0.22827382 -0.1617863 1.2580276
0.23246974 -0.16162182 1.2567486
0.23665716 -0.16145769 1.2554723
0.24083605 -0.16129386 1.2541984
0.24500649 -0.1611304 1.2529273
0.24916847 -0.16096725 1.2516587
0.25332204 -0.16080442 1.2503926
0.25746721 -0.16064192 1.2491291
0.27323788 -0.16761652 1.3033625
0.20500064 -0.17123583 1.369013
0.20960845 -0.17105977 1.3676053
0.21420676 -0.17088404 1.3662004
0.21879563 -0.17070867 1.3647984
0.2233751 -0.17053367 1.3633993
0.22794519 -0.17035905 1.3620031
0.23250592 -0.17018475 1.3606097
0.23705733 -0.17001082 1.3592191
0.2244869 -0.15780762 1.2616558
0.22869879 -0.15764673 1.2603695
0.23290208 -0.15748617 1.2590858
0.2370968 -0.15732592 1.2578046
0.24128301 -0.157166 1.2565261
0.24546073 -0.15700641 1.2552502
0.24962997 -0.15684715 1.2539769
0.25379074 -0.15668818 1.2527061
0.25794306 -0.15652956 1.2514378
0.27968225 -0.16686924 1.3341025
0.20538647 -0.16672549 1.3715895
0.21000251 -0.16655372 1.3701764
0.21460904 -0.16638228 1.3687662
0.21920612 -0.16621125 1.367359
0.22379376 -0.16604052 1.3659546
0.22837196 -0.16587016 1.3645531
0.23294081 -0.16570015 1.3631545
0.23750028 -0.1655305 1.3617588
0.22490603 -0.15364867 1.2640114
0.22912531 -0.15349171 1.2627201
0.23333599 -0.15333508 1.2614316
0.2375381 -0.15317877 1.2601457
0.24173163 -0.15302278 1.2588624
0.24591665 -0.15286711 1.2575817
0.25009313 -0.15271173 1.2563035
0.25426114 -0.15255669 1.255028
0.25842068 -0.15240194 1.253755
0.2864759 -0.16610788 1.3665087
0.20577374 -0.16219813 1.3741758
0.21039809 -0.16203071 1.3727574
0.21501289 -0.16186364 1.3713419
0.21961819 -0.1616969 1.3699293
0.224214 -0.16153052 1.3685197
0.22880037 -0.16136447 1.3671129
0.23337731 -0.16119877 1.3657089
0.22109127 -0.14962742 1.2676742
0.22532669 -0.14947414 1.2663755
0.22955345 -0.14932117 1.2650796
0.23377155 -0.14916851 1.2637862
0.23798104 -0.14901617 1.2624955
0.24218193 -0.14886412 1.2612073
0.24637425 -0.14871238 1.2599218
0.25055799 -0.14856094 1.2586387
0.25473326 -0.14840981 1.2573584
0.25890008 -0.14825901 1.2560807
0.22923039 -0.15684184 1.3696823
0.23381546 -0.15668046 1.368273
0.221506 -0.14543323 1.2700522
0.22574893 -0.14528397 1.2687486
0.22998317 -0.14513502 1.2674478
0.23420873 -0.14498636 1.2661496
0.23842561 -0.14483799 1.264854
0.24263386 -0.14468992 1.2635609
0.24683355 -0.14454216 1.2622706
0.25102466 -0.14439471 1.2609829
0.25520718 -0.14424755 1.2596977
0.26105428 -0.14503016 1.2665322
0.22192231 -0.14122328 1.2724391
0.22617278 -0.14107807 1.2711307
0.23041449 -0.14093314 1.2698249
0.23464751 -0.14078851 1.2685218
0.23887184 -0.14064416 1.2672212
0.24308752 -0.14050013 1.2659234
0.24729456 -0.14035638 1.2646282
0.25149301 -0.14021291 1.2633356
0.25568289 -0.14006975 1.2620457
0.26705849 -0.14380072 1.2956622
0.22234018 -0.13699748 1.2748351
0.22659817 -0.13685632 1.2735215
0.23084743 -0.13671547 1.2722108
0.23508795 -0.13657489 1.2709028
0.23931973 -0.13643461 1.2695973
0.24354286 -0.13629463 1.2682947
0.24775729 -0.1361549 1.2669945
0.25196314 -0.1360155 1.2656972
0.25616035 -0.13587637 1.2644025
0.27333805 -0.14250958 1.3261281
0.22354092 -0.13322136 1.2817198
0.22753949 -0.13291912 1.2788119
0.23151997 -0.13261823 1.2759172
0.23553002 -0.13234544 1.2732927
0.23976932 -0.13220926 1.2719824
0.24399991 -0.13207334 1.2706748
0.24822178 -0.13193771 1.2693698
0.252435 -0.13180235 1.2680676
0.2566396 -0.13166727 1.266768
0.2256954 -0.12994583 1.294073
0.22972751 -0.12964819 1.291109
0.23374118 -0.12935191 1.2881584
0.23773654 -0.12905698 1.2852212
0.24171372 -0.12876339 1.2822975
0.24567284 -0.12847111 1.2793869
0.24961402 -0.12818018 1.2764895
0.25353742 -0.12789056 1.2736053
0.2574431 -0.12760223 1.2707341
0.22789186 -0.12660658 1.3066669
0.23195802 -0.12631378 1.3036448
0.23600538 -0.12602229 1.3006365
0.24003413 -0.12573217 1.2976422
0.24404438 -0.12544337 1.2946616
0.24803622 -0.12515588 1.2916946
0.25200981 -0.12486973 1.2887412
0.25596529 -0.12458488 1.2858014
0.25990275 -0.12430131 1.2828748
0.23831382 -0.1226275 1.3133584
0.24237651 -0.12234242 1.3103052
0.24642032 -0.12205867 1.3072661
0.25044546 -0.12177623 1.3042412
0.25445202 -0.12149511 1.3012303
0.25844008 -0.12121525 1.298233
0.26240981 -0.12093668 1.2952496
