# .PCD v0.7 - Point Cloud Data file format
VERSION 0.7
FIELDS x y z
SIZE 4 4 4
TYPE F F F
COUNT 1 1 1
WIDTH 944
HEIGHT 1
VIEWPOINT 0 0 0 1 0 0 0
POINTS 944
DATA ascii
-0.35963839 -0.40953043 1.180025
-0.35515559 -0.40915585 1.1789457
-0.35068089 -0.40878189 1.1778681
-0.34621441 -0.40840861 1.1767926
-0.34175608 -0.40803602 1.175719
-0.3373059 -0.40766418 1.1746476
-0.33286378 -0.40729293 1.1735779
-0.32842976 -0.40692243 1.1725103
-0.32400382 -0.40655255 1.1714445
-0.31958589 -0.40618336 1.1703807
-0.3637529 -0.40532467 1.179885
-0.35926682 -0.40495393 1.1788058
-0.35478899 -0.40458393 1.1777288
-0.35031933 -0.40421459 1.1766536
-0.34585774 -0.40384585 1.1755803
-0.34140432 -0.40347782 1.1745089
-0.33695903 -0.40311047 1.1734396
-0.3325218 -0.40274382 1.1723722
-0.32809266 -0.40237778 1.1713067
-0.3236714 -0.40201223 1.1702427
-0.31925845 -0.40164772 1.1691816
-0.31485349 -0.40128386 1.1681224
-0.3678664 -0.40111986 1.179745
-0.36337733 -0.40075329 1.1786668
-0.35889584 -0.40038669 1.1775886
-0.3544232 -0.40002149 1.1765145
-0.34995842 -0.39965668 1.1754415
-0.34550181 -0.3992925 1.1743704
-0.34105331 -0.398929 1.1733013
-0.33661288 -0.39856616 1.1722342
-0.33218041 -0.39820385 1.1711686
-0.32775611 -0.39784232 1.1701052
-0.32333982 -0.39748144 1.1690439
-0.3189317 -0.3971214 1.167985
-0.31453153 -0.39676201 1.1669279
-0.31013933 -0.39640325 1.1658728
-0.37197891 -0.39691606 1.1796049
-0.36748666 -0.3965534 1.1785271
-0.36300132 -0.39618999 1.1774471
-0.35852522 -0.39582843 1.1763725
-0.35405788 -0.39546815 1.1753018
-0.34959829 -0.39510813 1.1742319
-0.3451466 -0.39474851 1.1731631
-0.34070301 -0.39438954 1.1720963
-0.33626717 -0.39403087 1.1710303
-0.33183986 -0.39367339 1.1699679
-0.32742023 -0.39331615 1.1689062
-0.32300892 -0.39295992 1.1678475
-0.31860563 -0.39260435 1.1667908
-0.31421024 -0.39224938 1.1657358
-0.30982283 -0.39189512 1.164683
-0.30544332 -0.39154145 1.1636319
-0.3760905 -0.39271328 1.1794649
-0.37159497 -0.39235446 1.1783873
-0.36710763 -0.39199626 1.1773115
-0.36262801 -0.39163825 1.1762363
-0.35815585 -0.39128008 1.1751605
-0.35369322 -0.3909241 1.1740913
-0.34923854 -0.39056855 1.1730236
-0.34479213 -0.39021385 1.1719582
-0.34035316 -0.38985908 1.1708927
-0.33592239 -0.38950509 1.1698296
-0.33149973 -0.38915184 1.1687686
-0.3270852 -0.38879937 1.1677101
-0.32267871 -0.38844764 1.1666536
-0.31828019 -0.38809648 1.165599
-0.31388962 -0.38774601 1.1645464
-0.30950692 -0.38739607 1.1634954
-0.30513218 -0.38704687 1.1624466
-0.30076531 -0.38669825 1.1613996
-0.38020101 -0.38851142 1.1793249
-0.37570232 -0.38815653 1.1782476
-0.37121174 -0.38780221 1.1771721
-0.36672941 -0.38744858 1.1760986
-0.36281794 -0.38769689 1.1768523
-0.35932332 -0.38840151 1.1789912
-0.35547349 -0.38873419 1.180001
-0.35105976 -0.38845074 1.1791407
-0.34443828 -0.38568836 1.1707555
-0.34000388 -0.38533771 1.1696911
-0.3355782 -0.38498849 1.168631
-0.33116052 -0.38463986 1.1675727
-0.32675087 -0.38429192 1.1665165
-0.32234916 -0.38394454 1.1654621
-0.3179554 -0.38359782 1.1644096
-0.31356964 -0.38325176 1.1633592
-0.3091917 -0.38290629 1.1623105
-0.30482167 -0.38256145 1.1612637
-0.30045953 -0.38221723 1.1602188
-0.29610521 -0.38187361 1.1591758
-0.38431066 -0.38431066 1.179185
-0.37980852 -0.38395944 1.1781074
-0.37531379 -0.38360801 1.1770291
-0.37082866 -0.38325867 1.1759572
-0.3671754 -0.38377088 1.1775289
-0.36419654 -0.38500777 1.181324
-0.36094049 -0.38597682 1.1842973
-0.35739455 -0.38665494 1.186378
-0.35347462 -0.38693967 1.1872517
-0.34895054 -0.38656196 1.1860927
-0.3396562 -0.38082665 1.1684951
-0.33523488 -0.3804813 1.1674354
-0.33082205 -0.38013712 1.1663793
-0.32641721 -0.37979358 1.1653253
-0.32202032 -0.37945068 1.1642731
-0.31763133 -0.37910837 1.1632228
-0.31325027 -0.37876666 1.1621743
-0.30887711 -0.3784256 1.1611278
-0.30451182 -0.37808514 1.1600832
-0.30015433 -0.37774524 1.1590403
-0.29580474 -0.37740603 1.1579995
-0.29146293 -0.37706742 1.1569605
-0.38841906 -0.38011062 1.1790445
-0.3839137 -0.37976328 1.1779671
-0.37941614 -0.37941614 1.1768903
-0.37492725 -0.3790701 1.1758169
-0.37051493 -0.37879458 1.1749623
-0.36810058 -0.38057858 1.180496
-0.36536264 -0.38206494 1.1851064
-0.36234012 -0.38328463 1.1888897
-0.35903591 -0.38423139 1.1918265
-0.35543585 -0.38488024 1.1938391
-0.35144582 -0.38511729 1.1945744
-0.33930823 -0.3763237 1.167298
-0.3348923 -0.37598339 1.1662424
-0.33048427 -0.37564361 1.1651884
-0.32608423 -0.37530449 1.1641365
-0.32169208 -0.37496594 1.1630864
-0.31730789 -0.37462804 1.1620383
-0.3129316 -0.37429073 1.160992
-0.30856311 -0.373954 1.1599475
-0.30420256 -0.37361789 1.158905
-0.29984981 -0.37328243 1.1578645
-0.29550487 -0.37294754 1.1568257
-0.29116771 -0.37261322 1.1557887
-0.28683835 -0.37227955 1.1547537
-0.38801807 -0.37556827 1.1778272
-0.38351765 -0.37522537 1.1767519
-0.37902549 -0.37488312 1.1756785
-0.37454113 -0.37454113 1.174606
-0.37080777 -0.37495086 1.1758909
-0.36877 -0.37710381 1.1826428
-0.36630782 -0.37886694 1.1881722
-0.36352369 -0.38033405 1.1927732
-0.36045718 -0.38153654 1.1965444
-0.35710797 -0.38246474 1.1994554
-0.35344955 -0.38308004 1.201385
-0.33896282 -0.37183195 1.1661097
-0.33455104 -0.37149534 1.165054
-0.33014762 -0.37115976 1.1640016
-0.32575187 -0.37082446 1.16295
-0.32136455 -0.37049034 1.1619022
-0.31698513 -0.37015682 1.1608562
-0.31261355 -0.36982387 1.1598121
-0.30824983 -0.36949149 1.1587697
-0.30389395 -0.36915979 1.1577294
-0.29954588 -0.36882862 1.1566908
-0.29520562 -0.36849806 1.1556542
-0.29087311 -0.36816806 1.1546192
-0.28654838 -0.36783868 1.1535863
-0.28223136 -0.3675099 1.1525552
-0.38761783 -0.37103525 1.1766124
-0.3831225 -0.3706969 1.1755394
-0.37863529 -0.37035909 1.1744682
-0.3741563 -0.37002197 1.1733991
-0.37044278 -0.37044278 1.1747335
-0.36909238 -0.37326291 1.1836766
-0.36700103 -0.37538961 1.1904207
-0.36449045 -0.37713173 1.1959453
-0.36166155 -0.37858137 1.2005423
-0.35854739 -0.37976322 1.2042902
-0.34303096 -0.36767989 1.165972
-0.33861527 -0.36734629 1.164914
-0.33420897 -0.36701477 1.1638627
-0.32981059 -0.36668384 1.1628133
-0.32542065 -0.36635408 1.1617676
-0.3210386 -0.36602488 1.1607237
-0.31666312 -0.36569482 1.159677
-0.31229612 -0.36536604 1.1586344
-0.30793715 -0.36503807 1.1575943
-0.30358595 -0.36471066 1.156556
-0.29924259 -0.36438382 1.1555196
-0.29490697 -0.36405757 1.154485
-0.29057911 -0.36373192 1.1534523
-0.286259 -0.36340681 1.1524214
-0.2819466 -0.36308232 1.1513923
-0.27764189 -0.3627584 1.1503651
-0.38721845 -0.36651158 1.1754
-0.38272807 -0.36617768 1.1743292
-0.37824589 -0.36584437 1.1732603
-0.37377185 -0.36551169 1.1721934
-0.36930603 -0.36517972 1.1711287
-0.36878282 -0.36878282 1.1826838
-0.36734995 -0.37154824 1.1915525
-0.36520776 -0.37365189 1.1982989
-0.36265108 -0.37537569 1.2038271
-0.35977617 -0.37680697 1.2084173
-0.34268042 -0.36320022 1.1647805
-0.33827144 -0.36287299 1.1637311
-0.33386898 -0.36254483 1.1626787
-0.32947478 -0.36221761 1.1616293
-0.3250891 -0.36189163 1.1605839
-0.32071128 -0.36156622 1.1595403
-0.31634131 -0.36124137 1.1584985
-0.31197923 -0.36091718 1.1574588
-0.30762535 -0.36059394 1.1564223
-0.30327904 -0.3602711 1.1553868
-0.29894 -0.35994819 1.1543512
-0.29460892 -0.35962605 1.1533182
-0.29028571 -0.3593047 1.1522876
-0.28597024 -0.3589839 1.1512588
-0.2816624 -0.35866365 1.1502317
-0.27736229 -0.35834399 1.1492066
-0.27306986 -0.35802492 1.1481833
-0.39131346 -0.36232728 1.1752608
-0.38681993 -0.36199725 1.1741903
-0.38233453 -0.36166781 1.1731217
-0.37785727 -0.36133891 1.1720549
-0.37338838 -0.36101088 1.1709908
-0.36892709 -0.3606829 1.169927
-0.36447486 -0.36035651 1.1688683
-0.36003053 -0.36003053 1.1678109
-0.35559282 -0.35970372 1.1667509
-0.35116455 -0.3593789 1.1656973
-0.34674332 -0.35905373 1.1646426
-0.34233063 -0.35872969 1.1635915
-0.33792624 -0.3584066 1.1625435
-0.33352968 -0.35808399 1.1614971
-0.32914063 -0.35776153 1.1604512
-0.32475877 -0.35743889 1.1594046
-0.32038572 -0.35711783 1.1583632
-0.31602049 -0.35679734 1.1573236
-0.31166309 -0.35647741 1.1562859
-0.3073135 -0.35615805 1.15525
-0.30297169 -0.35583925 1.1542159
-0.29863766 -0.35552102 1.1531837
-0.2943114 -0.35520342 1.1521535
-0.28999302 -0.35488656 1.1511258
-0.28568211 -0.35457 1.1500989
-0.28137881 -0.35425389 1.1490736
-0.27708328 -0.35393849 1.1480505
-0.27279538 -0.35362363 1.1470293
-0.26851511 -0.35330933 1.1460098
-0.39091074 -0.35781777 1.1740513
-0.38642219 -0.35749218 1.1729829
-0.3819418 -0.35716718 1.1719166
-0.37746975 -0.35684299 1.1708529
-0.3730056 -0.35651916 1.1697904
-0.36854926 -0.35619563 1.1687288
-0.36410218 -0.35587388 1.1676731
-0.35966238 -0.35555196 1.1666168
-0.35522926 -0.35522926 1.165558
-0.35080621 -0.35490921 1.1645079
-0.34639004 -0.35458863 1.163456
-0.34198272 -0.3542695 1.1624089
-0.33758199 -0.35394961 1.1613593
-0.33318993 -0.35363102 1.160314
-0.32880571 -0.35331297 1.1592704
-0.32443005 -0.3529962 1.158231
-0.32006082 -0.35267848 1.1571885
-0.31570032 -0.35236228 1.1561511
-0.3113476 -0.35204664 1.1551154
-0.30700269 -0.35173157 1.1540816
-0.30266556 -0.35141703 1.1530496
-0.29833618 -0.3511031 1.1520195
-0.29401451 -0.35078976 1.1509913
-0.28970057 -0.35047689 1.1499648
-0.28539428 -0.35016462 1.1489402
-0.28109571 -0.34985295 1.1479175
-0.27680475 -0.34954175 1.1468965
-0.2725215 -0.34923127 1.1458777
-0.2682457 -0.34892109 1.14486
-0.39050892 -0.35331759 1.1728444
-0.38602528 -0.35299638 1.1717782
-0.38155019 -0.35267612 1.1707151
-0.37708268 -0.35235593 1.1696522
-0.37262389 -0.35203695 1.1685933
-0.36817291 -0.35171825 1.1675354
-0.36372995 -0.35140011 1.1664793
-0.35929504 -0.35108259 1.1654253
-0.35486707 -0.35076454 1.1643696
-0.35044867 -0.35044867 1.163321
-0.34603754 -0.35013264 1.162272
-0.34163392 -0.34981677 1.1612234
-0.33723882 -0.34950206 1.1601787
-0.33285156 -0.34918782 1.1591356
-0.32847214 -0.34887412 1.1580943
-0.32410109 -0.34856156 1.1570567
-0.31973761 -0.34824923 1.1560199
-0.31538075 -0.34793618 1.1549808
-0.31103271 -0.34762481 1.1539471
-0.30669251 -0.34731403 1.1529155
-0.30236003 -0.34700379 1.1518856
-0.29803526 -0.34669408 1.1508576
-0.29371825 -0.34638494 1.1498314
-0.28940892 -0.3460764 1.1488072
-0.28510723 -0.34576836 1.1477846
-0.28081319 -0.34546083 1.1467638
-0.27652681 -0.3451539 1.1457449
-0.27224803 -0.3448475 1.1447278
-0.26797685 -0.34454164 1.1437125
-0.26371321 -0.34423631 1.142699
-0.39010781 -0.34882656 1.1716398
-0.38562933 -0.34850991 1.1705762
-0.38115904 -0.34819394 1.1695149
-0.37669683 -0.34787849 1.1684554
-0.37224269 -0.34756359 1.1673977
-0.36779654 -0.34724924 1.1663419
-0.3633585 -0.34693551 1.1652881
-0.35892841 -0.34662229 1.1642361
-0.35450625 -0.34630957 1.1631857
-0.35009164 -0.34599701 1.1621358
-0.34568545 -0.34568545 1.1610894
-0.34128717 -0.34537444 1.1600448
-0.33689654 -0.34506372 1.1590011
-0.33251381 -0.34475359 1.1579595
-0.32813916 -0.34444422 1.1569203
-0.32377237 -0.3441354 1.1558831
-0.31941336 -0.34382713 1.1548476
-0.31506246 -0.34351972 1.1538152
-0.31071886 -0.34321234 1.1527827
-0.30638292 -0.3429054 1.1517518
-0.30205512 -0.34259942 1.1507241
-0.29773498 -0.34229395 1.149698
-0.29342258 -0.34198907 1.148674
-0.28911781 -0.3416847 1.1476517
-0.28482071 -0.34138086 1.1466311
-0.28053126 -0.3410776 1.1456125
-0.27624947 -0.34077486 1.1445957
-0.27197519 -0.34047264 1.1435806
-0.26770854 -0.34017098 1.1425674
-0.2634494 -0.33986983 1.1415559
-0.26064128 -0.34146029 1.1468979
-0.38970745 -0.34434468 1.1704373
-0.38523415 -0.34403265 1.1693767
-0.38076878 -0.343721 1.1683174
-0.37631145 -0.34340993 1.1672601
-0.37186217 -0.34309936 1.1662045
-0.36742097 -0.34278938 1.1651509
-0.36298779 -0.34248 1.1640992
-0.35856256 -0.34217113 1.1630493
-0.35414535 -0.34186283 1.1620015
-0.34973457 -0.34155366 1.1609505
-0.34533408 -0.34124729 1.1599092
-0.34094056 -0.34094056 1.1588666
-0.33655459 -0.34063405 1.1578248
-0.33217692 -0.34032848 1.1567862
-0.32780686 -0.34002328 1.1557487
-0.32344475 -0.3397187 1.1547135
-0.31909046 -0.33941472 1.1536802
-0.314744 -0.33911127 1.1526488
-0.31040558 -0.33880872 1.1516204
-0.30607453 -0.33850628 1.1505924
-0.30175081 -0.33820394 1.1495647
-0.29743534 -0.33790272 1.148541
-0.29312748 -0.33760199 1.1475188
-0.28882733 -0.33730185 1.1464986
-0.28453481 -0.33700225 1.1454802
-0.28024992 -0.33670315 1.1444635
-0.2759726 -0.33640459 1.1434487
-0.27170289 -0.33610654 1.1424357
-0.26744074 -0.33580902 1.1414244
-0.26318613 -0.33551207 1.1404151
-0.26068151 -0.33747143 1.1470749
-0.25862926 -0.34008729 1.1559664
-0.38930836 -0.33987236 1.1692387
-0.38483974 -0.3395645 1.1681795
-0.38037929 -0.33925721 1.1671224
-0.37592688 -0.33895046 1.1660671
-0.37148252 -0.3386443 1.1650138
-0.36704615 -0.33833861 1.1639622
-0.36261782 -0.33803356 1.1629127
-0.35819742 -0.33772901 1.161865
-0.35378504 -0.33742502 1.1608193
-0.34937972 -0.3371208 1.1597726
-0.3449834 -0.3368181 1.1587313
-0.34059468 -0.33651569 1.157691
-0.33621383 -0.33621383 1.1566525
-0.33184043 -0.33591208 1.1556144
-0.32747525 -0.33561125 1.1545795
-0.32311785 -0.33531097 1.1535465
-0.31876823 -0.33501121 1.1525152
-0.31442642 -0.334712 1.1514858
-0.31009233 -0.33441329 1.1504582
-0.30576596 -0.33411512 1.1494324
-0.30144781 -0.33381805 1.1484104
-0.29713622 -0.33352026 1.147386
-0.292833 -0.33322376 1.146366
-0.28853744 -0.33292782 1.1453478
-0.28424948 -0.33263236 1.1443315
-0.2799691 -0.33233741 1.1433167
-0.27569637 -0.33204305 1.1423041
-0.27143115 -0.33174917 1.141293
-0.26717347 -0.33145583 1.1402838
-0.26292333 -0.33116299 1.1392764
-0.26072174 -0.33348131 1.147252
-0.25866953 -0.33606669 1.1561463
-0.25658518 -0.33869246 1.1651795
-0.38444617 -0.33510548 1.1669848
-0.37999061 -0.33480254 1.1659298
-0.37554306 -0.3345001 1.1648766
-0.37110358 -0.33419824 1.1638254
-0.3666721 -0.33389693 1.1627761
-0.36224863 -0.3335962 1.1617287
-0.35783306 -0.33329594 1.1606832
-0.35342547 -0.33299625 1.1596395
-0.34902504 -0.33269638 1.1585952
-0.34463349 -0.33239797 1.1575561
-0.34024951 -0.33209983 1.1565177
-0.33587337 -0.33180219 1.1554812
-0.33150509 -0.33150509 1.1544466
-0.3271448 -0.33120871 1.1534145
-0.32279158 -0.33091211 1.1523817
-0.31844667 -0.33061659 1.1513525
-0.3141095 -0.33032161 1.1503252
-0.30978006 -0.33002713 1.1492997
-0.30545837 -0.32973319 1.1482761
-0.3011443 -0.32943973 1.1472541
-0.29683796 -0.32914683 1.1462342
-0.29253912 -0.32885432 1.1452155
-0.28824809 -0.3285625 1.1441993
-0.28396472 -0.32827127 1.143185
-0.27968889 -0.32798049 1.1421725
-0.27542064 -0.32769024 1.1411617
-0.27115995 -0.32740051 1.1401527
-0.26690677 -0.3271113 1.1391455
-0.26278287 -0.32697409 1.1386677
-0.26076198 -0.32948995 1.147429
-0.25870973 -0.33204478 1.1563261
-0.25662544 -0.33463955 1.1653622
-0.25450826 -0.33727518 1.1745406
-0.37960273 -0.33035696 1.1647396
-0.3751601 -0.33005887 1.1636887
-0.37072542 -0.3297613 1.1626395
-0.36629882 -0.32946429 1.1615924
-0.36188012 -0.32916781 1.160547
-0.35746941 -0.32887185 1.1595036
-0.35306662 -0.32857645 1.158462
-0.34867093 -0.32828084 1.1574198
-0.34428424 -0.32798678 1.156383
-0.33990502 -0.3276929 1.1553469
-0.33553362 -0.32739946 1.1543124
-0.33117002 -0.3271066 1.1532798
-0.32681391 -0.32681391 1.1522479
-0.32246602 -0.3265222 1.1512194
-0.31812572 -0.32623082 1.1501921
-0.31379321 -0.32594007 1.1491669
-0.30946842 -0.3256498 1.1481435
-0.30515131 -0.32536003 1.1471219
-0.3008419 -0.32507077 1.1461021
-0.29654011 -0.32478201 1.145084
-0.29224598 -0.3244938 1.1440679
-0.28795946 -0.32420611 1.1430535
-0.2836805 -0.32391888 1.1420408
-0.2794092 -0.32363224 1.1410303
-0.27514547 -0.32334614 1.1400216
-0.27088928 -0.32306054 1.1390146
-0.26664057 -0.32277542 1.1380094
-0.26282313 -0.32301164 1.1388422
-0.26080224 -0.32549736 1.1476061
-0.25874999 -0.32802165 1.1565059
-0.25666565 -0.33058536 1.1655449
-0.25454849 -0.33318949 1.1747262
-0.37477785 -0.32562664 1.162503
-0.3703481 -0.32533342 1.1614561
-0.3659263 -0.32504067 1.160411
-0.36151242 -0.32474846 1.1593678
-0.35710654 -0.32445678 1.1583265
-0.35270852 -0.32416564 1.1572871
-0.34831834 -0.32387495 1.1562493
-0.34393573 -0.3235845 1.1552124
-0.33956122 -0.32329482 1.1541783
-0.33519459 -0.32300568 1.153146
-0.3308357 -0.32271701 1.1521155
-0.32648462 -0.32242891 1.1510869
-0.32214132 -0.32214132 1.1500602
-0.31780547 -0.32185394 1.1490343
-0.31347761 -0.32156736 1.1480111
-0.3091574 -0.32128122 1.1469896
-0.30484492 -0.32099566 1.1459701
-0.30054009 -0.32071057 1.1449523
-0.29624289 -0.32042599 1.1439364
-0.2919533 -0.32014191 1.1429222
-0.28767136 -0.31985837 1.14191
-0.28339714 -0.31957552 1.1409001
-0.2791301 -0.31929272 1.1398906
-0.27487084 -0.3190107 1.1388837
-0.27061912 -0.31872919 1.1378788
-0.26637492 -0.31844822 1.1368756
-0.26286343 -0.31904796 1.1390167
-0.2608425 -0.32150355 1.1477833
-0.25879025 -0.32399726 1.1566859
-0.25670591 -0.32652992 1.1657277
-0.25458872 -0.32910252 1.174912
-0.25243792 -0.33171594 1.184242
-0.37439638 -0.32120344 1.1613197
-0.36997148 -0.32091448 1.160275
-0.36555451 -0.32062602 1.159232
-0.36114547 -0.32033807 1.158191
-0.35674438 -0.32005066 1.1571518
-0.35235113 -0.31976375 1.1561145
-0.34796578 -0.31947735 1.155079
-0.34358791 -0.31919113 1.1540442
-0.33921814 -0.31890565 1.153012
-0.33485618 -0.31862071 1.1519818
-0.33050203 -0.31833631 1.1509535
-0.32615563 -0.31805238 1.149927
-0.32181695 -0.31776893 1.1489022
-0.31748581 -0.31748581 1.1478785
-0.31316257 -0.31720337 1.1468574
-0.30884701 -0.31692144 1.145838
-0.30453911 -0.31663999 1.1448205
-0.30023891 -0.3163591 1.1438049
-0.29594627 -0.31607866 1.1427909
-0.29166123 -0.31579873 1.1417788
-0.28738379 -0.31551927 1.1407684
-0.28311396 -0.31524035 1.13976
-0.27885166 -0.31496194 1.1387534
-0.27459681 -0.31468391 1.1377482
-0.27034953 -0.31440651 1.1367452
-0.26610979 -0.31412962 1.1357441
-0.26290369 -0.31508306 1.1391913
-0.26088277 -0.31750849 1.1479605
-0.25883052 -0.31997159 1.156866
-0.25674617 -0.32247317 1.1659105
-0.25462899 -0.32501423 1.1750977
-0.25247812 -0.32759559 1.1844307
-0.2502929 -0.33021834 1.1939133
-0.36959562 -0.31650454 1.1590962
-0.36518347 -0.31622031 1.1580554
-0.36077926 -0.31593665 1.1570165
-0.35638291 -0.31565344 1.1559794
-0.35199445 -0.31537077 1.1549442
-0.34761384 -0.31508857 1.1539108
-0.34324092 -0.31480676 1.1528786
-0.33887571 -0.31452537 1.1518482
-0.33451849 -0.31424466 1.1508201
-0.33016902 -0.31396443 1.1497939
-0.3258273 -0.31368467 1.1487694
-0.3214933 -0.31340539 1.1477467
-0.31716678 -0.31312644 1.1467251
-0.31284821 -0.31284821 1.1457062
-0.30853727 -0.31257042 1.1446888
-0.30423394 -0.31229311 1.1436733
-0.29993829 -0.31201634 1.1426597
-0.29565024 -0.31174004 1.1416478
-0.29136977 -0.31146422 1.1406378
-0.28709683 -0.31118888 1.1396294
-0.28283149 -0.31091404 1.1386229
-0.27857363 -0.31063968 1.1376181
-0.27432334 -0.31036583 1.1366152
-0.27008048 -0.31009242 1.1356139
-0.26584521 -0.30981961 1.1346148
-0.26294398 -0.31111693 1.1393659
-0.26092309 -0.31351224 1.1481379
-0.25887081 -0.31594467 1.157046
-0.25678647 -0.31841519 1.1660935
-0.25466922 -0.32092464 1.1752834
-0.25251839 -0.32347396 1.1846195
-0.25033307 -0.32606408 1.194105
-0.24811251 -0.32869607 1.2037438
-0.36481324 -0.31182361 1.1568813
-0.36041379 -0.31154412 1.1558444
-0.35602224 -0.31126517 1.1548095
-0.35163853 -0.31098667 1.1537763
-0.34726268 -0.3107087 1.152745
-0.34289399 -0.31043065 1.1517134
-0.33853403 -0.31015393 1.1506867
-0.33418149 -0.30987737 1.1496607
-0.32983667 -0.30960131 1.1486365
-0.32549962 -0.30932572 1.1476141
-0.32117027 -0.30905062 1.1465935
-0.31684861 -0.30877602 1.1455747
-0.31253445 -0.30850175 1.1445571
-0.30822814 -0.30822814 1.1435419
-0.30392939 -0.30795494 1.1425284
-0.2996383 -0.30768228 1.1415168
-0.29535478 -0.30741009 1.140507
-0.29107884 -0.30713835 1.1394988
-0.28681043 -0.30686709 1.1384925
-0.28254959 -0.30659637 1.137488
-0.27829626 -0.30632609 1.1364853
-0.27405041 -0.30605629 1.1354843
-0.26981202 -0.30578697 1.1344851
-0.26558113 -0.30551812 1.1334877
-0.26298431 -0.30714959 1.1395406
-0.26096338 -0.3095147 1.1483152
-0.2589111 -0.31191653 1.1572261
-0.25682673 -0.31435591 1.1662763
-0.25470948 -0.31683376 1.1754693
-0.25255862 -0.31935096 1.1848083
-0.25037327 -0.3219085 1.1942968
-0.24815269 -0.32450736 1.2039387
-0.24589594 -0.3271485 1.2137375
-0.36004907 -0.3071605 1.1546748
-0.35566226 -0.30688572 1.1536418
-0.35128331 -0.30661145 1.1526108
-0.34691218 -0.30633765 1.1515815
-0.3425484 -0.30606395 1.1505526
-0.33819303 -0.30579129 1.1495277
-0.33384514 -0.3055189 1.1485037
-0.329505 -0.30524698 1.1474814
-0.3251726 -0.30497554 1.1464611
-0.3208479 -0.30470461 1.1454426
-0.31653085 -0.30443415 1.1444259
-0.31222141 -0.30416408 1.1434107
-0.30791959 -0.30389452 1.1423973
-0.30362543 -0.30362543 1.1413858
-0.29933891 -0.30335686 1.1403762
-0.29505992 -0.30308875 1.1393683
-0.2907885 -0.30282113 1.1383623
-0.28652462 -0.30255398 1.137358
-0.28226829 -0.30228731 1.1363555
-0.2780194 -0.30202106 1.1353546
-0.27377802 -0.30175534 1.1343558
-0.26954409 -0.30149004 1.1333585
-0.26601517 -0.30201721 1.1353402
-0.26302457 -0.30318099 1.1397151
-0.26100367 -0.30551592 1.1484925
-0.2589514 -0.30788711 1.1574062
-0.25686699 -0.31029534 1.1664592
-0.25474975 -0.31274155 1.175655
-0.25259885 -0.31522667 1.1849971
-0.25041351 -0.31775159 1.1944886
-0.24819286 -0.32031727 1.2041336
-0.24593605 -0.32292473 1.2139355
-0.35530302 -0.30251512 1.1524765
-0.35092881 -0.30224505 1.1514477
-0.34656239 -0.30197543 1.1504204
-0.3422038 -0.30170631 1.1493952
-0.33785269 -0.30143744 1.1483709
-0.33350947 -0.30116916 1.1473489
-0.32917401 -0.30090141 1.1463288
-0.32484627 -0.30063412 1.1453105
-0.32052618 -0.3003673 1.144294
-0.31621373 -0.30010095 1.1432793
-0.31190896 -0.29983506 1.1422664
-0.30761185 -0.2995697 1.1412555
-0.30332211 -0.2993046 1.1402456
-0.29904011 -0.29904011 1.1392379
-0.29476565 -0.29877606 1.138232
-0.29049876 -0.29851252 1.137228
-0.28623939 -0.29824942 1.1362257
-0.28198752 -0.29798681 1.1352252
-0.2777431 -0.2977246 1.1342263
-0.27350616 -0.29746291 1.1332294
-0.27010432 -0.29811513 1.1357141
-0.26702741 -0.299151 1.1396604
-0.26392904 -0.30019408 1.1436342
-0.26104397 -0.30151591 1.1486698
-0.25899169 -0.30385637 1.1575862
-0.25690728 -0.3062335 1.1666422
-0.25479001 -0.30864805 1.1758409
-0.25263909 -0.31110102 1.1851858
-0.25045371 -0.3135933 1.1946805
-0.24823304 -0.31612584 1.2043285
-0.24597618 -0.31869957 1.2141336
-0.35057503 -0.29788744 1.1502868
-0.34621337 -0.29762203 1.1492618
-0.34185946 -0.29735705 1.1482387
-0.33751303 -0.29709229 1.1472163
-0.3331745 -0.29682818 1.1461965
-0.32884368 -0.29656455 1.1451784
-0.32452056 -0.29630136 1.1441622
-0.32020506 -0.29603866 1.1431477
-0.31589726 -0.2957764 1.142135
-0.31159708 -0.29551464 1.1411242
-0.30730447 -0.29525331 1.1401151
-0.30301937 -0.29499236 1.1391075
-0.29874188 -0.29473194 1.1381018
-0.29447195 -0.29447195 1.137098
-0.29020956 -0.29421246 1.1360959
-0.28595471 -0.29395345 1.1350957
-0.28170729 -0.29369482 1.1340971
-0.27746734 -0.29343671 1.1331003
-0.27419618 -0.29421049 1.1360883
-0.27113244 -0.2952331 1.1400371
-0.26804736 -0.29626286 1.1440135
-0.26494071 -0.29729986 1.1480179
-0.26181221 -0.29834414 1.1520503
-0.25903198 -0.29982442 1.1577663
-0.25694755 -0.30217034 1.1668251
-0.25483027 -0.30455327 1.1760267
-0.25267935 -0.30697408 1.1853746
-0.25049391 -0.30943367 1.1948723
-0.24827321 -0.31193301 1.2045234
-0.24601632 -0.31447303 1.2143317
-0.34586498 -0.29327732 1.1481054
-0.34151575 -0.29301649 1.1470842
-0.33717406 -0.2927559 1.1460642
-0.33284017 -0.29249591 1.1450464
-0.32851401 -0.29223639 1.1440303
-0.32419547 -0.29197729 1.1430161
-0.31988466 -0.29171872 1.1420038
-0.31558141 -0.29146054 1.1409931
-0.31128579 -0.29120284 1.1399843
-0.30699775 -0.29094559 1.1389772
-0.30271715 -0.29068866 1.1379714
-0.29844427 -0.29043236 1.136968
-0.29417887 -0.29017645 1.1359662
-0.28992099 -0.28992099 1.1349661
-0.28567055 -0.28966594 1.1339678
-0.28142765 -0.2894114 1.1329713
-0.27829069 -0.29030323 1.1364626
-0.27524018 -0.29131261 1.140414
-0.27216843 -0.29232904 1.1443931
-0.26907519 -0.29335263 1.1484002
-0.26596013 -0.29438335 1.1524352
-0.26282319 -0.29542142 1.1564989
-0.25966397 -0.29646674 1.1605911
-0.25698787 -0.29810593 1.167008
-0.25487056 -0.30045715 1.1762125
-0.25271958 -0.30284578 1.1855634
-0.25053415 -0.3052727 1.1950642
-0.24831341 -0.30773884 1.2047185
-0.24605647 -0.3102451 1.2145299
-0.34117278 -0.28868467 1.1459322
-0.33683577 -0.28842825 1.1449144
-0.33250657 -0.28817233 1.1438986
-0.32818499 -0.2879169 1.1428846
-0.32387111 -0.28766191 1.1418724
-0.31956482 -0.28740737 1.140862
-0.31526616 -0.28715327 1.1398534
-0.3109751 -0.28689963 1.1388465
-0.30669162 -0.28664643 1.1378415
-0.3024157 -0.28639367 1.1368382
-0.29814729 -0.28614137 1.1358366
-0.29388636 -0.28588945 1.1348367
-0.28963295 -0.285638 1.1338385
-0.28540415 -0.28540415 1.1329103
-0.28238791 -0.2863934 1.1368371
-0.2793507 -0.28738955 1.1407913
-0.2762922 -0.2883926 1.1447729
-0.27321237 -0.28940272 1.1487826
-0.27011085 -0.29041994 1.1528203
-0.26698747 -0.29144433 1.1568867
-0.26384199 -0.292476 1.1609819
-0.26067412 -0.29351497 1.1651061
-0.25748369 -0.29456133 1.1692597
-0.25491086 -0.29635978 1.1763985
-0.25275987 -0.29871622 1.1857524
-0.25057441 -0.30111042 1.1952562
-0.2483536 -0.3035433 1.2049135
-0.34083045 -0.28436151 1.1447824
-0.33649814 -0.28410921 1.1437668
-0.33217359 -0.28385743 1.1427531
-0.32785666 -0.28360605 1.1417412
-0.32354736 -0.28335515 1.140731
-0.31924567 -0.28310466 1.1397226
-0.31495157 -0.28285459 1.1387159
-0.3106651 -0.28260502 1.1377112
-0.30638614 -0.28235587 1.1367081
-0.3021147 -0.28210711 1.1357067
-0.29785085 -0.28185883 1.1347072
-0.29359445 -0.281611 1.1337094
-0.28949091 -0.28150496 1.1332825
-0.28648782 -0.28248101 1.1372119
-0.28346387 -0.28346387 1.1411687
-0.28041875 -0.28445357 1.145153
-0.27735233 -0.28545022 1.1491654
-0.27426434 -0.28645387 1.1532059
-0.27115455 -0.28746459 1.1572748
-0.26802278 -0.28848252 1.1613728
-0.26486871 -0.28950766 1.1654998
-0.26169214 -0.2905401 1.1696562
-0.25849283 -0.29157993 1.1738423
-0.25527054 -0.29262722 1.1780585
-0.25280014 -0.29458529 1.1859413
-0.25061464 -0.29694676 1.1954482
-0.24839383 -0.29934642 1.2051086
-0.33616129 -0.27979892 1.1426218
-0.33184126 -0.27955112 1.1416098
-0.32752895 -0.27930382 1.1406
-0.32322422 -0.27905694 1.1395917
-0.31892714 -0.27881053 1.1385854
-0.3146376 -0.27856451 1.1375808
-0.31035569 -0.27831897 1.1365781
-0.30608127 -0.27807382 1.135577
-0.30181432 -0.27782908 1.1345775
-0.29755744 -0.27758715 1.1335895
-0.29358032 -0.27760318 1.133655
-0.29059044 -0.278566 1.1375868
-0.28757977 -0.27953559 1.1415464
-0.28454804 -0.28051192 1.1455334
-0.28149503 -0.28149503 1.1495483
-0.2784206 -0.28248513 1.1535915
-0.27532446 -0.28348222 1.1576633
-0.2722064 -0.28448638 1.161764
-0.2690661 -0.28549761 1.1658937
-0.26590344 -0.2865161 1.1700529
-0.26271811 -0.2875419 1.1742419
-0.25950995 -0.28857505 1.1784611
-0.25627857 -0.28961563 1.1827105
-0.25302389 -0.29066381 1.186991
-0.25065494 -0.2927818 1.1956403
-0.24843408 -0.29514816 1.2053039
-0.33356056 -0.27695635 1.1475246
-0.3293317 -0.27680025 1.1468779
-0.32510754 -0.27664432 1.1462318
-0.32088819 -0.27648857 1.1455865
-0.31667361 -0.276333 1.1449419
-0.31246373 -0.27617761 1.1442981
-0.30825859 -0.2760224 1.1436549
-0.30405819 -0.27586737 1.1430126
-0.2998625 -0.27571249 1.1423709
-0.29567149 -0.27555779 1.14173
-0.29169923 -0.27560547 1.1419275
-0.28868073 -0.27656823 1.1459166
-0.28564104 -0.27753776 1.1499336
-0.28257996 -0.27851409 1.1539788
-0.27949733 -0.27949733 1.1580528
-0.27639282 -0.28048754 1.1621555
-0.27326635 -0.28148487 1.1662879
-0.27011761 -0.28248939 1.17045
-0.26694632 -0.28350112 1.1746418
-0.26375222 -0.28452012 1.1788639
-0.26053506 -0.28554642 1.1831162
-0.25729463 -0.2865802 1.1873995
-0.25403064 -0.28762147 1.1917139
-0.25074285 -0.28867033 1.1960597
-0.24847433 -0.29094857 1.2054992
-0.33191308 -0.27489734 1.1558675
-0.32765436 -0.27474123 1.1552111
-0.32340047 -0.27458531 1.1545554
-0.31915146 -0.27442962 1.1539007
-0.31490725 -0.27427408 1.1532468
-0.3106679 -0.27411872 1.1525936
-0.30643329 -0.27396354 1.1519411
-0.30220351 -0.27380854 1.1512893
-0.29797849 -0.27365372 1.1506383
-0.29375824 -0.27349907 1.1499881
-0.28979045 -0.27357838 1.1503216
-0.28674296 -0.27454114 1.1543697
-0.28367394 -0.27551067 1.1584463
-0.2805832 -0.27648708 1.1625519
-0.27747041 -0.27747041 1.1666865
-0.27433547 -0.27846083 1.1708509
-0.27117804 -0.27945828 1.1750449
-0.26799792 -0.28046292 1.1792692
-0.26479483 -0.2814748 1.1835239
-0.26156852 -0.28249401 1.1878093
-0.25831881 -0.28352064 1.192126
-0.25504547 -0.28455487 1.1964747
-0.2517482 -0.2855967 1.2008553
-0.24851458 -0.28674757 1.2056944
-0.3302415 -0.27280819 1.1643325
-0.32595256 -0.27265215 1.1636665
-0.32166848 -0.27249622 1.1630011
-0.31738934 -0.27234054 1.1623366
-0.31311515 -0.27218506 1.1616731
-0.30884582 -0.27202979 1.1610103
-0.30458137 -0.27187464 1.1603482
-0.30032179 -0.27171969 1.1596869
-0.29606703 -0.27156493 1.1590264
-0.29181713 -0.27141035 1.1583666
-0.28785339 -0.27152127 1.1588401
-0.28477642 -0.27248392 1.1629485
-0.28167751 -0.27345335 1.167086
-0.27855647 -0.27442971 1.1712531
-0.2754131 -0.2754131 1.1754501
-0.27224708 -0.27640352 1.1796772
-0.26905823 -0.27740112 1.1839349
-0.26584628 -0.27840593 1.1882235
-0.26261097 -0.27941805 1.1925431
-0.25935203 -0.28043756 1.1968943
-0.25606924 -0.28146455 1.2012774
-0.25276235 -0.28249907 1.2056928
-0.32854521 -0.27068818 1.1729224
-0.3242256 -0.27053219 1.1722465
-0.31991097 -0.27037638 1.1715713
-0.31560129 -0.27022073 1.1708968
-0.31129658 -0.27006525 1.1702231
-0.30699694 -0.26991007 1.1695507
-0.30270222 -0.26975504 1.1688789
-0.29841241 -0.26960018 1.1682079
-0.29412749 -0.26944548 1.1675376
-0.28984752 -0.26929098 1.1668681
-0.28588748 -0.2694335 1.1674857
-0.28278041 -0.27039585 1.1716557
-0.27965105 -0.27136511 1.1758555
-0.27649918 -0.27234131 1.1800855
-0.27332458 -0.27332458 1.1843462
-0.27012697 -0.274315 1.1886377
-0.26690608 -0.27531257 1.1929604
-0.26366171 -0.27631748 1.1973147
-0.26039353 -0.27732971 1.2017008
-0.25710136 -0.2783494 1.2061193
-0.32247305 -0.26838079 1.180954
-0.31812739 -0.26822507 1.1802688
-0.31378675 -0.26806948 1.1795841
-0.30945122 -0.26791415 1.1789006
-0.30512065 -0.26775894 1.1782176
-0.30079523 -0.26760402 1.177536
-0.29647478 -0.26744929 1.1768551
-0.29215929 -0.26729468 1.1761748
-0.2878488 -0.26714024 1.1754953
-0.28389198 -0.26731434 1.1762613
-0.28075427 -0.2682763 1.1804942
-0.27759394 -0.26924524 1.1847578
-0.27441067 -0.2702212 1.1890523
-0.27120423 -0.27120423 1.193378
-0.26797441 -0.27219447 1.1977353
-0.26472092 -0.27319196 1.2021246
-0.26144347 -0.2741968 1.2065462
-0.32069424 -0.26619717 1.1897918
-0.31631711 -0.26604155 1.1890962
-0.31194511 -0.2658861 1.1884015
-0.30757824 -0.26573086 1.1877075
-0.30321646 -0.2655758 1.1870145
-0.29885975 -0.26542091 1.1863222
-0.29450822 -0.26526627 1.185631
-0.29016176 -0.2651118 1.1849407
-0.28582031 -0.26495752 1.1842511
-0.28186622 -0.26516303 1.1851697
-0.27869734 -0.26612455 1.1894672
-0.27550539 -0.26709303 1.1937959
-0.27229017 -0.26806861 1.1981564
-0.26905131 -0.26905131 1.2025486
-0.26578864 -0.27004126 1.2069733
-0.31888857 -0.26398063 1.1987629
-0.31447956 -0.26382512 1.1980568
-0.31007573 -0.26366982 1.1973516
-0.30567706 -0.26351473 1.1966472
-0.3012836 -0.26335979 1.1959436
-0.29689527 -0.26320502 1.1952409
-0.29251209 -0.26305044 1.1945388
-0.28813416 -0.26289612 1.1938381
-0.28376135 -0.26274198 1.1931381
-0.27980956 -0.26297894 1.1942141
-0.27660891 -0.2639398 1.1985775
-0.27338478 -0.26490772 1.202973
-0.27013689 -0.26588279 1.2074008
-0.31705549 -0.26173037 1.2078702
-0.31261408 -0.26157504 1.2071534
-0.30817795 -0.26141992 1.2064375
-0.30374706 -0.26126495 1.2057223
-0.29932141 -0.26111019 1.205008
-0.29490104 -0.2609556 1.2042947
-0.29048586 -0.26080117 1.203582
-0.28607592 -0.26064694 1.2028702
-0.28167126 -0.26049295 1.2021596
-0.27772129 -0.26076123 1.2033976
-0.27448827 -0.26172137 1.2078286
-0.31519437 -0.25944573 1.2171172
