# .PCD v0.7 - Point Cloud Data file format
VERSION 0.7
FIELDS x y z
SIZE 4 4 4
TYPE F F F
COUNT 1 1 1
WIDTH 831
HEIGHT 1
VIEWPOINT 0 0 0 1 0 0 0
POINTS 831
DATA ascii
-0.32487518 -0.31626919 1.2212676
-0.32016057 -0.31586313 1.2196995
-0.34252802 -0.31634754 1.2384193
-0.33549857 -0.3138535 1.2286558
-0.32857955 -0.31139892 1.2190467
-0.32389984 -0.31102964 1.2176012
-0.32032859 -0.31172916 1.2203395
-0.3167417 -0.31243232 1.2230922
-0.31313831 -0.31313831 1.2258559
-0.30951849 -0.31384742 1.228632
-0.30588228 -0.31455979 1.2314208
-0.30222952 -0.3152754 1.2342222
-0.29856011 -0.31599426 1.2370363
-0.29487389 -0.31671643 1.2398634
-0.29117084 -0.31744188 1.2427034
-0.34625128 -0.3114084 1.2361339
-0.33920538 -0.30895776 1.2264062
-0.33227107 -0.30654684 1.2168361
-0.32762644 -0.30621293 1.2155106
-0.32406962 -0.30690038 1.2182394
-0.32049662 -0.30759072 1.2209797
-0.31690884 -0.30828544 1.2237375
-0.31330383 -0.3089824 1.226504
-0.30968252 -0.30968252 1.2292831
-0.30604473 -0.31038579 1.2320747
-0.3023904 -0.31109229 1.2348791
-0.29871941 -0.311802 1.2376964
-0.2950314 -0.31251475 1.2405256
-0.29132646 -0.31323072 1.2433677
-0.28760478 -0.31395024 1.2462238
-0.34996083 -0.30648744 1.233857
-0.3428992 -0.30408043 1.2241669
-0.33594924 -0.30171239 1.2146336
-0.33134022 -0.30141273 1.2134272
-0.32779786 -0.3020882 1.2161466
-0.32423958 -0.30276674 1.2188783
-0.32066599 -0.30344903 1.221625
-0.31707498 -0.30413315 1.2243791
-0.31346956 -0.30482215 1.2271528
-0.30984673 -0.3055132 1.2299349
-0.30620739 -0.30620739 1.2327296
-0.30255148 -0.30690473 1.2355369
-0.29887807 -0.30760443 1.2383538
-0.29518935 -0.30830887 1.2411897
-0.29148236 -0.30901513 1.244033
-0.28775904 -0.30972534 1.2468922
-0.28401849 -0.31043881 1.2497644
-0.35365674 -0.30158457 1.2315884
-0.34658012 -0.29922137 1.2219377
-0.33961412 -0.29689535 1.2124389
-0.33504131 -0.29662892 1.2113509
-0.33151329 -0.29729256 1.214061
-0.32796946 -0.29795918 1.2167833
-0.32441097 -0.29862997 1.2195226
-0.32083577 -0.29930317 1.2222718
-0.31724221 -0.29997733 1.2250248
-0.3136355 -0.30065748 1.2278024
-0.31001109 -0.30133945 1.2305874
-0.3063702 -0.30202451 1.233385
-0.30271143 -0.30271143 1.2361902
-0.29903802 -0.30340353 1.2390165
-0.29534635 -0.30409735 1.2418499
-0.29163837 -0.304795 1.2446989
-0.28791341 -0.30549592 1.2475612
-0.28417125 -0.30620003 1.2504367
-0.28041181 -0.30690742 1.2533255
-0.35733968 -0.29670021 1.2293302
-0.35024771 -0.29437998 1.2197167
-0.3432658 -0.29209575 1.2102523
-0.33872977 -0.2918615 1.2092818
-0.33521602 -0.29251334 1.2119826
-0.33168656 -0.29316813 1.2146956
-0.32814124 -0.29382581 1.2174206
-0.32458091 -0.29448733 1.2201614
-0.32512408 -0.29893959 1.2386087
-0.31944013 -0.29770949 1.233512
-0.31379971 -0.29648662 1.2284452
-0.3101747 -0.29716039 1.2312368
-0.30653182 -0.29783586 1.2340356
-0.30287254 -0.29851466 1.2368481
-0.29919785 -0.29919785 1.2396787
-0.29550418 -0.29988202 1.2425135
-0.29179463 -0.3005704 1.2453657
-0.288068 -0.30126196 1.2482311
-0.2843242 -0.30195668 1.2511096
-0.28056309 -0.30265465 1.2540015
-0.27678451 -0.30335581 1.2569066
-0.36823067 -0.29414877 1.2368144
-0.36100969 -0.29183418 1.2270821
-0.35390195 -0.28955615 1.2175037
-0.34690431 -0.2873134 1.2080735
-0.34240562 -0.2871103 1.2072196
-0.3389062 -0.28775054 1.2099116
-0.33539146 -0.28839394 1.2126169
-0.33186102 -0.28904024 1.2153344
-0.3283146 -0.28968936 1.2180638
-0.32982567 -0.29883534 1.2565202
-0.32355392 -0.29714134 1.2493974
-0.31735006 -0.29546383 1.2423439
-0.31119466 -0.29378515 1.2352855
-0.30669412 -0.2936433 1.234689
-0.30303496 -0.29431453 1.2375114
-0.2993564 -0.29498625 1.2403357
-0.29566219 -0.29566219 1.2431779
-0.29195103 -0.29634127 1.2460332
-0.28822273 -0.29702342 1.2489015
-0.28447729 -0.29770878 1.2517833
-0.28071445 -0.29839727 1.2546781
-0.27693424 -0.29908898 1.2575866
-0.36680359 -0.28866792 1.2320211
-0.35997593 -0.28668743 1.2235684
-0.35324138 -0.28473398 1.2152312
-0.34659809 -0.28280702 1.2070071
-0.34258381 -0.28300402 1.2078478
-0.33908314 -0.28363559 1.2105433
-0.33556673 -0.2842699 1.2132505
-0.33203399 -0.2849066 1.2159679
-0.33217096 -0.29650161 1.2654549
-0.3257314 -0.29470935 1.2578057
-0.31936643 -0.29293609 1.2502375
-0.31307992 -0.29118624 1.2427691
-0.30685923 -0.28944877 1.2353537
-0.30319554 -0.29010797 1.2381672
-0.2995162 -0.29077119 1.2409978
-0.29582039 -0.29143786 1.2438431
-0.29210758 -0.29210758 1.2467014
-0.28837764 -0.29278034 1.2495728
-0.28463051 -0.29345626 1.2524575
-0.28086603 -0.2941353 1.2553556
-0.27708411 -0.29481748 1.2582672
-0.27328458 -0.29550284 1.2611922
-0.36702102 -0.28449559 1.2327514
-0.36018789 -0.28254259 1.2242888
-0.35344791 -0.28061622 1.2159417
-0.34679976 -0.27871639 1.2077094
-0.34276199 -0.27889329 1.2084761
-0.33925986 -0.27951598 1.2111742
-0.33574224 -0.28014159 1.2138851
-0.3322089 -0.28077009 1.2166084
-0.326985 -0.2913948 1.2626464
-0.32052726 -0.28957981 1.2547818
-0.31414652 -0.28778458 1.247003
-0.30783647 -0.2860041 1.239288
-0.30335671 -0.28589734 1.2388253
-0.29967615 -0.28655162 1.2416605
-0.29597872 -0.28720897 1.2445089
-0.29226425 -0.2878693 1.2473701
-0.28853273 -0.28853273 1.2502447
-0.28478393 -0.28919917 1.2531326
-0.28101778 -0.28986874 1.2560339
-0.27723414 -0.29054138 1.2589484
-0.27343294 -0.29121718 1.2618768
-0.26961395 -0.2918961 1.2648187
-0.3672387 -0.28031829 1.2334825
-0.36040002 -0.27839282 1.2250099
-0.35365468 -0.27649367 1.216653
-0.3470017 -0.27462098 1.2084126
-0.34294036 -0.27477831 1.2091049
-0.33943677 -0.27539212 1.2118058
-0.3359175 -0.27600864 1.2145188
-0.33238244 -0.27662799 1.217244
-0.32749566 -0.28739417 1.2646184
-0.32096821 -0.28555104 1.2565081
-0.31452706 -0.2837342 1.2485135
-0.30816552 -0.28193867 1.2406126
-0.30351943 -0.2816835 1.2394898
-0.29983777 -0.28232899 1.2423302
-0.29613724 -0.28297558 1.2451754
-0.29242116 -0.28362653 1.2480397
-0.28868797 -0.28428051 1.2509174
-0.2849375 -0.2849375 1.2538084
-0.28116968 -0.28559756 1.2567128
-0.27738434 -0.28626063 1.2596306
-0.27358142 -0.28692684 1.262562
-0.2697607 -0.28759614 1.2655071
-0.26592216 -0.28826857 1.268466
-0.36745661 -0.27613604 1.2342144
-0.36061242 -0.2742382 1.2257318
-0.3538619 -0.27236643 1.2173659
-0.34720385 -0.27052078 1.2091166
-0.34311891 -0.27065903 1.2097344
-0.33961391 -0.27126396 1.2124382
-0.33609322 -0.27187157 1.2151541
-0.33255669 -0.27248195 1.2178822
-0.32900485 -0.27309555 1.2206247
-0.32724905 -0.28272536 1.263666
-0.32067806 -0.28086975 1.2553722
-0.314192 -0.27903765 1.2471834
-0.30777842 -0.27721885 1.2390542
-0.30368087 -0.27746379 1.240149
-0.29999724 -0.27809966 1.242991
-0.29629675 -0.27873841 1.245846
-0.29257923 -0.27938017 1.2487144
-0.28884429 -0.28002462 1.2515948
-0.28509176 -0.28067175 1.2544872
-0.28132233 -0.28132233 1.257395
-0.27753469 -0.28197527 1.2603134
-0.27373004 -0.28263181 1.263248
-0.26990762 -0.28329146 1.2661963
-0.26606733 -0.2839542 1.2691585
-0.262209 -0.28462005 1.2721344
-0.3676748 -0.27194881 1.2349473
-0.36082509 -0.27007866 1.2264547
-0.35406959 -0.26823455 1.2180804
-0.34740624 -0.26641583 1.2098215
-0.34329763 -0.26653543 1.2103646
-0.33979121 -0.26713145 1.2130711
-0.33626905 -0.26773012 1.2157898
-0.33273175 -0.26833206 1.2185233
-0.32917616 -0.26893476 1.2212602
-0.33270857 -0.27911791 1.2675029
-0.32600498 -0.27721512 1.2588621
-0.31937882 -0.27532655 1.250286
-0.31284362 -0.27346471 1.2418311
-0.30751246 -0.27261743 1.2379836
-0.3038438 -0.27324083 1.2408144
-0.30015832 -0.27386707 1.2436583
-0.29645592 -0.2744962 1.2465153
-0.29273644 -0.27512825 1.2493854
-0.28899986 -0.27576321 1.2522689
-0.28524622 -0.27640137 1.2551668
-0.28147513 -0.27704245 1.258078
-0.27768627 -0.27768627 1.2610016
-0.27387965 -0.27833298 1.2639384
-0.270055 -0.27898243 1.2668877
-0.26621288 -0.27963537 1.2698528
-0.26235259 -0.2802912 1.272831
-0.25847429 -0.28095034 1.2758241
-0.36789331 -0.26775667 1.2356812
-0.36103797 -0.2659142 1.2271783
-0.35427752 -0.26409778 1.2187957
-0.34760886 -0.26230606 1.2105271
-0.34347656 -0.26240757 1.2109954
-0.33996871 -0.26299465 1.2137048
-0.33644512 -0.26358438 1.2164264
-0.33290541 -0.26417658 1.2191592
-0.32934991 -0.26477149 1.2219048
-0.32577845 -0.26536921 1.2246633
-0.32219097 -0.26596972 1.2274346
-0.3221778 -0.26957735 1.2440835
-0.31524026 -0.2674107 1.2340846
-0.31133065 -0.2677879 1.2358253
-0.30767584 -0.26839808 1.2386413
-0.30400562 -0.26901218 1.2414753
-0.30031863 -0.26962912 1.2443225
-0.29661468 -0.27024892 1.2471828
-0.29289365 -0.27087155 1.2500563
-0.28915542 -0.2714971 1.252943
-0.28539991 -0.27212551 1.2558432
-0.28162694 -0.27275679 1.2587565
-0.27783647 -0.27339107 1.2616837
-0.2740283 -0.2740283 1.2646245
-0.27020234 -0.27466848 1.2675788
-0.26635846 -0.27531168 1.2705472
-0.26249653 -0.27595791 1.2735294
-0.257974 -0.27592003 1.2733546
-0.25191769 -0.27421129 1.265469
-0.2459359 -0.27252358 1.2576802
-0.24002728 -0.27085647 1.2499866
-0.23471187 -0.26980898 1.2451525
-0.23087308 -0.27045131 1.2481169
-0.368112 -0.26355949 1.2364157
-0.36125147 -0.26174507 1.227904
-0.35448566 -0.25995615 1.2195117
-0.34781176 -0.25819156 1.2112336
-0.34365568 -0.25827539 1.2116269
-0.34014636 -0.25885352 1.214339
-0.33662179 -0.25943464 1.2170652
-0.3330805 -0.26001766 1.2198004
-0.32952335 -0.26060346 1.2225484
-0.32595056 -0.26119217 1.2253102
-0.3223615 -0.26178348 1.2280842
-0.31875619 -0.26237756 1.2308711
-0.31513461 -0.26297441 1.2336711
-0.31149641 -0.26357388 1.2364833
-0.30784014 -0.26417488 1.2393028
-0.3041684 -0.26477969 1.2421401
-0.30047977 -0.26538724 1.2449902
-0.29677418 -0.26599759 1.2478535
-0.29305151 -0.26661077 1.25073
-0.28931168 -0.26722682 1.25362
-0.28555444 -0.26784566 1.2565231
-0.28177983 -0.2684674 1.2594398
-0.27798763 -0.26909202 1.2623701
-0.27417773 -0.26971957 1.2653141
-0.27035001 -0.27035001 1.2682717
-0.26650441 -0.27098346 1.2712433
-0.26208067 -0.27104071 1.2715118
-0.25600764 -0.26936457 1.2636487
-0.25000927 -0.26770905 1.2558823
-0.24408419 -0.26607376 1.2482108
-0.23866463 -0.26493964 1.2428904
-0.2348422 -0.26556921 1.2458439
-0.23100159 -0.26620182 1.2488116
-0.22714262 -0.26683745 1.2517934
-0.36833099 -0.2593573 1.2371513
-0.36146531 -0.25757107 1.2286308
-0.35469407 -0.25580966 1.2202287
-0.34801483 -0.25407216 1.2119408
-0.34383497 -0.25413889 1.2122591
-0.34032428 -0.25470811 1.2149743
-0.33679789 -0.25527993 1.2177019
-0.33325502 -0.25585386 1.2204396
-0.32969704 -0.25643104 1.2231927
-0.3261227 -0.25701061 1.2259573
-0.32253215 -0.2575928 1.2287344
-0.31892532 -0.25817764 1.2315241
-0.31530246 -0.25876549 1.2343282
-0.31166238 -0.2593554 1.2371421
-0.30800468 -0.25994721 1.2399651
-0.30433133 -0.26054263 1.2428054
-0.30064106 -0.26114079 1.2456585
-0.29693389 -0.26174173 1.248525
-0.29320958 -0.2623454 1.2514046
-0.28946805 -0.26295188 1.2542976
-0.28570917 -0.26356116 1.2572039
-0.28193286 -0.2641733 1.2601238
-0.27813897 -0.2647883 1.2630574
-0.27432734 -0.26540613 1.2660044
-0.27049789 -0.26602685 1.2689654
-0.26617545 -0.26617545 1.2696742
-0.26008588 -0.26453179 1.2618338
-0.25407103 -0.26290828 1.2540896
-0.24812956 -0.26130459 1.2464398
-0.24260303 -0.26008794 1.2406363
-0.23879689 -0.26070487 1.2435791
-0.23497267 -0.26132473 1.246536
-0.23113023 -0.2619476 1.2495071
-0.22726941 -0.26257339 1.2524922
-0.36855021 -0.25515014 1.2378876
-0.3616794 -0.25339216 1.2293586
-0.35490271 -0.25165829 1.2209466
-0.3482182 -0.24994802 1.212649
-0.34401444 -0.24999808 1.2128918
-0.34050214 -0.25055817 1.2156092
-0.33697432 -0.25112101 1.2183398
-0.33343059 -0.2516863 1.2210824
-0.32987085 -0.25225416 1.2238375
-0.32629499 -0.25282457 1.2266049
-0.32270294 -0.25339761 1.229385
-0.31909457 -0.25397325 1.2321777
-0.31547046 -0.25455204 1.2349858
-0.31182852 -0.25513244 1.2378017
-0.30816936 -0.25571501 1.2406281
-0.30449441 -0.25630105 1.2434714
-0.30080259 -0.25688979 1.2463278
-0.29709375 -0.25748125 1.2491972
-0.2933678 -0.25807545 1.25208
-0.2896246 -0.25867236 1.254976
-0.28586408 -0.25927207 1.2578856
-0.28208604 -0.25987455 1.2608086
-0.27829042 -0.26047984 1.2637452
-0.27447709 -0.26108798 1.2666956
-0.27025843 -0.26132426 1.2678419
-0.26415238 -0.25971282 1.260024
-0.25812119 -0.25812119 1.2523019
-0.25216353 -0.25654897 1.2446742
-0.24652718 -0.25525382 1.2383906
-0.24273725 -0.25585818 1.2413228
-0.23892933 -0.25646544 1.2442689
-0.23510329 -0.25707555 1.247229
-0.231259 -0.25768861 1.2502033
-0.22739634 -0.2583046 1.2531917
-0.22351518 -0.25892353 1.2561946
-0.36877003 -0.25093821 1.238626
-0.36189377 -0.24920827 1.2300872
-0.35511163 -0.24750206 1.2216653
-0.34842175 -0.24581903 1.2133579
-0.34419414 -0.24585296 1.2135254
-0.3406806 -0.24640422 1.2162464
-0.33715129 -0.24695796 1.2189796
-0.33360609 -0.2475142 1.2217252
-0.33004487 -0.24807294 1.2244831
-0.32646751 -0.2486342 1.2272536
-0.32287395 -0.24919802 1.2300365
-0.31926405 -0.24976441 1.2328322
-0.31563824 -0.25033379 1.2356427
-0.31199491 -0.25090498 1.2384621
-0.30833423 -0.25147825 1.2412918
-0.3046577 -0.25205493 1.2441381
-0.30096427 -0.25263423 1.2469976
-0.29725376 -0.25321618 1.2498701
-0.2935262 -0.25380084 1.252756
-0.28978133 -0.25438821 1.2556552
-0.28601915 -0.2549783 1.2585679
-0.28223941 -0.25557113 1.261494
-0.27844208 -0.25616673 1.2644339
-0.2743296 -0.25648704 1.2660149
-0.26820725 -0.25490773 1.2582195
-0.26215985 -0.25334775 1.2505195
-0.25618607 -0.25180683 1.2429135
-0.25043717 -0.25043717 1.2361529
-0.24666333 -0.25102904 1.2390745
-0.2428716 -0.25162372 1.2420098
-0.23906191 -0.25222126 1.2449592
-0.23523405 -0.25282165 1.2479227
-0.23138794 -0.25342488 1.2509003
-0.22752345 -0.25403103 1.2538922
-0.2236404 -0.25464004 1.2568983
-0.21973869 -0.255252 1.2599189
-0.36395365 -0.24626805 1.2370888
-0.35719231 -0.2446226 1.2288232
-0.35052067 -0.24299899 1.2206672
-0.34437418 -0.24170361 1.2141601
-0.3408592 -0.24224584 1.2168839
-0.3373284 -0.24279052 1.21962
-0.33378175 -0.24333766 1.2223685
-0.33021906 -0.24388728 1.2251294
-0.32664022 -0.24443938 1.2279028
-0.32304513 -0.24499397 1.2306887
-0.31943375 -0.24555111 1.2334874
-0.31580597 -0.24611087 1.2362993
-0.31216148 -0.24667306 1.2391233
-0.30849928 -0.24723701 1.2419562
-0.30482113 -0.24780422 1.2448056
-0.30112606 -0.24837406 1.247668
-0.29741398 -0.24894652 1.2505437
-0.29368475 -0.24952164 1.2534328
-0.28993827 -0.25009942 1.2563351
-0.28617436 -0.25067985 1.2592509
-0.28239295 -0.25126302 1.2621803
-0.2783891 -0.25166374 1.2641933
-0.27225053 -0.25011635 1.2564201
-0.26618698 -0.24858785 1.248742
-0.26019728 -0.24707808 1.2411579
-0.25433302 -0.24563786 1.2339232
-0.25057518 -0.24621736 1.2368342
-0.24679962 -0.24679962 1.2397591
-0.24300613 -0.24738461 1.2426977
-0.23919462 -0.24797241 1.2456504
-0.23536494 -0.24856298 1.2486171
-0.231517 -0.2491564 1.251598
-0.22765066 -0.24975267 1.2545933
-0.22376575 -0.25035179 1.2576028
-0.21986215 -0.25095376 1.2606268
-0.36028218 -0.24237165 1.2394531
-0.35353252 -0.24074915 1.2311559
-0.34687266 -0.23914824 1.2229691
-0.34103799 -0.23808314 1.2175223
-0.33750576 -0.23861873 1.2202612
-0.33395761 -0.23915675 1.2230126
-0.33039343 -0.23969719 1.2257763
-0.32681307 -0.24024008 1.2285526
-0.3232165 -0.24078545 1.2313415
-0.31960356 -0.24133331 1.2341431
-0.31597394 -0.24188349 1.2369567
-0.31232801 -0.24243642 1.2397844
-0.30866447 -0.24299118 1.2426213
-0.30498475 -0.24354897 1.2454737
-0.30128807 -0.24410932 1.2483393
-0.29757437 -0.24467225 1.2512181
-0.29384351 -0.24523781 1.2541102
-0.29009533 -0.24580596 1.2570157
-0.28632975 -0.24637677 1.2599347
-0.28243688 -0.24685429 1.2623767
-0.27628225 -0.24533865 1.2546259
-0.27020276 -0.2438415 1.2469697
-0.26419714 -0.24236266 1.2394072
-0.25826401 -0.24090172 1.2319361
-0.25447297 -0.24142307 1.2346022
-0.25071341 -0.24199294 1.2375164
-0.24693605 -0.2425655 1.2404444
-0.24314079 -0.24314079 1.2433864
-0.23932748 -0.24371882 1.2463423
-0.23549601 -0.24429961 1.2493124
-0.23164625 -0.24488318 1.2522967
-0.22777802 -0.24546953 1.2552952
-0.22389123 -0.24605869 1.2583081
-0.21998583 -0.24665079 1.261336
-0.36342525 -0.24008092 1.250266
-0.35659662 -0.23846032 1.2418264
-0.34985888 -0.23686098 1.2334975
-0.34321088 -0.23528293 1.2252796
-0.33768329 -0.23444253 1.220903
-0.33413365 -0.2349714 1.2236573
-0.33056799 -0.23550269 1.226424
-0.32698616 -0.23603638 1.2292032
-0.32338807 -0.23657247 1.2319951
-0.31977355 -0.23711102 1.2347996
-0.31614229 -0.2376518 1.2376158
-0.31249452 -0.23819514 1.2404454
-0.30882984 -0.2387408 1.2432871
-0.30514854 -0.23928913 1.2461426
-0.30145025 -0.23983999 1.2490113
-0.29773495 -0.2403934 1.2518933
-0.29400241 -0.24094933 1.2547884
-0.2902526 -0.24150787 1.2576971
-0.2864731 -0.24205865 1.2605654
-0.28030249 -0.24057458 1.2528368
-0.27420709 -0.23910858 1.2452023
-0.26818573 -0.23766053 1.2376614
-0.26223689 -0.23622994 1.2302113
-0.25835666 -0.23664603 1.2323781
-0.25461304 -0.23720361 1.2352818
-0.25085175 -0.23776382 1.2381992
-0.24707264 -0.23832671 1.2411306
-0.2432756 -0.23889226 1.2440758
-0.2394605 -0.2394605 1.247035
-0.2356272 -0.24003145 1.2500083
-0.2317756 -0.24060515 1.252996
-0.22790554 -0.24118158 1.2559979
-0.22401695 -0.24176086 1.2590146
-0.22010969 -0.24234299 1.2620461
-0.35971332 -0.23613082 1.2526801
-0.35289681 -0.23453391 1.2442083
-0.34617117 -0.23295796 1.2358479
-0.33953524 -0.23140299 1.2275988
-0.33430991 -0.23078166 1.2243026
-0.33074272 -0.23130374 1.2270722
-0.32715937 -0.23182817 1.2298543
-0.32355976 -0.232355 1.2326492
-0.31994373 -0.23288421 1.2354567
-0.31631094 -0.23341565 1.238276
-0.3126615 -0.23394951 1.2411082
-0.30899543 -0.23448589 1.2439537
-0.30531254 -0.23502475 1.2468123
-0.30161265 -0.23556608 1.2496841
-0.29789564 -0.23610988 1.252569
-0.2941615 -0.23665623 1.2554674
-0.29041001 -0.23720512 1.2583792
-0.28431126 -0.23582408 1.2510527
-0.27820015 -0.2343891 1.2434402
-0.27216315 -0.23297165 1.2359205
-0.26619866 -0.23157121 1.2284912
-0.2622264 -0.23188616 1.230162
-0.25849864 -0.23243156 1.2330554
-0.25475329 -0.23297951 1.2359623
-0.25099024 -0.23353004 1.2388829
-0.24720939 -0.23408322 1.2418175
-0.24341057 -0.23463902 1.244766
-0.23959368 -0.23519747 1.2477286
-0.23575857 -0.23575857 1.2507052
-0.2319051 -0.23632234 1.2536961
-0.22803324 -0.2368889 1.2567017
-0.22414283 -0.23745826 1.2597221
-0.22023368 -0.23803034 1.2627571
-0.35598707 -0.23216549 1.2551037
-0.34918267 -0.23059233 1.2465991
-0.34246942 -0.22904006 1.2382075
-0.33584565 -0.22750834 1.2299268
-0.33091766 -0.22710034 1.2277212
-0.32733282 -0.22761555 1.2305064
-0.32373169 -0.22813307 1.2333041
-0.32011414 -0.22865295 1.2361147
-0.31647998 -0.22917517 1.2389379
-0.31282884 -0.22969949 1.2417724
-0.30916122 -0.23022643 1.244621
-0.30547667 -0.23075576 1.2474827
-0.30177516 -0.23128752 1.2503574
-0.29805657 -0.23182178 1.2532456
-0.29432076 -0.2323585 1.2561471
-0.28830865 -0.23108707 1.2492738
-0.28218192 -0.22968295 1.241683
-0.27612936 -0.22829594 1.2341846
-0.27014944 -0.22692552 1.2267761
-0.26608226 -0.22714339 1.2279539
-0.26237026 -0.22767667 1.2308369
-0.25864077 -0.22821245 1.2337333
-0.25489369 -0.22875075 1.2366434
-0.25112891 -0.22929162 1.2395674
-0.24734628 -0.22983505 1.2425052
-0.24354568 -0.23038106 1.2454569
-0.23972698 -0.23092966 1.2484227
-0.23589005 -0.23148088 1.2514027
-0.23203483 -0.23203483 1.2543974
-0.22816116 -0.23259147 1.2574066
-0.22426885 -0.23315078 1.2604303
-0.22035781 -0.23371282 1.2634687
-0.35224628 -0.2281847 1.2575364
-0.34545425 -0.22663558 1.2489991
-0.33875352 -0.22510718 1.240576
-0.33214206 -0.2235989 1.2322638
-0.32750645 -0.22339845 1.2311591
-0.32390377 -0.22390664 1.2339598
-0.32028469 -0.22441718 1.2367734
-0.31664905 -0.22493002 1.2395997
-0.31299636 -0.22544493 1.2424374
-0.30932713 -0.22596236 1.245289
-0.305641 -0.22648217 1.2481537
-0.30193788 -0.22700439 1.2510316
-0.29821765 -0.22752903 1.2539229
-0.29229465 -0.22636352 1.2474998
-0.28615248 -0.22499011 1.2399309
-0.28008443 -0.2236333 1.2324535
-0.27408916 -0.22229278 1.2250657
-0.26992431 -0.22241762 1.2257538
-0.26622796 -0.22293887 1.2286264
-0.26251426 -0.22346255 1.2315124
-0.25878307 -0.22398871 1.2344121
-0.25503424 -0.22451733 1.2373253
-0.25126773 -0.2250485 1.2402526
-0.24748333 -0.22558215 1.2431936
-0.24368095 -0.22611837 1.2461487
-0.23986043 -0.22665711 1.2491177
-0.23602174 -0.22719851 1.2521014
-0.23216473 -0.22774255 1.2550997
-0.2282892 -0.2282892 1.2581123
-0.22439504 -0.2288385 1.2611395
-0.22048207 -0.22939044 1.2641813
-0.34849104 -0.22418851 1.2599788
-0.34171143 -0.22266358 1.2514085
-0.33502337 -0.22115922 1.2429537
-0.32842433 -0.21967456 1.2346096
-0.32407603 -0.2196757 1.234616
-0.32045543 -0.22017686 1.2374326
-0.31681824 -0.2206803 1.240262
-0.31316406 -0.2211858 1.243103
-0.30949321 -0.22169371 1.2459576
-0.30580547 -0.22220398 1.2488254
-0.30210075 -0.22271661 1.2517065
-0.29626939 -0.22165339 1.245731
-0.29011181 -0.22031046 1.2381835
-0.28402844 -0.21898375 1.2307272
-0.27801788 -0.21767293 1.2233601
-0.2737526 -0.21770875 1.2235614
-0.27007183 -0.21821804 1.2264237
-0.26637381 -0.21872972 1.2292994
-0.26265842 -0.21924381 1.2321887
-0.25892553 -0.21976031 1.2350916
-0.25517499 -0.22027926 1.2380081
-0.25140667 -0.22080065 1.2409384
-0.24762052 -0.22132453 1.2438828
-0.24381635 -0.2218509 1.2468411
-0.23999409 -0.22237985 1.2498138
-0.23615365 -0.22291139 1.2528012
-0.23229478 -0.22344546 1.2558028
-0.2284174 -0.2239821 1.2588187
-0.22452135 -0.22452135 1.2618494
-0.22060649 -0.22506317 1.2648946
-0.3447212 -0.22017676 1.2624307
-0.33795413 -0.21867621 1.253827
-0.33127871 -0.21719599 1.2453398
-0.32469246 -0.21573526 1.2369643
-0.32062635 -0.21593204 1.2380927
-0.31698763 -0.21642603 1.2409251
-0.31333193 -0.2169221 1.2437694
-0.30965951 -0.2174205 1.2466271
-0.30597019 -0.21792121 1.249498
-0.30023289 -0.21695662 1.2439673
-0.29405999 -0.215644 1.2364411
-0.28796139 -0.21434721 1.2290057
-0.28193572 -0.21306592 1.2216592
-0.27756724 -0.21301672 1.221377
-0.27390194 -0.21351412 1.224229
-0.27021953 -0.21401386 1.2270944
-0.26651984 -0.21451597 1.2299733
-0.26280272 -0.21502042 1.2328657
-0.2590681 -0.21552724 1.2357717
-0.25531584 -0.21603648 1.2386916
-0.25154582 -0.21654813 1.2416252
-0.24775788 -0.21706221 1.2445728
-0.24395199 -0.2175788 1.2475348
-0.24012798 -0.2180979 1.2505111
-0.23628569 -0.21861948 1.2535017
-0.232425 -0.21914357 1.2565067
-0.22854573 -0.21967016 1.259526
-0.22464779 -0.22019932 1.26256
-0.22073102 -0.22073102 1.2656087
-0.3409366 -0.21614935 1.264892
-0.33418232 -0.2146734 1.2562549
-0.3275196 -0.21321745 1.2477348
-0.32094628 -0.21178088 1.239328
-0.31715715 -0.21216719 1.2415887
-0.31349999 -0.21265383 1.2444365
-0.30982599 -0.21314269 1.2472973
-0.30418518 -0.21227312 1.2422086
-0.29799715 -0.2109907 1.2347039
-0.29188338 -0.20972362 1.2272891
-0.28584266 -0.2084717 1.219963
-0.28136826 -0.20834137 1.2192003
-0.27771839 -0.20882702 1.2220422
-0.27405146 -0.2093149 1.2248973
-0.27036741 -0.2098051 1.2277659
-0.26666602 -0.21029758 1.2306479
-0.26294723 -0.21079239 1.2335435
-0.25921085 -0.21128953 1.2364527
-0.25545686 -0.21178903 1.2393757
-0.25168508 -0.2122909 1.2423127
-0.24789545 -0.21279521 1.2452638
-0.24408783 -0.21330197 1.2482294
-0.240262 -0.21381114 1.251209
-0.23641789 -0.21432276 1.254203
-0.23255534 -0.21483684 1.2572113
-0.22867422 -0.21535338 1.2602341
-0.22477439 -0.21587244 1.2632716
-0.2208557 -0.21639398 1.2663236
-0.33713725 -0.21210621 1.2673631
-0.33039585 -0.21065506 1.2586923
-0.32374603 -0.20922363 1.2501392
-0.31732687 -0.20790382 1.2422532
-0.31366822 -0.20838098 1.2451043
-0.30812636 -0.20760286 1.2404549
-0.30192322 -0.2063504 1.2329713
-0.29579446 -0.20511295 1.2255774
-0.28973874 -0.20389023 1.2182715
-0.28515577 -0.20368269 1.2170314
-0.2815212 -0.20415659 1.2198631
-0.27786973 -0.20463274 1.2227081
-0.27420115 -0.20511109 1.2255663
-0.27051541 -0.20559171 1.228438
-0.26681235 -0.20607458 1.2313232
-0.26309183 -0.2065597 1.2342219
-0.25935379 -0.20704715 1.2371345
-0.25559807 -0.20753691 1.2400608
-0.25182456 -0.20802899 1.2430011
-0.24803323 -0.20852351 1.2459559
-0.2442238 -0.20902038 1.2489247
-0.24039617 -0.20951959 1.2519077
-0.23655024 -0.21002124 1.2549051
-0.23268583 -0.21052529 1.2579168
-0.22880283 -0.21103173 1.2609429
-0.22490112 -0.21154067 1.2639838
-0.22098054 -0.21205203 1.2670393
-0.333323 -0.20804724 1.2698437
-0.32659462 -0.2066211 1.261139
-0.31995788 -0.20521437 1.2525529
-0.31341127 -0.2038269 1.2440844
-0.30695423 -0.20245919 1.2357363
-0.30058333 -0.20110971 1.2274996
-0.29429677 -0.19977809 1.2193719
-0.28892979 -0.19904052 1.21487
-0.28531051 -0.19950283 1.2176918
-0.28167433 -0.19996728 1.2205266
-0.27802122 -0.20043391 1.2233747
-0.27435103 -0.20090273 1.2262362
-0.27066359 -0.20137371 1.229111
-0.26695883 -0.20184693 1.2319993
-0.26323664 -0.20232238 1.2349013
-0.25949687 -0.20280007 1.2378169
-0.25573942 -0.20328006 1.2407466
-0.25196427 -0.20376241 1.2436907
-0.24817115 -0.20424706 1.2466488
-0.24435994 -0.204734 1.2496209
-0.24053049 -0.20522326 1.2526072
-0.23668273 -0.2057149 1.255608
-0.23281647 -0.20620887 1.258623
-0.22893161 -0.20670523 1.2616526
-0.22502808 -0.20720407 1.2646973
-0.32949379 -0.20397235 1.2723341
-0.32277861 -0.20257141 1.2635953
-0.31615531 -0.20118976 1.2549769
-0.30962259 -0.19982734 1.2464784
-0.30317807 -0.19848348 1.2380958
-0.29682028 -0.19715799 1.2298276
-0.29054683 -0.19585007 1.2216692
-0.28546542 -0.19531843 1.2183529
-0.28182766 -0.19577341 1.2211909
-0.27817288 -0.19623049 1.2240421
-0.27450103 -0.19668971 1.2269067
-0.27081195 -0.19715109 1.2297846
-0.26710552 -0.19761464 1.2326761
-0.2633816 -0.19808038 1.2355813
-0.25964013 -0.19854835 1.2385004
-0.25588107 -0.1990186 1.2414337
-0.25210413 -0.1994911 1.2443811
-0.24830924 -0.19996585 1.2473425
-0.24449624 -0.20044287 1.2503179
-0.24066499 -0.20092215 1.2533076
-0.23681541 -0.20140375 1.2563118
-0.23294739 -0.20188774 1.2593307
-0.22906075 -0.20237407 1.2623644
-0.32564953 -0.19988145 1.2748343
-0.31894785 -0.198506 1.2660618
-0.31233871 -0.19714996 1.257413
-0.30581924 -0.19581231 1.2488816
-0.29938766 -0.19449273 1.2404653
-0.2930429 -0.19319125 1.2321645
-0.28678274 -0.19190724 1.2239752
-0.28198111 -0.19157495 1.2218559
-0.27832472 -0.19202249 1.2247102
-0.27465123 -0.19247212 1.2275779
-0.27096045 -0.19292383 1.230459
-0.26725233 -0.1933777 1.2333537
-0.26352674 -0.19383372 1.2362622
-0.25978366 -0.19429198 1.239185
-0.25602284 -0.19475241 1.2421216
-0.25224417 -0.19521505 1.2450722
-0.24844748 -0.19567987 1.2480369
-0.24463272 -0.19614695 1.2510159
-0.24079978 -0.19661634 1.2540096
-0.23694843 -0.19708794 1.2570175
-0.2330786 -0.19756186 1.26004
-0.32857201 -0.1971432 1.2862749
-0.32179019 -0.19577445 1.2773445
-0.31510291 -0.1944252 1.2685411
-0.30850723 -0.19309445 1.2598586
-0.30200124 -0.1917818 1.2512941
-0.29558313 -0.19048689 1.2428454
-0.28925115 -0.1892094 1.2345103
-0.2830044 -0.18794948 1.2262899
-0.27847674 -0.1878099 1.2253791
-0.27480152 -0.18824987 1.2282498
-0.27110913 -0.18869196 1.2311342
-0.26739931 -0.1891361 1.234032
-0.26367214 -0.18958245 1.2369443
-0.25992733 -0.19003092 1.2398703
-0.25616479 -0.19048151 1.2428102
-0.25238442 -0.19093432 1.2457646
-0.24858609 -0.19138929 1.2487332
-0.2447696 -0.19184645 1.2517159
-0.24093482 -0.19230577 1.2547128
-0.23708165 -0.19276731 1.2577242
-0.23320991 -0.19323106 1.2607499
-0.32468373 -0.19299382 1.2888303
-0.31791648 -0.19165178 1.279868
-0.31124291 -0.19032839 1.2710303
-0.30466086 -0.18902315 1.2623138
-0.29816845 -0.18773569 1.253716
-0.2917639 -0.18646565 1.2452346
-0.28544542 -0.18521269 1.2368672
-0.27921176 -0.18397674 1.2286134
-0.27495205 -0.18402302 1.2289225
-0.27125797 -0.18445542 1.2318101
-0.26754659 -0.18488993 1.2347118
-0.26381779 -0.18532655 1.2376275
-0.26007137 -0.18576527 1.2405573
-0.25630715 -0.18620604 1.2435009
-0.25252503 -0.18664895 1.2464586
-0.24872489 -0.18709394 1.2494304
-0.2449066 -0.1875411 1.2524165
-0.24106999 -0.18799037 1.2554168
-0.23721495 -0.1884418 1.2584314
-0.27140722 -0.18021439 1.2324878
-0.26769426 -0.18063922 1.2353933
-0.26396376 -0.18106605 1.2383124
-0.26021564 -0.18149494 1.2412455
-0.2564497 -0.18192585 1.2441925
-0.25266579 -0.18235879 1.2471534
-0.24886386 -0.18279381 1.2501285
-0.24504377 -0.18323092 1.2531179
-0.24120532 -0.1836701 1.2561215
