# .PCD v0.7 - Point Cloud Data file format
VERSION 0.7
FIELDS x y z
SIZE 4 4 4
TYPE F F F
COUNT 1 1 1
WIDTH 854
HEIGHT 1
VIEWPOINT 0 0 0 1 0 0 0
POINTS 854
DATA ascii
0.17518362 -0.19880389 1.1173128
0.15583085 -0.19528168 1.1196895
0.15970072 -0.19518977 1.1191624
0.16356698 -0.19509797 1.118636
0.1674296 -0.19500624 1.1181101
0.17128858 -0.19491458 1.1175846
0.17514394 -0.19482304 1.1170597
0.1789957 -0.19473158 1.1165353
0.14804649 -0.19147345 1.1204903
0.15192281 -0.19138327 1.1199626
0.15579547 -0.19129318 1.1194353
0.15966451 -0.19120318 1.1189086
0.16352989 -0.19111323 1.1183823
0.16739164 -0.19102341 1.1178566
0.17124976 -0.19093364 1.1173314
0.17510426 -0.19084397 1.1168066
0.17895517 -0.1907544 1.1162825
0.18280242 -0.19066489 1.1157587
0.14801285 -0.18748294 1.1202357
0.15188831 -0.18739468 1.1197083
0.15576012 -0.18730646 1.1191813
0.15962829 -0.18721837 1.1186548
0.16349283 -0.18713035 1.1181289
0.1673537 -0.18704239 1.1176033
0.17121097 -0.18695451 1.1170783
0.17506462 -0.18686673 1.1165538
0.17891467 -0.18677905 1.1160299
0.18276107 -0.18669142 1.1155063
0.18660386 -0.18660386 1.1149831
0.19044304 -0.18651637 1.1144603
0.14122179 -0.19034241 1.16178
0.14524668 -0.19025269 1.1612324
0.14926776 -0.19016305 1.1606852
0.14797921 -0.18349423 1.1199812
0.15185384 -0.18340789 1.1194541
0.15572478 -0.18332158 1.1189274
0.15959209 -0.18323536 1.1184012
0.16345575 -0.18314922 1.1178753
0.1673158 -0.18306316 1.1173501
0.1711722 -0.18297718 1.1168253
0.175025 -0.18289129 1.1163011
0.17887421 -0.18280551 1.1157775
0.18271975 -0.18271975 1.115254
0.18656169 -0.18263407 1.1147311
0.1904 -0.18254846 1.1142086
0.19423474 -0.18246295 1.1136866
0.11696587 -0.18673499 1.1648113
0.1210127 -0.18664671 1.1642606
0.12505572 -0.18655853 1.1637106
0.12909493 -0.18647045 1.1631612
0.13313031 -0.18638244 1.1626122
0.1371619 -0.18629451 1.1620637
0.14118968 -0.18620668 1.1615158
0.14521366 -0.18611893 1.1609684
0.14923386 -0.18603125 1.1604215
0.14847367 -0.18014805 1.1237234
0.15181936 -0.17942289 1.1192
0.15568946 -0.17933849 1.1186736
0.15955591 -0.17925417 1.1181476
0.16341871 -0.17916991 1.117622
0.1672779 -0.17908575 1.117097
0.17113346 -0.17900166 1.1165725
0.17498541 -0.17891766 1.1160486
0.17883375 -0.17883375 1.1155251
0.18267845 -0.17874987 1.1150019
0.18651953 -0.17866607 1.1144792
0.19035701 -0.17858236 1.1139569
0.19419092 -0.17849872 1.1134353
0.19802119 -0.17841513 1.1129138
0.20184791 -0.17833166 1.1123931
0.09258303 -0.18310866 1.1678582
0.096652009 -0.18302189 1.1673049
0.10071713 -0.18293521 1.166752
0.10477841 -0.18284859 1.1661996
0.10883584 -0.18276207 1.1656477
0.11288943 -0.18267563 1.1650964
0.1169392 -0.18258928 1.1645457
0.12098514 -0.182503 1.1639954
0.12502725 -0.18241681 1.1634457
0.12906554 -0.18233068 1.1628964
0.13310003 -0.18224466 1.1623477
0.13713072 -0.18215871 1.1617996
0.1411576 -0.18207285 1.1612519
0.14518067 -0.18198703 1.1607046
0.14919996 -0.18190132 1.1601579
0.15103281 -0.17922559 1.1430923
0.15178491 -0.17543972 1.1189461
0.15565415 -0.17535721 1.1184199
0.15951973 -0.17527476 1.1178941
0.16338168 -0.17519242 1.1173688
0.16724002 -0.17511013 1.1168441
0.17109472 -0.17502794 1.1163198
0.1749458 -0.1749458 1.115796
0.17879331 -0.17486379 1.1152729
0.18263716 -0.1747818 1.1147499
0.18647739 -0.17469987 1.1142274
0.19031402 -0.17461802 1.1137054
0.19414707 -0.17453626 1.1131839
0.19797654 -0.17445457 1.1126629
0.2018024 -0.17437296 1.1121423
0.20562471 -0.17429142 1.1116223
0.092561871 -0.17895295 1.1675913
0.096629933 -0.17886817 1.1670382
0.10069413 -0.17878346 1.1664855
0.1047545 -0.17869885 1.1659335
0.10881102 -0.17861432 1.1653819
0.1128637 -0.17852984 1.1648308
0.11691255 -0.17844547 1.1642803
0.12095758 -0.17836118 1.1637303
0.12499879 -0.17827696 1.1631808
0.12903617 -0.17819281 1.1626318
0.13306975 -0.17810874 1.1620833
0.13709953 -0.17802477 1.1615354
0.14112549 -0.17794083 1.1609877
0.14514767 -0.17785701 1.1604408
0.14916608 -0.17777327 1.1598945
0.1531807 -0.17768961 1.1593486
0.15175048 -0.17145833 1.1186922
0.15561886 -0.17137773 1.1181663
0.15948358 -0.17129718 1.1176407
0.16334468 -0.17121671 1.1171157
0.16720216 -0.17113632 1.1165912
0.171056 -0.171056 1.1160672
0.17490624 -0.17097576 1.1155436
0.17875287 -0.17089561 1.1150206
0.18259588 -0.17081551 1.114498
0.18643527 -0.17073546 1.1139758
0.19027106 -0.17065549 1.113454
0.19410326 -0.17057559 1.1129327
0.19793187 -0.17049576 1.1124119
0.20175691 -0.17041603 1.1118916
0.20557836 -0.17033635 1.1113718
0.20939626 -0.17025676 1.1108525
0.088469699 -0.17488196 1.1678777
0.092540711 -0.17479911 1.1673244
0.096607864 -0.17471634 1.1667717
0.10067116 -0.17463364 1.1662194
0.1047306 -0.174551 1.1656674
0.1087862 -0.17446843 1.1651161
0.11283798 -0.17438596 1.1645653
0.11688592 -0.17430356 1.1640151
0.12093003 -0.17422123 1.1634653
0.12497034 -0.17413899 1.1629161
0.12900682 -0.17405681 1.1623672
0.1330395 -0.17397474 1.1618191
0.13706835 -0.17389268 1.1612711
0.14109342 -0.17381074 1.1607239
0.14511472 -0.1737289 1.1601774
0.14913222 -0.17364712 1.1596313
0.15314594 -0.1735654 1.1590855
0.15171605 -0.16747876 1.1184384
0.15558358 -0.16740005 1.1179128
0.15944745 -0.1673214 1.1173875
0.1633077 -0.16724283 1.1168628
0.1671643 -0.1671643 1.1163384
0.1710173 -0.16708587 1.1158147
0.17486669 -0.16700751 1.1152914
0.17871247 -0.16692923 1.1147686
0.18255463 -0.16685101 1.1142462
0.18639317 -0.16677284 1.1137242
0.19022812 -0.16669475 1.1132027
0.19405948 -0.16661672 1.1126816
0.19788726 -0.16653879 1.1121612
0.20171145 -0.1664609 1.111641
0.20553204 -0.16638309 1.1111214
0.20934911 -0.16630536 1.1106024
0.084375538 -0.17080902 1.1681644
0.088449471 -0.17072804 1.1676106
0.092519566 -0.1706472 1.1670578
0.096585758 -0.17056635 1.1665047
0.10064818 -0.17048569 1.1659532
0.10470671 -0.17040505 1.1654016
0.1087614 -0.17032446 1.1648505
0.11281227 -0.17024396 1.1643
0.11685929 -0.17016354 1.1637499
0.1209025 -0.17008318 1.1632004
0.1249419 -0.17000291 1.1626514
0.12897746 -0.16992269 1.1621028
0.13300921 -0.16984253 1.1615546
0.13703719 -0.16976249 1.1610072
0.14106137 -0.16968252 1.1604602
0.14508177 -0.16960263 1.1599139
0.14909837 -0.16952279 1.1593679
0.15311119 -0.16944306 1.1588225
0.15168163 -0.16350098 1.1181847
0.1555483 -0.16342416 1.1176593
0.15941133 -0.16334741 1.1171343
0.16327071 -0.16327071 1.1166098
0.16712646 -0.16319408 1.1160858
0.17097861 -0.16311753 1.1155622
0.17482714 -0.16304104 1.1150391
0.17867208 -0.16296464 1.1145166
0.1825134 -0.1628883 1.1139946
0.18635111 -0.16281201 1.1134728
0.1901852 -0.16273579 1.1129515
0.19401571 -0.16265963 1.1124307
0.19784263 -0.16258354 1.1119103
0.201666 -0.16250755 1.1113906
0.20548576 -0.16243161 1.1108712
0.20930199 -0.16235575 1.1103524
0.080279365 -0.16673407 1.1684512
0.084356233 -0.166655 1.1678971
0.088429242 -0.16657601 1.1673436
0.092498429 -0.16649717 1.1667911
0.096563682 -0.16641825 1.1662381
0.10062521 -0.16633964 1.1656871
0.10468283 -0.16626096 1.1651357
0.10873661 -0.16618237 1.164585
0.11278655 -0.16610382 1.1640346
0.11683267 -0.16602537 1.1634848
0.12087498 -0.16594701 1.1629356
0.12491347 -0.16586871 1.1623869
0.12894814 -0.16579045 1.1618385
0.13297896 -0.16571224 1.1612904
0.13700604 -0.16563419 1.1607434
0.14102934 -0.16555619 1.1601968
0.14504883 -0.16547824 1.1596506
0.14906454 -0.16540039 1.1591049
0.15307647 -0.1653226 1.1585598
0.15164725 -0.15952504 1.1179312
0.15551305 -0.15945008 1.117406
0.15937521 -0.15937521 1.1168813
0.16323376 -0.15930042 1.1163571
0.16708866 -0.15922566 1.1158333
0.17093995 -0.15915099 1.11531
0.17478763 -0.15907638 1.1147871
0.17863169 -0.15900184 1.1142647
0.1824722 -0.1589274 1.1137431
0.18630904 -0.15885298 1.1132215
0.19014227 -0.15877861 1.1127003
0.19397196 -0.15870434 1.1121799
0.19779804 -0.15863012 1.1116598
0.20162055 -0.15855597 1.1111401
0.20543951 -0.1584819 1.1106211
0.20925489 -0.15840791 1.1101025
0.080261 -0.16257997 1.1681839
0.084336944 -0.1625029 1.1676301
0.088409036 -0.16242589 1.1670768
0.092477307 -0.16234905 1.1665246
0.096541688 -0.1622722 1.1659725
0.10060226 -0.16219549 1.1654212
0.10465896 -0.16211879 1.1648701
0.10871182 -0.16204216 1.1643195
0.11276086 -0.16196561 1.1637695
0.11680609 -0.16188914 1.16322
0.12084747 -0.16181272 1.162671
0.12488499 -0.16173631 1.1621219
0.12891878 -0.16166008 1.1615741
0.13294876 -0.16158387 1.1610266
0.13697493 -0.16150776 1.1604797
0.14099731 -0.1614317 1.1599332
0.14501591 -0.16135573 1.1593874
0.14903073 -0.16127983 1.158842
0.15304178 -0.16120401 1.1582972
0.15161286 -0.15555085 1.1176777
0.15547781 -0.15547781 1.1171528
0.15933912 -0.15540481 1.1166283
0.16319682 -0.15533191 1.1161045
0.16705085 -0.15525903 1.1155808
0.17090128 -0.15518622 1.1150577
0.17474814 -0.1551135 1.1145352
0.17859136 -0.15504085 1.1140131
0.18243101 -0.15496828 1.1134917
0.18626699 -0.15489571 1.1129702
0.1900994 -0.15482321 1.1124494
0.19392823 -0.15475081 1.1119291
0.19775349 -0.15467846 1.1114093
0.20157515 -0.15460618 1.1108899
0.20539325 -0.15453398 1.1103711
0.20920779 -0.15446183 1.1098527
0.076163739 -0.15850292 1.1684706
0.080242641 -0.15842777 1.1679167
0.084317669 -0.15835269 1.1673632
0.08838883 -0.15827768 1.1668102
0.092456192 -0.15820283 1.1662583
0.096519701 -0.15812801 1.1657069
0.10057925 -0.1580531 1.1651546
0.10463511 -0.1579785 1.1646047
0.10868706 -0.15790384 1.1640543
0.11273519 -0.15782925 1.1635045
0.11677949 -0.15775475 1.1629552
0.12081987 -0.15768017 1.1624054
0.12485659 -0.15760586 1.1618576
0.12888947 -0.15753157 1.16131
0.13291854 -0.15745735 1.1607628
0.13694382 -0.15738319 1.1602161
0.1409653 -0.1573091 1.1596699
0.14498299 -0.15723509 1.1591243
0.14899692 -0.15716113 1.1585791
0.15300708 -0.15708727 1.1580346
0.15319546 -0.15319546 1.1293445
0.15544258 -0.15150733 1.1168997
0.15930302 -0.15143621 1.1163754
0.16315986 -0.15136518 1.1158518
0.16701308 -0.1512942 1.1153286
0.17086266 -0.15122327 1.1148057
0.17470863 -0.15115242 1.1142833
0.178551 -0.15108162 1.1137614
0.18238981 -0.15101092 1.1132402
0.18622497 -0.15094024 1.1127192
0.19005653 -0.15086962 1.1121986
0.19388452 -0.15079907 1.1116785
0.19770893 -0.1507286 1.111159
0.20152974 -0.15065816 1.1106397
0.20534702 -0.15058781 1.1101211
0.20916073 -0.15051754 1.109603
0.072064482 -0.15442389 1.1687577
0.07614632 -0.15435064 1.1682034
0.080224283 -0.15427747 1.1676495
0.084298387 -0.15420437 1.1670963
0.088368632 -0.15413134 1.1665435
0.092435084 -0.15405847 1.165992
0.0964977 -0.15398568 1.1654412
0.10055628 -0.15391268 1.1648886
0.10461126 -0.15384008 1.1643392
0.10866231 -0.15376741 1.1637892
0.11270952 -0.15369481 1.1632396
0.11675276 -0.15362205 1.162689
0.12079241 -0.15354967 1.1621412
0.12482815 -0.15347724 1.161593
0.12886016 -0.15340495 1.1610459
0.13288835 -0.15333271 1.1604991
0.13691272 -0.15326051 1.1599526
0.14093332 -0.15318839 1.1594068
0.14495011 -0.15311632 1.1588613
0.14896314 -0.15304431 1.1583164
0.1529724 -0.1529724 1.1577721
0.15584889 -0.15180087 1.1489054
0.15540738 -0.14753865 1.1166468
0.15926698 -0.14746943 1.1161228
0.16312295 -0.14740025 1.1155993
0.1669753 -0.14733115 1.1150763
0.17082405 -0.14726211 1.1145538
0.17466918 -0.14719313 1.1140317
0.1785107 -0.1471242 1.11351
0.18234864 -0.14705536 1.1129889
0.18618296 -0.14698654 1.1124681
0.19001369 -0.14691781 1.1119479
0.19384082 -0.1468491 1.1114279
0.19766439 -0.14678049 1.1109086
0.20148438 -0.14671193 1.1103897
0.20530082 -0.14664344 1.1098714
0.2091137 -0.14657502 1.1093535
0.072047986 -0.15027152 1.1684902
0.076128908 -0.15020028 1.1679362
0.080205947 -0.15012908 1.1673826
0.084279127 -0.15005796 1.1668296
0.088348448 -0.14998689 1.1662771
0.092413992 -0.14991602 1.1657259
0.096475616 -0.14984511 1.1651745
0.10053334 -0.14977415 1.1646228
0.10458729 -0.14970337 1.1640724
0.10863755 -0.14963286 1.163524
0.11268369 -0.149562 1.162973
0.1167262 -0.14949146 1.1624246
0.12076494 -0.14942104 1.1618769
0.12479983 -0.14935061 1.1613294
0.12883088 -0.14928024 1.1607821
0.13285817 -0.14920995 1.1602355
0.13688163 -0.1491397 1.1596893
0.14090131 -0.14906952 1.1591436
0.14491723 -0.14899941 1.1585984
0.14892937 -0.14892937 1.1580539
0.15293774 -0.14885941 1.1575098
0.15694232 -0.14878948 1.1569661
0.15537219 -0.14357178 1.1163939
0.15923093 -0.14350443 1.1158702
0.16308606 -0.14343713 1.115347
0.16693756 -0.1433699 1.1148242
0.17078546 -0.14330274 1.1143019
0.17462972 -0.14323562 1.11378
0.1784704 -0.14316855 1.1132586
0.1823075 -0.14310159 1.1127378
0.18614098 -0.14303465 1.1122173
0.18997085 -0.14296776 1.1116972
0.19379716 -0.14290093 1.1111776
0.19761987 -0.14283417 1.1106584
0.20143905 -0.14276747 1.1101398
0.20525464 -0.14270085 1.1096218
0.20906667 -0.14263427 1.109104
0.21287516 -0.14256777 1.1085869
0.067947648 -0.14619039 1.1687772
0.072031513 -0.14612107 1.168223
0.076111533 -0.14605185 1.1676697
0.080187626 -0.14598259 1.1671159
0.08425989 -0.14591347 1.1665633
0.088328294 -0.14584439 1.166011
0.093028709 -0.14677863 1.1734802
0.097783729 -0.14771584 1.1809731
0.10214199 -0.14800167 1.1832582
0.10596922 -0.14752577 1.1794535
0.10896206 -0.14596805 1.1669996
0.11265814 -0.14543143 1.1627094
0.11669976 -0.14536285 1.1621611
0.12073749 -0.14529428 1.1616129
0.12477147 -0.14522581 1.1610655
0.12880161 -0.14515738 1.1605184
0.132828 -0.14508905 1.1599721
0.13685057 -0.14502075 1.1594261
0.14086935 -0.14495252 1.1588806
0.14488438 -0.14488438 1.1583358
0.14889562 -0.14481628 1.1577914
0.15290308 -0.14474824 1.1572474
0.1569068 -0.14468029 1.1567042
0.15533702 -0.13960668 1.1161412
0.1591949 -0.13954121 1.1156178
0.16304918 -0.13947581 1.1150948
0.16689983 -0.13941045 1.1145723
0.17074686 -0.13934514 1.1140501
0.1745903 -0.1392799 1.1135286
0.17843011 -0.13921471 1.1130073
0.18226635 -0.13914959 1.1124867
0.18609902 -0.13908453 1.1119666
0.18992805 -0.1390195 1.1114467
0.19375351 -0.13895454 1.1109273
0.19757539 -0.13888964 1.1104084
0.20139371 -0.13882479 1.10989
0.20520848 -0.13876002 1.1093721
0.20901969 -0.1386953 1.1088548
0.21282734 -0.13863066 1.1083379
0.07201504 -0.14197251 1.1679559
0.076094113 -0.14190523 1.1674024
0.080169268 -0.14183794 1.1668488
0.084240623 -0.14177079 1.1662965
0.089160688 -0.1430718 1.1769993
0.094524287 -0.14493725 1.1923456
0.099498779 -0.14607267 1.2016864
0.10811342 -0.14627109 1.2033187
0.11138851 -0.14501522 1.1929872
0.11276725 -0.14147164 1.1638354
0.11667312 -0.14123587 1.1618959
0.12071005 -0.14116938 1.1613488
0.12474312 -0.14110287 1.1608016
0.12877236 -0.14103641 1.1602548
0.13279784 -0.14097001 1.1597086
0.13681951 -0.14090368 1.159163
0.14083742 -0.14083742 1.1586179
0.14485154 -0.14077121 1.1580732
0.14886187 -0.14070506 1.157529
0.15286845 -0.14063898 1.1569854
0.15687127 -0.14057297 1.1564423
0.15530187 -0.13564341 1.1158886
0.15915889 -0.13557978 1.1153653
0.1630123 -0.13551624 1.1148425
0.16686212 -0.13545278 1.1143204
0.17070831 -0.13538934 1.1137986
0.17455091 -0.13532598 1.1132773
0.17838986 -0.13526264 1.1127563
0.18222527 -0.1351994 1.1122359
0.18605709 -0.1351362 1.111716
0.18988526 -0.13507302 1.1111963
0.19370988 -0.13500991 1.1106771
0.19753091 -0.13494687 1.1101584
0.20134841 -0.13488388 1.1096404
0.20516232 -0.13482095 1.1091226
0.20897272 -0.13475811 1.1086056
0.21277952 -0.13469529 1.1080889
0.071998566 -0.13782583 1.1676887
0.076076716 -0.13776055 1.1671356
0.080151029 -0.13769536 1.1665833
0.084221408 -0.13763011 1.1660305
0.090373047 -0.14081381 1.1930035
0.11588506 -0.14116907 1.1960133
0.11664665 -0.13711098 1.1616323
0.12068262 -0.13704637 1.1610849
0.12471477 -0.1369818 1.1605378
0.12874313 -0.13691729 1.1599914
0.13276769 -0.13685285 1.1594454
0.13678847 -0.13678847 1.1589
0.14080548 -0.13672416 1.1583551
0.14481869 -0.13665991 1.1578107
0.14882815 -0.1365957 1.1572667
0.15283383 -0.13653156 1.1567234
0.15683578 -0.1364675 1.1561806
0.15526673 -0.1316819 1.1156361
0.1591229 -0.13162018 1.1151131
0.16297545 -0.13155849 1.1145905
0.1668244 -0.13149688 1.1140685
0.17066976 -0.13143533 1.1135471
0.17451149 -0.13137382 1.1130259
0.17834963 -0.13131237 1.1125053
0.18218417 -0.13125096 1.1119851
0.18601514 -0.13118963 1.1114655
0.18984251 -0.13112833 1.1109461
0.19366628 -0.13106708 1.1104271
0.19748648 -0.13100588 1.1099087
0.20130311 -0.13094474 1.1093907
0.20511621 -0.13088368 1.1088734
0.20892575 -0.13082267 1.1083565
0.21465628 -0.13194469 1.1178625
0.071982116 -0.13368106 1.1674218
0.076059334 -0.13361776 1.1668689
0.080132708 -0.13355452 1.1663166
0.084525652 -0.13400409 1.1702427
0.11662011 -0.13298784 1.161368
0.12065519 -0.1329252 1.160821
0.12468644 -0.1328626 1.1602743
0.12871391 -0.13280006 1.1597281
0.13273756 -0.13273756 1.1591823
0.13675743 -0.13267513 1.158637
0.14077355 -0.13261276 1.1580925
0.14478588 -0.13255045 1.1575483
0.14879444 -0.13248821 1.1570047
0.15279923 -0.13242601 1.1564615
0.15680027 -0.13236387 1.1559188
0.15531009 -0.12778679 1.1159477
0.15908693 -0.12766235 1.114861
0.16293864 -0.12760255 1.1143388
0.16678672 -0.12754278 1.1138169
0.17063121 -0.12748308 1.1132956
0.17447211 -0.12742345 1.1127747
0.17830941 -0.12736386 1.1122544
0.18214311 -0.12730432 1.1117344
0.18597326 -0.12724486 1.1112151
0.18979974 -0.12718539 1.1106958
0.19362268 -0.12712599 1.1101772
0.19744204 -0.12706666 1.109659
0.20125787 -0.1270074 1.1091413
0.20507012 -0.12694818 1.1086242
0.20887882 -0.12688901 1.1081074
0.071965657 -0.12953818 1.1671549
0.076041959 -0.12947686 1.1666024
0.080114402 -0.12941557 1.1660502
0.08418306 -0.12935446 1.1654996
0.11659366 -0.12886667 1.1611046
0.12062768 -0.12880583 1.1605563
0.12465813 -0.12874529 1.1600108
0.12868468 -0.12868468 1.1594648
0.13270745 -0.12862414 1.1589193
0.13672642 -0.12856366 1.1583743
0.14074165 -0.12850325 1.15783
0.1447531 -0.12844288 1.1572862
0.14876075 -0.12838256 1.1567427
0.15276466 -0.12832232 1.1561998
0.15676481 -0.12826212 1.1556574
0.15796474 -0.12597187 1.135022
0.15905094 -0.12370629 1.1146089
0.1629018 -0.12364835 1.1140869
0.16674905 -0.12359047 1.1135653
0.1705927 -0.12353264 1.1130443
0.17443274 -0.12347486 1.1125237
0.17826919 -0.12341714 1.1120036
0.18210205 -0.12335945 1.1114838
0.18593135 -0.12330185 1.1109648
0.18975702 -0.12324426 1.1104459
0.19357909 -0.1231867 1.1099273
0.19739762 -0.12312921 1.1094093
0.20121261 -0.12307179 1.108892
0.20502403 -0.12301443 1.1083751
0.21547569 -0.12686887 1.1431041
0.071949206 -0.12539719 1.1668881
0.076024592 -0.12533784 1.1663358
0.080096111 -0.12527853 1.165784
0.0841638 -0.12521932 1.1652329
0.11253008 -0.12480609 1.1613877
0.11656716 -0.12474732 1.1608407
0.12060042 -0.12468857 1.1602941
0.12462983 -0.12462983 1.1597475
0.12865548 -0.12457117 1.1592016
0.13267735 -0.12451259 1.1586565
0.13669544 -0.12445406 1.1581118
0.14070976 -0.12439558 1.1575676
0.14472029 -0.12433715 1.1570239
0.14872707 -0.12427878 1.1564808
0.15273009 -0.12422047 1.1559381
0.15672936 -0.12416222 1.1553961
0.16071418 -0.12409576 1.1547776
0.159015 -0.11975204 1.114357
0.162865 -0.11969597 1.1138352
0.1667114 -0.11963995 1.1133139
0.17055419 -0.11958398 1.1127931
0.17439339 -0.11952805 1.1122726
0.17822899 -0.11947218 1.1117527
0.18206102 -0.11941636 1.1112334
0.18588945 -0.1193606 1.1107144
0.18971431 -0.11930487 1.1101959
0.19353557 -0.11924919 1.1096777
0.19735326 -0.11919355 1.1091599
0.2011674 -0.11913798 1.1086428
0.20911139 -0.12148376 1.1304716
0.22300357 -0.12713288 1.1830397
0.07193277 -0.12125809 1.1666216
0.076007225 -0.1212007 1.1660694
0.080077849 -0.12114341 1.1655182
0.084144577 -0.12108611 1.1649668
0.088207439 -0.12102881 1.1644156
0.10846452 -0.12074352 1.1616708
0.11250447 -0.12068662 1.1611234
0.11654062 -0.12062976 1.1605763
0.12057294 -0.12057294 1.1600296
0.12460154 -0.12051624 1.1594841
0.12862635 -0.12045959 1.1589391
0.13264729 -0.12040292 1.158394
0.13666447 -0.12034632 1.1578493
0.14067787 -0.12028977 1.1573054
0.14468753 -0.1202333 1.156762
0.1486934 -0.12017686 1.156219
0.15269555 -0.1201205 1.1556767
0.15669391 -0.12006415 1.1551347
0.16068853 -0.12000789 1.1545933
0.15897907 -0.11579958 1.1141052
0.16282821 -0.11574535 1.1135836
0.16667375 -0.11569119 1.1130625
0.1705157 -0.11563709 1.1125419
0.17435405 -0.11558302 1.1120218
0.17818882 -0.11552902 1.1115022
0.18201999 -0.11547505 1.110983
0.1858476 -0.11542114 1.1104643
0.18967161 -0.11536727 1.109946
0.19349203 -0.11531343 1.109428
0.19730888 -0.11525964 1.1089106
0.20288622 -0.11621638 1.1181153
0.21633397 -0.12155909 1.1695174
0.071916334 -0.11712088 1.166355
0.075989872 -0.11706547 1.1658032
0.080059558 -0.11701012 1.165252
0.084125422 -0.11695486 1.1647016
0.088187389 -0.11689956 1.164151
0.092245497 -0.1168443 1.1636006
0.096299872 -0.11678921 1.163052
0.10035039 -0.11673413 1.1625035
0.10439703 -0.11667903 1.1619548
0.10843985 -0.11662399 1.1614066
0.1124789 -0.11656904 1.1608595
0.11651415 -0.11651415 1.1603128
0.12054559 -0.1164593 1.1597666
0.12457324 -0.1164045 1.1592208
0.12859714 -0.11634979 1.158676
0.13261724 -0.11629511 1.1581315
0.13663341 -0.11624037 1.1575863
0.14064601 -0.11618584 1.1570432
0.14465477 -0.1161313 1.1565001
0.14865977 -0.1160768 1.1559575
0.152661 -0.11602235 1.1554152
0.15665849 -0.11596797 1.1548736
0.16065224 -0.11591364 1.1543325
0.15894316 -0.1118489 1.1138536
0.16279146 -0.11179655 1.1133323
0.16663614 -0.11174424 1.1128113
0.17047724 -0.11169198 1.112291
0.17431475 -0.11163978 1.1117711
0.17814864 -0.11158761 1.1112516
0.181979 -0.11153552 1.1107328
0.18580574 -0.11148345 1.1102142
0.18962893 -0.11143143 1.1096963
0.19344851 -0.11137944 1.1091785
0.19726452 -0.11132751 1.1086613
0.20981511 -0.11611128 1.1563008
0.075972527 -0.11293214 1.1655371
0.080041267 -0.11287871 1.1649858
0.084106185 -0.11282537 1.1644353
0.088167265 -0.11277208 1.1638852
0.092224501 -0.11271883 1.1633357
0.096277915 -0.11266564 1.1627867
0.10032751 -0.11261251 1.1622384
0.10437329 -0.11255943 1.1616906
0.10841522 -0.11250636 1.1611428
0.11245336 -0.11245336 1.1605958
0.1164877 -0.11240041 1.1600493
0.12051823 -0.11234751 1.1595033
0.12454498 -0.11229465 1.1589578
0.12856793 -0.11224184 1.1584128
0.13258713 -0.11218911 1.1578686
0.13660255 -0.11213642 1.1573248
0.14061418 -0.11208377 1.1567814
0.14462203 -0.11203115 1.1562383
0.14862613 -0.11197859 1.1556959
0.15262648 -0.11192609 1.155154
0.15662307 -0.11187362 1.1546125
0.16061591 -0.1118212 1.1540716
0.15890725 -0.10789999 1.1136019
0.1627547 -0.1078495 1.1130809
0.16659857 -0.10779908 1.1125604
0.1704388 -0.10774866 1.1120402
0.17427546 -0.10769831 1.1115205
0.17810853 -0.10764802 1.1110014
0.18193802 -0.10759776 1.1104827
0.18576393 -0.10754754 1.1099644
0.18958628 -0.10749737 1.1094466
0.19340503 -0.10744724 1.1089293
0.20344195 -0.11078522 1.1433794
0.075955182 -0.10880067 1.165271
0.080023021 -0.10874923 1.1647202
0.084087022 -0.10869785 1.1641699
0.088147178 -0.10864652 1.1636201
0.092203498 -0.10859523 1.1630708
0.096255995 -0.108544 1.1625221
0.10030472 -0.10849285 1.1619743
0.10434956 -0.1084417 1.1614264
0.1083906 -0.1083906 1.1608791
0.11242782 -0.10833953 1.1603322
0.11646124 -0.10828852 1.1597859
0.12049087 -0.10823756 1.1592401
0.12451673 -0.10818666 1.158695
0.12853879 -0.10813581 1.1581503
0.13255708 -0.108085 1.1576061
0.13657157 -0.10803423 1.1570624
0.14058232 -0.10798352 1.1565193
0.14458933 -0.10793288 1.1559769
0.14859252 -0.10788223 1.1554345
0.15259197 -0.10783166 1.1548928
0.15658768 -0.10778113 1.1543516
0.16057965 -0.10773065 1.153811
0.1588714 -0.10395289 1.1133506
0.16271798 -0.10390425 1.1128297
0.16656098 -0.10385566 1.1123093
0.17040035 -0.10380711 1.1117893
0.17423616 -0.10375862 1.11127
0.17806841 -0.10371017 1.1107512
0.18189707 -0.10366177 1.1102327
0.18572213 -0.1036134 1.1097146
0.18954363 -0.10356508 1.1091971
0.19720966 -0.10557689 1.1307439
0.21056539 -0.11049471 1.1834145
0.077451676 -0.10675772 1.1882296
0.080004781 -0.10462163 1.1644547
0.084067859 -0.10457222 1.1639047
0.088127114 -0.10452285 1.1633552
0.092182517 -0.10447352 1.1628062
0.096234098 -0.10442423 1.1622576
0.10028188 -0.10437502 1.1617098
0.10432582 -0.10432582 1.1611621
0.10836599 -0.10427671 1.1606156
0.11240229 -0.10422758 1.1600688
0.11643481 -0.10417851 1.1595227
0.12046354 -0.1041295 1.1589772
0.1244885 -0.10408054 1.1584322
0.12850966 -0.10403163 1.1578878
0.13252704 -0.10398275 1.1573439
0.13654065 -0.10393393 1.1568004
0.14055049 -0.10388515 1.1562575
0.14455658 -0.10383642 1.1557151
0.14855893 -0.10378774 1.1551733
0.15255749 -0.10373909 1.1546319
0.15655231 -0.10369049 1.1540909
0.16054338 -0.10364193 1.1535504
0.16003305 -0.10076155 1.1214913
0.16268125 -0.099960767 1.1125785
0.1665234 -0.099914037 1.1120584
0.17036195 -0.099867351 1.1115388
0.17419691 -0.099820703 1.1110196
0.1780283 -0.099774107 1.1105009
0.18185611 -0.099727549 1.1099827
0.18568036 -0.099681035 1.109465
0.19111359 -0.1004824 1.1183844
0.20403591 -0.1051094 1.1698836
0.082353868 -0.10347024 1.1986452
0.084413804 -0.10088479 1.1686941
0.088107049 -0.10040105 1.1630903
0.092161551 -0.10035369 1.1625416
0.096212223 -0.10030636 1.1619934
0.10025907 -0.10025907 1.1614455
0.10430213 -0.10021185 1.1608986
0.10834134 -0.10016464 1.1603516
0.11237677 -0.10011749 1.1598054
0.1164084 -0.10007038 1.1592597
0.12043622 -0.1000233 1.1587143
0.12446027 -0.099976286 1.1581696
0.12848054 -0.09992931 1.1576254
0.13249703 -0.099882372 1.1570817
0.13650973 -0.099835478 1.1565385
0.1405187 -0.099788636 1.1559958
0.14452389 -0.099741839 1.1554537
0.14852531 -0.099695079 1.154912
0.152523 -0.099648356 1.1543708
0.15651695 -0.099601701 1.1538303
0.16050714 -0.099555068 1.15329
0.16278221 -0.098473184 1.1407571
0.16280892 -0.096116118 1.1134517
0.16727664 -0.096430056 1.1170886
0.17177361 -0.096746057 1.1207492
0.17630017 -0.097064137 1.124434
0.1808572 -0.097384639 1.1281469
0.18544558 -0.097707883 1.1318915
0.19006455 -0.098033287 1.1356611
0.19765407 -0.099845871 1.1566589
0.089293659 -0.09760005 1.1787547
0.092140578 -0.096235715 1.1622771
0.096190341 -0.096190341 1.1617291
0.10023628 -0.096145004 1.1611816
0.10427843 -0.096099727 1.1606348
0.10831675 -0.096054472 1.1600882
0.11235127 -0.096009269 1.1595422
0.11638198 -0.095964089 1.1589966
0.12040891 -0.095918961 1.1584516
0.12443206 -0.095873885 1.1579071
0.12845144 -0.095828846 1.1573632
0.13246702 -0.095783845 1.1568197
0.13647884 -0.095738888 1.1562767
0.1404869 -0.095693976 1.1557343
0.1444912 -0.095649108 1.1551924
0.14849174 -0.095604271 1.1546509
0.15248854 -0.095559493 1.1541101
0.15648159 -0.095514737 1.1535696
0.16047092 -0.095470034 1.1530297
0.16445649 -0.095425375 1.1524903
0.16673027 -0.094413526 1.1402698
0.17131948 -0.094729595 1.1440871
0.17594081 -0.095048487 1.1479385
0.18059337 -0.095369533 1.1518159
0.18527748 -0.095692761 1.1557196
0.18999343 -0.09601818 1.1596498
0.19474155 -0.09634582 1.1636069
0.094259128 -0.094259128 1.1890008
0.096168466 -0.09207619 1.1614649
0.10021351 -0.092032813 1.1609178
0.10425475 -0.091989487 1.1603712
0.10829216 -0.091946177 1.1598248
0.11232577 -0.091902897 1.159279
0.11635559 -0.091859676 1.1587337
0.12038162 -0.091816492 1.1581891
0.12440386 -0.091773346 1.1576447
0.12842233 -0.091730244 1.157101
0.13243704 -0.091687173 1.1565578
0.13644797 -0.09164416 1.1560152
0.14045513 -0.091601171 1.1554729
0.14445853 -0.091558225 1.1549312
0.1484582 -0.091515332 1.1543901
0.15245411 -0.091472462 1.1538494
0.15688565 -0.09168642 1.1565483
0.16150765 -0.091998026 1.1604789
0.16616197 -0.092312209 1.1644421
0.17084821 -0.092628539 1.1684324
0.17556664 -0.092947051 1.1724501
0.18031767 -0.093267761 1.1764956
0.18510157 -0.093590677 1.1805689
0.18991874 -0.093915857 1.1846708
0.099311948 -0.090859868 1.19943
0.1009519 -0.088590443 1.1694716
0.10423106 -0.087881088 1.1601075
0.10826758 -0.08783973 1.1595615
0.11230028 -0.087798409 1.159016
0.1163292 -0.087757118 1.158471
0.12035434 -0.087715879 1.1579266
0.12437569 -0.08767467 1.1573826
0.12845677 -0.087676845 1.1574113
0.1329844 -0.087974302 1.161338
0.13754284 -0.088273764 1.1652912
0.14213243 -0.088575281 1.1692715
0.14675473 -0.088879623 1.1732891
0.15140967 -0.089186512 1.1773403
0.15609685 -0.089495525 1.1814195
0.16081665 -0.089806706 1.1855273
0.16556938 -0.09012004 1.1896636
0.1059775 -0.085197598 1.1795456
0.10888437 -0.084231302 1.1661675
0.11337946 -0.084519237 1.1701539
0.11790538 -0.084809132 1.1741674
0.12246246 -0.085101031 1.1782087
0.12705101 -0.085394941 1.1822778
0.13167247 -0.085691608 1.1863852
0.13632688 -0.085990801 1.1905274
0.14101392 -0.086292095 1.1946988
0.1116303 -0.082143046 1.1955768
