# .PCD v0.7 - Point Cloud Data file format
VERSION 0.7
FIELDS x y z
SIZE 4 4 4
TYPE F F F
COUNT 1 1 1
WIDTH 652
HEIGHT 1
VIEWPOINT 0 0 0 1 0 0 0
POINTS 652
DATA ascii
0.2079062 -0.37996653 1.356499
0.21094978 -0.37686536 1.3454276
0.18642923 -0.38012195 1.3743411
0.18960597 -0.37681186 1.3623735
0.19272852 -0.37356022 1.3506171
0.19583096 -0.37042722 1.3392897
0.20067915 -0.37066621 1.3401537
0.20553367 -0.37090558 1.3410192
0.21039446 -0.37114528 1.3418858
0.21526161 -0.37138543 1.342754
0.17114855 -0.37363419 1.3683152
0.17444275 -0.37039214 1.3564423
0.17768188 -0.3672092 1.3447858
0.18086602 -0.36408094 1.3333296
0.18566601 -0.36428142 1.3340638
0.19048879 -0.36451557 1.3349212
0.19531776 -0.36475003 1.3357799
0.20015293 -0.36498475 1.3366395
0.20499437 -0.36521986 1.3375005
0.20984212 -0.36545536 1.3383629
0.21469612 -0.36569118 1.3392266
0.21955638 -0.36592728 1.3400912
0.1560013 -0.36720306 1.3623419
0.15941212 -0.36403066 1.3505721
0.16276459 -0.3609128 1.3390048
0.16606173 -0.35785133 1.3276465
0.17078871 -0.35795438 1.3280289
0.17558011 -0.35818344 1.3288786
0.18037765 -0.35841271 1.3297293
0.18518135 -0.35864237 1.3305813
0.18999119 -0.35887226 1.3314342
0.19480725 -0.35910252 1.3322885
0.19962944 -0.35933301 1.3331436
0.20445794 -0.35956395 1.3340005
0.20929265 -0.35979524 1.3348585
0.21413359 -0.36002681 1.3357177
0.21898074 -0.36025864 1.3365778
0.22383417 -0.36049083 1.3374392
0.14098571 -0.36082783 1.3564205
0.14451098 -0.35772392 1.3447523
0.14797615 -0.354673 1.3332833
0.15138306 -0.3516745 1.3220114
0.15604538 -0.35168436 1.3220484
0.16080581 -0.35190836 1.3228905
0.16557232 -0.35213265 1.3237337
0.17034489 -0.35235724 1.3245779
0.17512356 -0.3525821 1.3254232
0.17990832 -0.35280722 1.3262695
0.18469921 -0.35303265 1.327117
0.18949623 -0.3532584 1.3279656
0.19429938 -0.35348442 1.3288152
0.19910875 -0.35371083 1.3296664
0.20392431 -0.3539376 1.3305188
0.20874606 -0.35416466 1.3313724
0.21357398 -0.35439196 1.3322269
0.21840812 -0.35461962 1.3330827
0.22324847 -0.35484758 1.3339396
0.22809505 -0.35507581 1.3347975
0.1308371 -0.3544496 1.3503287
0.13482533 -0.35243815 1.3426658
0.13876854 -0.35044935 1.3350891
0.1426675 -0.34848291 1.3275976
0.14652288 -0.34653825 1.3201891
0.15089987 -0.34590894 1.3177917
0.1556417 -0.34612855 1.3186284
0.16038954 -0.3463484 1.319466
0.16514342 -0.34656858 1.3203048
0.16990335 -0.34678903 1.3211446
0.17466936 -0.34700981 1.3219856
0.17944141 -0.34723076 1.3228275
0.18421955 -0.34745207 1.3236705
0.18900383 -0.34767371 1.3245149
0.19379422 -0.34789565 1.3253604
0.19859077 -0.34811795 1.3262073
0.20339347 -0.34834054 1.3270553
0.20820233 -0.34856343 1.3279045
0.21301731 -0.34878659 1.3287545
0.21783848 -0.34901002 1.3296058
0.22266583 -0.34923378 1.3304582
0.22749937 -0.34945777 1.3313116
0.2323391 -0.34968209 1.3321661
0.13115846 -0.3505508 1.3536453
0.1351546 -0.34855661 1.3459448
0.13910551 -0.34658492 1.3383311
0.143012 -0.34463546 1.3308034
0.14687477 -0.34270781 1.3233597
0.15069523 -0.34080306 1.3160046
0.15524009 -0.34060138 1.3152258
0.15997542 -0.34081721 1.3160592
0.16471677 -0.34103331 1.3168937
0.16946413 -0.34124967 1.3177292
0.17421751 -0.34146631 1.3185657
0.17897692 -0.34168321 1.3194033
0.18374242 -0.34190044 1.3202422
0.18851399 -0.342118 1.3210822
0.19329169 -0.34233588 1.3219236
0.19807549 -0.34255409 1.3227662
0.20286539 -0.34277257 1.3236098
0.20766139 -0.34299129 1.3244544
0.21246353 -0.34321031 1.3253002
0.2172718 -0.34342963 1.3261471
0.22208624 -0.34364921 1.326995
0.22690679 -0.34386906 1.3278439
0.23173355 -0.34408921 1.328694
0.12743054 -0.34863073 1.3647997
0.13148125 -0.34663236 1.3569766
0.13548547 -0.34465605 1.3492398
0.13944413 -0.34270167 1.341589
0.14335816 -0.34076938 1.3340245
0.14722829 -0.33885875 1.326545
0.15105578 -0.3369706 1.3191533
0.15484118 -0.33510405 1.3118463
0.15956342 -0.33531445 1.3126699
0.16429229 -0.3355265 1.3135
0.16902713 -0.33573884 1.3143313
0.173768 -0.33595145 1.3151636
0.17851485 -0.33616433 1.315997
0.18326776 -0.33637753 1.3168316
0.18802674 -0.33659109 1.3176676
0.19279177 -0.33680493 1.3185047
0.19756287 -0.33701903 1.3193429
0.20234004 -0.33723339 1.3201821
0.20712326 -0.33744803 1.3210223
0.21191263 -0.33766297 1.3218638
0.21670806 -0.33787817 1.3227062
0.22172375 -0.33842045 1.3248291
0.22680196 -0.33903387 1.3272305
0.23189861 -0.33964947 1.3296404
0.23701391 -0.34026748 1.3320597
0.1277467 -0.34467506 1.3681859
0.1318056 -0.34269455 1.3603241
0.13581799 -0.34073633 1.3525511
0.13978443 -0.33879954 1.3448629
0.14370601 -0.33688459 1.3372616
0.14758351 -0.33499116 1.3297457
0.15141807 -0.33311975 1.3223171
0.15521048 -0.33127013 1.314975
0.15915355 -0.32983997 1.309298
0.16387002 -0.33004805 1.310124
0.16859242 -0.3302564 1.310951
0.17332079 -0.33046496 1.3117789
0.17805515 -0.33067387 1.3126081
0.18279557 -0.33088312 1.3134388
0.18754199 -0.33109266 1.3142705
0.19229442 -0.33130243 1.3151033
0.1970529 -0.33151251 1.3159372
0.20181739 -0.33172286 1.3167721
0.20675567 -0.33220294 1.3186778
0.21178326 -0.33280227 1.3210568
0.21682903 -0.33340377 1.3234445
0.22189304 -0.33400744 1.3258407
0.22697544 -0.33461329 1.3282456
0.23207639 -0.33522144 1.3306597
0.23719595 -0.33583188 1.3330829
0.12806444 -0.34069973 1.3715888
0.13213152 -0.33873719 1.363688
0.13615212 -0.33679733 1.3558786
0.14012636 -0.33487827 1.3481528
0.14405555 -0.33298084 1.3405142
0.14794047 -0.33110484 1.3329618
0.15178211 -0.32925043 1.3254962
0.15558156 -0.32741791 1.3181189
0.15933894 -0.32560566 1.3108231
0.1634499 -0.32459769 1.3067652
0.16815993 -0.32480207 1.307588
0.1728759 -0.32500666 1.3084117
0.17759788 -0.3252117 1.3092371
0.18232583 -0.32541695 1.3100635
0.18705973 -0.3256225 1.3108909
0.19192596 -0.32604289 1.3125833
0.19690365 -0.32662839 1.3149405
0.20189923 -0.327216 1.317306
0.2069128 -0.32780567 1.31968
0.21194451 -0.32839751 1.3220626
0.2169944 -0.32899153 1.3244539
0.2220626 -0.32958767 1.3268539
0.2271492 -0.33018595 1.3292625
0.23225446 -0.33078665 1.3316808
0.23737828 -0.33138949 1.3341076
0.12426083 -0.33867165 1.3830419
0.12838376 -0.33670458 1.3750088
0.13245909 -0.33476022 1.3670686
0.13648757 -0.33283809 1.3592192
0.14046997 -0.33093771 1.3514585
0.14440678 -0.32905808 1.3437827
0.14829916 -0.32719973 1.3361936
0.15214789 -0.32536241 1.3286905
0.15595441 -0.32354721 1.3212777
0.15971868 -0.32175213 1.3139471
0.16344139 -0.31997681 1.3066972
0.16772966 -0.31937566 1.3042423
0.17243333 -0.31957644 1.3050622
0.1772327 -0.31993955 1.306545
0.18216117 -0.32051143 1.3088804
0.18710728 -0.32108533 1.3112241
0.19207115 -0.32166132 1.3135763
0.19705285 -0.32223937 1.3159369
0.20205253 -0.32281956 1.3183062
0.2070702 -0.32340178 1.3206838
0.21210602 -0.32398614 1.3230702
0.21716005 -0.32457256 1.325465
0.22223243 -0.32516113 1.3278686
0.22732332 -0.32575196 1.3302814
0.2324328 -0.32634506 1.3327034
0.23756088 -0.32694024 1.3351339
0.12457326 -0.33463797 1.3865193
0.12870468 -0.33268946 1.378446
0.13278827 -0.33076352 1.3704661
0.13682486 -0.32885975 1.3625782
0.14081527 -0.32697785 1.3547808
0.14475976 -0.32511619 1.3470672
0.14865957 -0.32327557 1.3394409
0.15251543 -0.3214556 1.3319002
0.15632905 -0.31965792 1.3244518
0.16010024 -0.31788015 1.317086
0.16382967 -0.31612203 1.3098015
0.16755393 -0.31445053 1.3028759
0.1724513 -0.31501102 1.3051982
0.17736615 -0.31557354 1.3075289
0.18229857 -0.31613803 1.3098677
0.18724869 -0.31670457 1.3122151
0.19221658 -0.31727314 1.3145709
0.19720234 -0.31784377 1.3169352
0.20220605 -0.31841642 1.3193078
0.20722783 -0.31899115 1.3216891
0.21226776 -0.31956795 1.324079
0.21732596 -0.32014683 1.3264775
0.22240253 -0.32072785 1.328885
0.2274977 -0.32131118 1.3313018
0.2326114 -0.32189658 1.3337274
0.23774377 -0.32248414 1.3361617
0.12488724 -0.33058387 1.3900139
0.12902722 -0.32865423 1.3819003
0.13311911 -0.32674688 1.3738805
0.13716379 -0.32486159 1.3659533
0.14116229 -0.32299846 1.3581194
0.14511444 -0.32115492 1.3503678
0.14902176 -0.31933233 1.3427043
0.15288423 -0.31752878 1.3351209
0.1567055 -0.31574988 1.3276411
0.16048361 -0.31398967 1.3202399
0.16421981 -0.31224895 1.3129206
0.16791458 -0.31052697 1.3056802
0.17258099 -0.31064579 1.3061798
0.17749979 -0.31120092 1.308514
0.1824362 -0.31175807 1.3108566
0.1873903 -0.31231716 1.3132075
0.19236222 -0.31287831 1.3155669
0.19735201 -0.31344143 1.3179346
0.2023598 -0.31400657 1.320311
0.20738566 -0.31457376 1.3226959
0.21242973 -0.31514299 1.3250893
0.2174921 -0.31571433 1.3274916
0.22257295 -0.31628788 1.3299032
0.22767231 -0.31686354 1.3323237
0.23279029 -0.31744128 1.334753
0.23792696 -0.31802121 1.3371913
0.24308239 -0.31860313 1.3396382
0.12935135 -0.32459867 1.3853718
0.13345158 -0.32271019 1.3773118
0.13750437 -0.32084352 1.3693451
0.14151032 -0.31899783 1.3614677
0.14547087 -0.3171742 1.3536845
0.14938571 -0.31536981 1.3459835
0.15325607 -0.31358552 1.3383682
0.15708376 -0.31182298 1.3308458
0.16086882 -0.3100805 1.323409
0.16461182 -0.30835733 1.3160546
0.16831303 -0.30665249 1.3087784
0.1727109 -0.306274 1.307163
0.17763363 -0.30682173 1.3095007
0.182574 -0.30737141 1.3118467
0.18753211 -0.30792308 1.3142012
0.19250804 -0.30847675 1.3165642
0.1975019 -0.30903238 1.3189356
0.20251375 -0.30958998 1.3213155
0.20754376 -0.31014964 1.3237041
0.21259198 -0.31071135 1.3261014
0.21765858 -0.31127518 1.3285078
0.22274363 -0.3118411 1.3309231
0.22784723 -0.3124091 1.3333473
0.12967703 -0.32052246 1.3888599
0.13378572 -0.31865326 1.3807604
0.13784666 -0.31680548 1.3727539
0.14186078 -0.31497902 1.3648396
0.14582907 -0.31317389 1.3570178
0.14975144 -0.3113879 1.3492788
0.1536293 -0.30962211 1.3416275
0.15746385 -0.30787709 1.334066
0.1612559 -0.30615249 1.3265932
0.16500567 -0.30444708 1.3192035
0.16871336 -0.30275962 1.3118914
0.172841 -0.30189562 1.3081477
0.17776769 -0.30243593 1.3104889
0.18271202 -0.30297816 1.3128384
0.18767415 -0.30352238 1.3151966
0.19265409 -0.30406851 1.3175631
0.19765203 -0.30461663 1.3199382
0.20266798 -0.30516672 1.3223218
0.2077021 -0.30571884 1.3247141
0.2127545 -0.30627295 1.3271152
0.13000439 -0.31642577 1.3923659
0.13412155 -0.314576 1.3842264
0.13819067 -0.31274733 1.3761797
0.14221276 -0.31093976 1.3682259
0.14618902 -0.30915383 1.3603673
0.15011896 -0.30738646 1.3525903
0.15400422 -0.30563912 1.3449016
0.1578458 -0.30391207 1.337302
0.16164483 -0.30220556 1.3297929
0.16540143 -0.3005181 1.3223675
0.16911562 -0.29884815 1.3150192
0.17297131 -0.29751065 1.3091339
0.17790194 -0.29804352 1.3114786
0.18285026 -0.29857826 1.3138317
0.1878164 -0.299115 1.3161935
0.19280037 -0.29965359 1.3185635
0.19780236 -0.30019417 1.3209422
0.20282242 -0.3007367 1.3233294
0.20786068 -0.30128121 1.3257254
0.13033333 -0.31230819 1.395889
0.13445871 -0.31047738 1.387706
0.13853641 -0.30866885 1.3796227
0.1425665 -0.30688044 1.3716292
0.14655016 -0.30511263 1.3637279
0.1504883 -0.30336529 1.355918
0.15438093 -0.30163661 1.3481915
0.15822959 -0.29992774 1.3405535
0.16203564 -0.29823953 1.3330079
0.1657991 -0.29657021 1.3255469
0.1695198 -0.294918 1.3181621
0.17319974 -0.29328489 1.3108628
0.17803638 -0.29364443 1.3124697
0.1829887 -0.29417172 1.3148265
0.18795884 -0.29470089 1.3171917
0.19294688 -0.29523197 1.3195654
0.19795293 -0.29576495 1.3219477
0.20297711 -0.2962999 1.3243387
0.20801945 -0.29683676 1.3267381
0.13066396 -0.30816969 1.39943
0.13479808 -0.30635926 1.3912086
0.13888386 -0.30456987 1.3830829
0.14292198 -0.3028008 1.3750494
0.14691345 -0.30105218 1.3671086
0.15085945 -0.2993243 1.3592621
0.15475954 -0.29761449 1.3514978
0.15861525 -0.29592398 1.3438209
0.16242836 -0.2942543 1.3362387
0.16619867 -0.29260331 1.3287414
0.1699259 -0.29096901 1.3213199
0.17361236 -0.28935394 1.3139857
0.17817104 -0.28923869 1.3134624
0.18312734 -0.28975847 1.3158227
0.1881015 -0.2902801 1.3181915
0.1930936 -0.29080361 1.3205688
0.19810374 -0.29132903 1.3229548
0.203132 -0.29185632 1.3253493
0.20817846 -0.29238546 1.3277522
0.13513887 -0.30221966 1.3947259
0.13923243 -0.30044892 1.386554
0.14327925 -0.29870081 1.3784866
0.14727859 -0.29697159 1.3705063
0.15123244 -0.29526332 1.3626229
0.15513997 -0.29357255 1.35482
0.15900183 -0.29189888 1.3470961
0.16282299 -0.29024968 1.3394852
0.1666002 -0.28861722 1.3319515
0.17033398 -0.28700107 1.3244931
0.17402695 -0.28540421 1.3171235
0.17830588 -0.28482628 1.3144565
0.18326621 -0.28533855 1.3168205
0.18824437 -0.28585258 1.3191928
0.19324055 -0.28636852 1.3215739
0.19825475 -0.28688627 1.3239633
0.20328715 -0.287406 1.3263617
0.20833771 -0.28792739 1.3287679
0.21340656 -0.28845063 1.3311826
0.1354814 -0.29805911 1.3982611
0.13958383 -0.29630953 1.3900535
0.14363831 -0.29458028 1.3819412
0.14764553 -0.29287064 1.3739209
0.1516061 -0.29117996 1.3659896
0.1555223 -0.28951073 1.3581588
0.15939111 -0.28785557 1.3503941
0.16321953 -0.28622556 1.3427473
0.16700365 -0.28461185 1.3351771
0.17074397 -0.283014 1.3276812
0.17444354 -0.28143558 1.3202765
0.17844097 -0.28040725 1.3154523
0.18340528 -0.28091189 1.3178197
0.1883875 -0.28141835 1.3201957
0.19338772 -0.28192666 1.3225803
0.19840603 -0.28243682 1.3249735
0.20344253 -0.28294882 1.3273754
0.20849717 -0.28346244 1.329785
0.21357022 -0.28397799 1.3322035
0.13582566 -0.29387736 1.4018141
0.13993642 -0.29214796 1.3935648
0.14399841 -0.29043749 1.3854057
0.14801429 -0.28874919 1.3773525
0.15198356 -0.28708005 1.3693905
0.1559065 -0.28542882 1.3615141
0.1597839 -0.2837953 1.353722
0.16361803 -0.2821818 1.3460256
0.16740899 -0.2805869 1.3384178
0.17115597 -0.27900767 1.3308848
0.1748621 -0.27744788 1.3234444
0.17857625 -0.27598146 1.3164495
0.18354458 -0.27647853 1.3188206
0.18853082 -0.27697739 1.3212001
0.19353512 -0.27747807 1.3235884
0.19855753 -0.27798054 1.3259852
0.20359811 -0.27848476 1.3283905
0.20865692 -0.27899072 1.3308039
0.21373414 -0.27949849 1.333226
0.13617168 -0.28967431 1.4053853
0.14029081 -0.28796536 1.397094
0.14436163 -0.28627646 1.3889002
0.14838491 -0.28460714 1.3808013
0.15236133 -0.28295675 1.3727943
0.1562926 -0.28132668 1.3648858
0.16017732 -0.27971262 1.3570551
0.16401844 -0.27811822 1.3493197
0.16781591 -0.27654171 1.341671
0.17157 -0.27498204 1.3341042
0.17528269 -0.27344099 1.3266276
0.17895404 -0.27191716 1.3192346
0.18368405 -0.2720384 1.3198228
0.18867436 -0.27252963 1.322206
0.19368273 -0.27302265 1.324598
0.19870925 -0.27351743 1.3269985
0.20375395 -0.27401394 1.3294072
0.2088169 -0.27451211 1.3318242
0.21389832 -0.27501214 1.3342501
0.14064701 -0.2837615 1.4006412
0.14472599 -0.28209305 1.3924057
0.14875653 -0.28044263 1.3842593
0.15274157 -0.27881396 1.3762202
0.15667887 -0.27720109 1.3682591
0.16057296 -0.2756103 1.360407
0.16442084 -0.27403474 1.3526301
0.16822489 -0.27247694 1.3449408
0.171986 -0.27093685 1.3373389
0.17570531 -0.26941481 1.3298262
0.17938308 -0.2679098 1.3223975
0.18382376 -0.26759157 1.3208266
0.18881811 -0.26807511 1.3232135
0.19383058 -0.26856044 1.3256091
0.1988612 -0.2690475 1.3280132
0.20390998 -0.26953617 1.3304253
0.20897713 -0.27002662 1.3328462
0.21406275 -0.27051887 1.3352758
0.14100499 -0.27953622 1.4042063
0.14509219 -0.27788842 1.3959289
0.14913149 -0.27625999 1.3877486
0.15312371 -0.27465045 1.3796633
0.15706819 -0.27305701 1.371659
0.1609703 -0.27148721 1.3637733
0.16482522 -0.26993114 1.3559567
0.16863589 -0.26839232 1.3482267
0.17240402 -0.26687196 1.3405894
0.17612997 -0.26536915 1.3330402
0.17981422 -0.2638832 1.3255758
0.18396369 -0.26313794 1.3218321
0.18896212 -0.26361382 1.3242226
0.19397865 -0.26409143 1.3266218
0.19901338 -0.26457071 1.3290294
0.20406628 -0.2650516 1.3314451
0.2091376 -0.26553425 1.3338696
0.21422742 -0.26601869 1.336303
0.21933584 -0.26650482 1.3387451
0.14136481 -0.27528939 1.4077896
0.14546026 -0.27366254 1.3994701
0.14950758 -0.27205479 1.3912483
0.15350677 -0.2704643 1.3831148
0.15746105 -0.26889503 1.3750898
0.16136961 -0.26734367 1.3671564
0.16523159 -0.26580733 1.3592998
0.1690492 -0.26428822 1.3515311
0.1728241 -0.26278731 1.3438559
0.17655671 -0.26130393 1.33627
0.18024741 -0.25983718 1.3287692
0.18410382 -0.25867751 1.3228389
0.18910632 -0.25914568 1.3252331
0.19412692 -0.25961554 1.3276358
0.19916575 -0.26008704 1.330047
0.20422283 -0.26056015 1.3324665
0.20929834 -0.261035 1.3348948
0.21439235 -0.26151156 1.3373318
0.21950503 -0.26198986 1.3397778
0.14172648 -0.27102083 1.4113913
0.14583021 -0.26941514 1.4030293
0.14988559 -0.26782835 1.3947659
0.15389349 -0.26626015 1.3865992
0.15785484 -0.26471043 1.3785287
0.16176865 -0.26317587 1.3705372
0.1656372 -0.26165876 1.3626366
0.16946474 -0.26016417 1.3548533
0.1732462 -0.2586827 1.3471382
0.1769855 -0.25721893 1.3395153
0.1806827 -0.25577161 1.3319782
0.18433854 -0.25434053 1.3245255
0.18925074 -0.25467074 1.3262452
0.19427545 -0.25513282 1.3286515
0.19931838 -0.25559649 1.3310663
0.20437959 -0.25606179 1.3334893
0.2094593 -0.25652879 1.3359214
0.21455754 -0.2569975 1.3383622
0.21967445 -0.25746793 1.340812
0.14620203 -0.26514605 1.4066066
0.15026549 -0.26358044 1.398301
0.15428126 -0.26203325 1.3900931
0.15824915 -0.26050246 1.3819722
0.16217136 -0.25899008 1.3739491
0.1660486 -0.25749564 1.366021
0.169882 -0.25601935 1.3581892
0.17367038 -0.25455794 1.3504364
0.17741638 -0.25311404 1.3427764
0.18112011 -0.25168639 1.3352027
0.18478228 -0.25027472 1.3277138
0.18939537 -0.25018895 1.3272587
0.19442421 -0.25064325 1.3296689
0.19947124 -0.25109908 1.332087
0.20453665 -0.25155658 1.334514
0.20962051 -0.25201568 1.3369496
0.21472299 -0.25247648 1.3393942
0.21984415 -0.25293896 1.3418477
0.14657576 -0.26085517 1.4102023
0.15064734 -0.25931099 1.4018544
0.154671 -0.25778499 1.3936046
0.15864757 -0.25627682 1.3854514
0.16328043 -0.25588724 1.3833452
0.16866197 -0.25665951 1.3875202
0.17030127 -0.251854 1.3615413
0.17409664 -0.250413 1.3537511
0.17784935 -0.24898909 1.3460534
0.18155962 -0.2475813 1.3384428
0.18522818 -0.24618936 1.3309178
0.18954022 -0.2457003 1.3282739
0.19457316 -0.24614678 1.3306876
0.19962433 -0.24659477 1.3331095
0.20469388 -0.24704434 1.3355399
0.20978197 -0.24749559 1.3379794
0.21488868 -0.24794848 1.3404278
0.22001413 -0.24840304 1.3428851
0.14695139 -0.25654227 1.4138162
0.15103112 -0.25501975 1.4054257
0.15506271 -0.25351521 1.3971341
0.15904768 -0.25202939 1.3889456
0.16380396 -0.25181803 1.3877808
0.16906287 -0.25236923 1.3908184
0.17431024 -0.25287259 1.3935925
0.17452529 -0.24624802 1.3570842
0.17828447 -0.24484399 1.3493465
0.18200128 -0.24345626 1.3416986
0.18567623 -0.24208421 1.3341372
0.18968533 -0.2412048 1.3292907
0.19472234 -0.24164338 1.3317078
0.19977763 -0.24208349 1.3341333
0.2048514 -0.24252522 1.3365676
0.2099437 -0.24296854 1.3390108
0.21539927 -0.24380356 1.3436127
0.22097486 -0.2447356 1.3487492
0.14732908 -0.2522074 1.4174498
0.15141661 -0.2507062 1.4090129
0.15545604 -0.24922316 1.4006779
0.15944813 -0.24775787 1.3924427
0.1640285 -0.24726683 1.389683
0.16921426 -0.24769044 1.3920637
0.17438959 -0.24807532 1.3942269
0.17495766 -0.24206471 1.3604462
0.1787222 -0.24067923 1.3526596
0.18244514 -0.23931116 1.3449707
0.18612644 -0.23795912 1.3373721
0.18983063 -0.2367024 1.330309
0.19487174 -0.23713309 1.3327296
0.20010741 -0.2377747 1.3363355
0.20559452 -0.23867871 1.3414162
0.21112354 -0.23958963 1.3465358
0.21669492 -0.24050756 1.3516947
0.22230931 -0.2414327 1.3568941
0.15180469 -0.24637155 1.4126241
0.15585271 -0.2449114 1.4042521
0.15985304 -0.24346849 1.3959788
0.16405703 -0.24241263 1.3899248
0.16917308 -0.24272658 1.3917249
0.17427357 -0.24300116 1.3932993
0.17935288 -0.243232 1.3946228
0.17916393 -0.23649639 1.3560028
0.18289299 -0.23514815 1.3482723
0.18657982 -0.23381521 1.3406297
0.19038053 -0.23268731 1.3341626
0.19582179 -0.23357056 1.339227
0.2013045 -0.23446052 1.3443297
0.20682915 -0.2353573 1.3494716
0.21239625 -0.236261 1.3546531
0.2180064 -0.23717181 1.3598754
0.15624991 -0.24057525 1.4078308
0.16025804 -0.23915429 1.3995155
0.16421765 -0.23774795 1.3912857
0.16893168 -0.23748365 1.389739
0.17392927 -0.23762169 1.3905468
0.17888024 -0.23769018 1.3909476
0.17960528 -0.23228948 1.3593431
0.18334097 -0.23096199 1.3515747
0.1870342 -0.22964959 1.3438946
0.19151758 -0.22934821 1.3421309
0.19699579 -0.230224 1.3472559
0.202516 -0.2311065 1.3524203
0.20807873 -0.23199582 1.3576245
0.21368456 -0.23289216 1.3628699
0.21933387 -0.23379545 1.3681558
0.16066508 -0.23481819 1.4030702
0.16463357 -0.23343566 1.3948094
0.16855383 -0.23206687 1.3866307
0.1731704 -0.23170687 1.3844796
0.17626187 -0.22938189 1.3705876
0.18004878 -0.22806178 1.3626997
0.1837911 -0.22675526 1.3548931
0.18749082 -0.22546364 1.3471755
0.19266827 -0.22596896 1.3501948
0.19818395 -0.22683705 1.3553818
0.20374222 -0.22771189 1.3606091
0.20934361 -0.2285936 1.3658774
0.21498859 -0.2294822 1.371187
0.16107419 -0.23046 1.4066429
0.16505048 -0.22909993 1.3983415
0.16897957 -0.22775507 1.390133
0.1728619 -0.22642474 1.3820132
0.17669958 -0.22511043 1.3739911
0.18049395 -0.22381251 1.3660691
0.18424349 -0.22252785 1.358228
0.18832186 -0.22169536 1.3531468
0.19383289 -0.22254887 1.3583564
0.1993866 -0.22340907 1.3636067
0.20498349 -0.22427605 1.3688984
0.21062399 -0.22514978 1.3742313
0.21630865 -0.22603039 1.3796062
0.16546935 -0.22474195 1.4018903
0.16940558 -0.22341895 1.3936377
0.17329586 -0.2221116 1.3854827
0.17714089 -0.22081947 1.3774227
0.18094081 -0.2195415 1.369451
0.18469808 -0.21827954 1.3615792
0.18946269 -0.21824184 1.361344
0.19501175 -0.21908729 1.3666177
0.20060404 -0.21993935 1.3719327
0.16983443 -0.21906182 1.3971658
0.17373201 -0.21777675 1.3889697
0.17758413 -0.21650666 1.3808692
0.18139155 -0.21525131 1.3728626
0.18515493 -0.21401024 1.3649471
