# .PCD v0.7 - Point Cloud Data file format
VERSION 0.7
FIELDS x y z
SIZE 4 4 4
TYPE F F F
COUNT 1 1 1
WIDTH 739
HEIGHT 1
VIEWPOINT 0 0 0 1 0 0 0
POINTS 739
DATA ascii
-0.11314251 -0.3071011 1.310693
-0.1086323 -0.30740631 1.3119956
-0.10411315 -0.3077122 1.3133012
-0.12154838 -0.30043089 1.3018008
-0.11707709 -0.30072743 1.3030858
-0.11259698 -0.30102459 1.3043734
-0.10810801 -0.30132231 1.3056635
-0.10361019 -0.30162078 1.3069568
-0.099103466 -0.30191985 1.3082527
-0.094587781 -0.30221951 1.3095511
-0.13426527 -0.29356304 1.2917633
-0.12984096 -0.2938506 1.2930286
-0.12540796 -0.2941387 1.2942963
-0.12096629 -0.29442737 1.2955666
-0.11651586 -0.2947166 1.2968392
-0.11205669 -0.29500639 1.2981144
-0.10758876 -0.29529682 1.2993923
-0.10311207 -0.29558793 1.3006734
-0.098626532 -0.2958796 1.3019568
-0.09413214 -0.29617184 1.3032428
-0.08962886 -0.29646468 1.3045313
-0.085116662 -0.29675809 1.3058224
-0.14240929 -0.28707907 1.2831253
-0.13802253 -0.28735837 1.2843736
-0.13362721 -0.28763822 1.2856245
-0.12922332 -0.28791863 1.2868778
-0.12481084 -0.28819957 1.2881335
-0.12038972 -0.28848103 1.2893915
-0.11595998 -0.28876308 1.2906522
-0.11152156 -0.28904569 1.2919153
-0.10707448 -0.2893289 1.2931812
-0.10261869 -0.28961274 1.2944498
-0.098154157 -0.28989717 1.2957211
-0.093680851 -0.29018214 1.2969948
-0.089198731 -0.29046768 1.2982709
-0.084707797 -0.29075378 1.2995498
-0.080207996 -0.29104042 1.300831
-0.15044513 -0.28068122 1.2746021
-0.14609531 -0.28095251 1.275834
-0.14173704 -0.28122428 1.2770681
-0.13737035 -0.28149661 1.2783048
-0.13299519 -0.28176948 1.2795439
-0.12861152 -0.28204283 1.2807852
-0.12421936 -0.28231671 1.282029
-0.11981865 -0.28259116 1.2832752
-0.11540938 -0.28286615 1.284524
-0.11099152 -0.28314164 1.2857751
-0.1065651 -0.28341782 1.2870291
-0.10213004 -0.28369454 1.2882859
-0.097686306 -0.28397182 1.2895449
-0.093233876 -0.28424963 1.2908065
-0.088772736 -0.28452799 1.2920706
-0.084302828 -0.28480688 1.293337
-0.079824172 -0.28508633 1.2946061
-0.07533671 -0.28536633 1.2958776
-0.070840426 -0.28564689 1.2971516
-0.15885256 -0.27519527 1.27001
-0.15406169 -0.27463171 1.2674091
-0.14973988 -0.27489558 1.2686269
-0.14540976 -0.27515998 1.2698472
-0.1410713 -0.27542493 1.2710698
-0.13672449 -0.27569038 1.2722948
-0.13236928 -0.2759563 1.273522
-0.12800567 -0.27622274 1.2747517
-0.12363361 -0.2764897 1.2759837
-0.11925311 -0.27675721 1.2772182
-0.11486411 -0.27702522 1.278455
-0.11067063 -0.27780586 1.2820576
-0.10606053 -0.27756265 1.2809353
-0.10164601 -0.27783242 1.2821802
-0.09722288 -0.27810267 1.2834274
-0.092791148 -0.27837345 1.284677
-0.088350765 -0.27864474 1.285929
-0.083901733 -0.27891657 1.2871835
-0.079444014 -0.27918896 1.2884406
-0.074977569 -0.27946183 1.2896999
-0.070502393 -0.2797353 1.2909619
-0.06601844 -0.28000927 1.2922262
-0.16946682 -0.27340648 1.2826102
-0.16433942 -0.27239823 1.2778803
-0.1592502 -0.27139822 1.2731891
-0.15419789 -0.27040499 1.2685295
-0.14918232 -0.26941881 1.2639031
-0.14473094 -0.2694222 1.2639191
-0.14041212 -0.26968041 1.2651304
-0.13608499 -0.26993906 1.2663438
-0.13174956 -0.27019823 1.2675596
-0.12740579 -0.27045792 1.2687778
-0.12305368 -0.2707181 1.2699984
-0.11903768 -0.27176526 1.2749109
-0.11505895 -0.27298298 1.2806236
-0.11093691 -0.27394626 1.2851424
-0.10603468 -0.2729829 1.2806231
-0.10116681 -0.27202633 1.2761356
-0.096763842 -0.27228895 1.2773676
-0.092352606 -0.27255282 1.2786055
-0.087932803 -0.27281716 1.2798456
-0.083504438 -0.27308208 1.2810884
-0.079067446 -0.27334747 1.2823334
-0.074621834 -0.27361339 1.2835809
-0.070167564 -0.27387986 1.2848309
-0.065704606 -0.2741468 1.2860832
-0.061232939 -0.27441427 1.287338
-0.056752533 -0.27468225 1.2885952
-0.18029404 -0.27158216 1.2954645
-0.1750751 -0.27057061 1.2906394
-0.1698949 -0.2695666 1.2858502
-0.16475324 -0.26857033 1.281098
-0.15964985 -0.26758215 1.2763842
-0.1545835 -0.26660052 1.2717018
-0.14955401 -0.2656258 1.2670523
-0.14456119 -0.26465818 1.2624367
-0.13975902 -0.26398927 1.259246
-0.13545144 -0.26424134 1.2604483
-0.13117823 -0.2645798 1.2620629
-0.12729363 -0.26575336 1.2676609
-0.1233744 -0.26693735 1.2733085
-0.1194201 -0.26813191 1.2790067
-0.11543026 -0.26933727 1.2847563
-0.1112045 -0.27006805 1.2882422
-0.10628948 -0.26911592 1.2837005
-0.10140909 -0.26817071 1.2791917
-0.09656284 -0.26723203 1.2747142
-0.091918193 -0.26678696 1.2725911
-0.087518789 -0.26704451 1.2738197
-0.083110884 -0.26730257 1.2750506
-0.078694448 -0.26756114 1.276284
-0.074269466 -0.26782018 1.2775197
-0.069835901 -0.26807976 1.2787578
-0.065393731 -0.26833981 1.2799983
-0.060942937 -0.26860034 1.2812412
-0.0564835 -0.26886147 1.2824867
-0.052015379 -0.26912305 1.2837344
-0.047538556 -0.26938516 1.2849847
-0.18602733 -0.26870614 1.303656
-0.18075405 -0.26769903 1.2987698
-0.17552012 -0.2666994 1.29392
-0.17032516 -0.26570725 1.2891065
-0.16516927 -0.26472333 1.284333
-0.16005149 -0.26374683 1.2795954
-0.15497105 -0.262777 1.2748901
-0.14992759 -0.26181385 1.2702173
-0.14492097 -0.26085776 1.2655787
-0.1399508 -0.25990862 1.2609738
-0.1354562 -0.25980943 1.2604927
-0.1315954 -0.26096037 1.2660766
-0.12770024 -0.26212156 1.2717102
-0.12377027 -0.26329312 1.2773941
-0.11980499 -0.26447517 1.283129
-0.11580396 -0.26566792 1.2889156
-0.11147335 -0.26617107 1.2913568
-0.10654543 -0.26523012 1.2867917
-0.10165253 -0.26429659 1.2822626
-0.096793845 -0.26336929 1.2777637
-0.091969125 -0.26244849 1.2732962
-0.087178022 -0.26153407 1.2688599
-0.082721025 -0.26157728 1.2690696
-0.078324959 -0.26182914 1.2702914
-0.073920414 -0.26208144 1.2715156
-0.06950736 -0.26233426 1.272742
-0.065085799 -0.26258752 1.2739708
-0.060655694 -0.26284134 1.2752023
-0.056217011 -0.26309562 1.2764359
-0.05176973 -0.26335037 1.2776718
-0.047313828 -0.26360559 1.2789102
-0.042849284 -0.26386139 1.2801511
-0.18650497 -0.26479101 1.3070033
-0.18121642 -0.26379603 1.3020921
-0.17596741 -0.26280847 1.2972175
-0.17075786 -0.26182872 1.2923814
-0.16558738 -0.26085684 1.2875842
-0.16045517 -0.25989217 1.2828226
-0.15536055 -0.25893426 1.2780944
-0.15030304 -0.25798282 1.2733982
-0.14528255 -0.25703835 1.2687362
-0.14029869 -0.25610077 1.2641084
-0.13588645 -0.25617936 1.2644963
-0.13201523 -0.25731784 1.2701157
-0.12810947 -0.25846648 1.2757854
-0.12416868 -0.25962541 1.2815059
-0.12019238 -0.26079479 1.2872779
-0.11618008 -0.26197469 1.2931019
-0.11174353 -0.26225522 1.2944866
-0.10680275 -0.26132587 1.2898993
-0.10189708 -0.26040363 1.2853472
-0.097025938 -0.25948796 1.2808275
-0.09218888 -0.25857857 1.2763387
-0.087385602 -0.2576755 1.2718812
-0.082615755 -0.25677869 1.2674546
-0.077958912 -0.25615069 1.2643548
-0.07357461 -0.25639635 1.2655674
-0.069181912 -0.25664258 1.2667828
-0.064780757 -0.25688922 1.2680001
-0.060371134 -0.25713632 1.2692198
-0.055953018 -0.25738388 1.2704418
-0.051526394 -0.25763196 1.2716663
-0.047148712 -0.25819534 1.2744471
-0.042782884 -0.25894904 1.2781674
-0.038391497 -0.25970718 1.2819096
-0.18698508 -0.2608557 1.3103677
-0.18168114 -0.259873 1.3054312
-0.17641699 -0.25889766 1.3005317
-0.17119287 -0.25793058 1.2956737
-0.16600764 -0.25697073 1.2908521
-0.16086088 -0.25601801 1.2860663
-0.15575202 -0.25507215 1.2813148
-0.15068036 -0.25413257 1.276595
-0.14564595 -0.25319988 1.2719097
-0.14064832 -0.25227398 1.2672586
-0.13631943 -0.25252616 1.2685255
-0.13243777 -0.25365198 1.2741809
-0.12852132 -0.25478789 1.279887
-0.12456966 -0.25593403 1.2856444
-0.12058228 -0.25709054 1.2914538
-0.11655864 -0.25825739 1.2973154
-0.112015 -0.2583203 1.2976315
-0.1070613 -0.25740272 1.293022
-0.10214266 -0.25649157 1.2884451
-0.097259156 -0.25558802 1.2839062
-0.0924097 -0.25469014 1.2793959
-0.087594181 -0.25379851 1.274917
-0.082812257 -0.25291312 1.2704693
-0.078063592 -0.25203389 1.2660526
-0.073347829 -0.25116074 1.2616665
-0.06885948 -0.25100392 1.2608787
-0.064478546 -0.25124401 1.2620847
-0.060089231 -0.25148454 1.2632931
-0.055770904 -0.25208449 1.2663068
-0.051458046 -0.2528156 1.2699795
-0.047120105 -0.25355104 1.2736738
-0.042756848 -0.25429073 1.2773895
-0.038368065 -0.2550348 1.2811272
-0.18746766 -0.25690013 1.3137497
-0.18214825 -0.25592983 1.3087876
-0.17686921 -0.2549673 1.3038654
-0.17163005 -0.2540125 1.2989826
-0.16643001 -0.25306481 1.2941364
-0.16126865 -0.25212425 1.2893264
-0.15614545 -0.25119051 1.2845515
-0.15105958 -0.25026289 1.2798078
-0.14601113 -0.24934208 1.2750989
-0.1409997 -0.24842805 1.2704246
-0.13675517 -0.24884957 1.2725803
-0.132863 -0.24996258 1.278272
-0.12893584 -0.25108558 1.2840149
-0.12497324 -0.25221872 1.2898096
-0.1209747 -0.25336209 1.2956567
-0.11693969 -0.2545158 1.3015565
-0.11228781 -0.25436628 1.3007919
-0.10732111 -0.2534605 1.2961599
-0.10238966 -0.25256115 1.2915608
-0.097493216 -0.25166854 1.286996
-0.092631564 -0.25078303 1.2824676
-0.087803759 -0.24990299 1.2779673
-0.083009697 -0.24902909 1.2734983
-0.078249067 -0.24816132 1.2690606
-0.073521487 -0.24729955 1.2646537
-0.068826638 -0.24644376 1.2602773
-0.064283632 -0.24605115 1.2582695
-0.060022771 -0.24676028 1.2618959
-0.055737276 -0.24747349 1.2655432
-0.051426932 -0.24819085 1.2692116
-0.047091529 -0.24891238 1.2729014
-0.042730846 -0.2496381 1.2766126
-0.038344666 -0.25036812 1.2803459
-0.03393276 -0.25110242 1.284101
-0.18795274 -0.25292405 1.317149
-0.18261778 -0.2519663 1.3121613
-0.17732379 -0.2510168 1.3072165
-0.17206952 -0.25007436 1.3023087
-0.16685458 -0.24913901 1.2974377
-0.16167849 -0.24821064 1.292603
-0.15654086 -0.2472892 1.2878044
-0.15144072 -0.24637371 1.2830368
-0.14637819 -0.24546495 1.2783043
-0.14135283 -0.24456285 1.2736064
-0.13719371 -0.24514943 1.2766612
-0.13329098 -0.24624944 1.2823896
-0.12935305 -0.24735932 1.2881696
-0.12537944 -0.24847928 1.2940019
-0.12136967 -0.24960931 1.2998868
-0.11732323 -0.25074965 1.3058254
-0.11256196 -0.25039291 1.3039676
-0.1075822 -0.24949913 1.2993131
-0.10263785 -0.24861167 1.2946914
-0.097728565 -0.24773055 1.2901028
-0.092854582 -0.2468573 1.2855552
-0.08801432 -0.24598876 1.2810321
-0.083208084 -0.24512652 1.2765418
-0.078435414 -0.24427029 1.2720829
-0.073695973 -0.24342003 1.267655
-0.068989411 -0.24257568 1.2632579
-0.064315371 -0.24173708 1.2588907
-0.059986707 -0.24216856 1.2611377
-0.055703696 -0.24286811 1.2647808
-0.051395856 -0.24357167 1.2684447
-0.047062993 -0.24427934 1.27213
-0.042704877 -0.24499114 1.2758368
-0.038321294 -0.24570712 1.2795655
-0.033912018 -0.24642731 1.283316
-0.18844034 -0.24892737 1.3205661
-0.18309014 -0.24798284 1.3155553
-0.1777807 -0.24704592 1.3105849
-0.17251123 -0.24611601 1.3056518
-0.16728128 -0.24519311 1.3007557
-0.16209044 -0.24427712 1.2958964
-0.15693824 -0.243368 1.2910734
-0.15182379 -0.24246486 1.2862823
-0.14674707 -0.24156825 1.2815257
-0.14170776 -0.24067827 1.2768043
-0.13763508 -0.24142547 1.2807683
-0.13372171 -0.24251226 1.2865337
-0.12977295 -0.24360886 1.2923512
-0.1257883 -0.24471542 1.2982216
-0.12176724 -0.24583197 1.3041449
-0.1177093 -0.24695873 1.3101224
-0.11283744 -0.24640012 1.3071589
-0.10784454 -0.24551843 1.3024815
-0.10288725 -0.24464302 1.2978375
-0.097965188 -0.24377385 1.2932265
-0.0930783 -0.24291165 1.2886525
-0.088225916 -0.24205571 1.2841117
-0.083407417 -0.24120523 1.2795999
-0.078622662 -0.24036069 1.2751197
-0.073871292 -0.23952205 1.2706707
-0.069152661 -0.23868823 1.2662472
-0.064467274 -0.23786201 1.2618641
-0.059950691 -0.23758236 1.2603805
-0.05567015 -0.23826824 1.2640191
-0.05136482 -0.23895808 1.2676787
-0.047034483 -0.2396519 1.2713594
-0.042678941 -0.24034983 1.275062
-0.038297951 -0.24105182 1.2787861
-0.033891298 -0.24175793 1.282532
-0.029458752 -0.24246819 1.2862999
-0.18893053 -0.24490994 1.3240012
-0.18356492 -0.24397868 1.3189667
-0.17823997 -0.24305451 1.3139706
-0.17295521 -0.2421373 1.3090121
-0.16771019 -0.24122699 1.3040909
-0.16250446 -0.24032351 1.2992066
-0.15733762 -0.23942681 1.294359
-0.15220881 -0.23853619 1.2895442
-0.14711782 -0.23765188 1.2847636
-0.14206445 -0.2367741 1.2800182
-0.1380793 -0.23767748 1.284902
-0.13415524 -0.23875086 1.2907047
-0.13019559 -0.23983398 1.2965602
-0.1261998 -0.24092689 1.3024685
-0.12216741 -0.24202977 1.3084308
-0.11809791 -0.24314275 1.3144476
-0.11311426 -0.24238771 1.3103658
-0.10810819 -0.24151827 1.3056656
-0.10313787 -0.24065502 1.3009988
-0.098202959 -0.23979792 1.2963653
-0.093303181 -0.23894718 1.291766
-0.0884386 -0.23810393 1.2872074
-0.083607711 -0.23726512 1.2826728
-0.078810796 -0.23643239 1.2781709
-0.074047439 -0.23560548 1.2737006
-0.069317013 -0.23478343 1.2692565
-0.064619899 -0.23396859 1.2648515
-0.059955165 -0.23315896 1.2604746
-0.055636648 -0.23367393 1.2632585
-0.051333815 -0.23435003 1.2669135
-0.047006015 -0.23503008 1.2705899
-0.042653032 -0.23571412 1.2742879
-0.038274635 -0.23640215 1.2780075
-0.033870604 -0.23709424 1.2817489
-0.02944071 -0.23779036 1.2855122
-0.18942361 -0.24087198 1.3274566
-0.18404219 -0.23995373 1.322396
-0.17870162 -0.23904243 1.3173739
-0.17340147 -0.23813802 1.3123896
-0.16814129 -0.23724045 1.307443
-0.16292062 -0.23634964 1.3025337
-0.15773904 -0.23546551 1.2976613
-0.15259576 -0.23458752 1.2928226
-0.14749046 -0.23371564 1.2880176
-0.14242585 -0.23285496 1.2832744
-0.13852639 -0.23390523 1.2890625
-0.13459159 -0.23496498 1.2949028
-0.13062099 -0.23603441 1.3007965
-0.12661402 -0.23711352 1.3067435
-0.12257021 -0.23820248 1.3127449
-0.11844818 -0.23921886 1.3183461
-0.11339246 -0.23835556 1.3135885
-0.1083731 -0.23749848 1.3088651
-0.10338971 -0.23664756 1.3041756
-0.098441899 -0.23580268 1.2995194
-0.093529291 -0.23496383 1.2948965
-0.088651992 -0.23413219 1.2903132
-0.083808966 -0.23330604 1.2857603
-0.078999832 -0.23248522 1.2812368
-0.07422445 -0.23167026 1.2767454
-0.069481984 -0.23085949 1.2722772
-0.064773239 -0.23005667 1.2678529
-0.060096949 -0.22925873 1.2634554
-0.055603184 -0.22908512 1.2624986
-0.051302854 -0.22974756 1.2661494
-0.04697758 -0.23041384 1.2698213
-0.042627156 -0.23108406 1.2735149
-0.038251348 -0.23175816 1.2772299
-0.033849936 -0.23243622 1.2809668
-0.029422695 -0.23311828 1.2847255
-0.18452191 -0.23590776 1.3258431
-0.17916568 -0.23500952 1.3207948
-0.17385007 -0.23411809 1.3157848
-0.16857462 -0.23323336 1.3108125
-0.16333893 -0.23235539 1.305878
-0.15814251 -0.23148397 1.3009806
-0.15298471 -0.23061873 1.2961178
-0.147865 -0.22975945 1.2912885
-0.14288642 -0.22907189 1.2874242
-0.1389764 -0.23010845 1.29325
-0.13503079 -0.23115441 1.2991284
-0.13104916 -0.23220992 1.3050605
-0.12703095 -0.23327503 1.3110466
-0.12297569 -0.23434991 1.3170877
-0.11874127 -0.23515427 1.3216083
-0.11367203 -0.23430356 1.3168272
-0.10863933 -0.23345898 1.3120805
-0.10364278 -0.23262045 1.3073678
-0.098681994 -0.23178795 1.302689
-0.093756601 -0.23096137 1.2980435
-0.088866904 -0.2301425 1.2934413
-0.084011145 -0.22932772 1.2888621
-0.079189785 -0.2285191 1.2843175
-0.074401766 -0.22771449 1.2797954
-0.069647849 -0.22691719 1.2753145
-0.06492731 -0.22612615 1.2708687
-0.060239401 -0.22533998 1.2664503
-0.05558398 -0.22455928 1.2620625
-0.051271927 -0.22515063 1.2653861
-0.046949182 -0.22580321 1.2690537
-0.042601313 -0.22645961 1.2727427
-0.038228091 -0.22711983 1.2764534
-0.033829294 -0.2277839 1.2801856
-0.029404698 -0.22845189 1.2839397
-0.024954075 -0.22912379 1.2877159
-0.18500417 -0.23184069 1.3293083
-0.17963216 -0.23095563 1.3242337
-0.17430097 -0.23007728 1.3191974
-0.16901019 -0.22920559 1.3141994
-0.16375938 -0.22834055 1.3092395
-0.15854804 -0.22748199 1.3043168
-0.15337563 -0.22662966 1.2994298
-0.14824142 -0.22578308 1.2945757
-0.14334999 -0.22526428 1.2916011
-0.13942932 -0.22628692 1.2974646
-0.13547288 -0.2273189 1.3033817
-0.13148014 -0.22836025 1.3093525
-0.12745063 -0.22941114 1.315378
-0.12338387 -0.23047176 1.3214593
-0.1190358 -0.23106951 1.3248866
-0.11395296 -0.23023151 1.3200817
-0.10890686 -0.22939955 1.3153116
-0.10389709 -0.22857359 1.3105757
-0.098923273 -0.22775358 1.305874
-0.093985006 -0.22693941 1.3012058
-0.089081928 -0.22613105 1.2965709
-0.08421424 -0.22533 1.2919779
-0.079594955 -0.22514001 1.2908885
-0.075708613 -0.22712584 1.3022747
-0.069814511 -0.22295603 1.2783662
-0.065082125 -0.22217691 1.273899
-0.060382538 -0.22140263 1.2694595
-0.055715591 -0.22063375 1.2650509
-0.05124104 -0.22055927 1.2646239
-0.046920817 -0.22119813 1.2682869
-0.042575501 -0.22184075 1.2719716
-0.03820486 -0.22248712 1.2756777
-0.033808675 -0.22313726 1.2794054
-0.029386725 -0.22379121 1.283155
-0.024950532 -0.22455479 1.287533
-0.18010104 -0.22688054 1.3276902
-0.17475422 -0.22601546 1.3226279
-0.16944803 -0.22515698 1.3176041
-0.16418199 -0.22430497 1.3126183
-0.15895569 -0.22345944 1.3076702
-0.15376857 -0.22262016 1.3027588
-0.14861977 -0.22178642 1.2978798
-0.14381659 -0.22143188 1.2958051
-0.1398852 -0.22244041 1.3017069
-0.13591786 -0.22345819 1.3076628
-0.13191397 -0.22448517 1.3136728
-0.12787311 -0.22552165 1.3197381
-0.12379476 -0.22656776 1.3258599
-0.11933182 -0.22696444 1.3281813
-0.1142353 -0.22613928 1.3233525
-0.10917572 -0.2253201 1.3185587
-0.10415266 -0.22450684 1.3137995
-0.099165715 -0.22369941 1.3090745
-0.094214529 -0.2228978 1.3043835
-0.089298695 -0.22210188 1.2997259
-0.084418431 -0.22131318 1.2951105
-0.080238789 -0.22237608 1.3013304
-0.07600037 -0.22339503 1.3072933
-0.071686499 -0.22430936 1.3126439
-0.065237679 -0.21820877 1.2769437
-0.060526352 -0.21744652 1.272483
-0.055847824 -0.21668956 1.2680533
-0.051210191 -0.21597342 1.2638625
-0.04689249 -0.21659864 1.2675213
-0.042549718 -0.2172275 1.2712014
-0.038181659 -0.21786004 1.2749029
-0.033801537 -0.21858327 1.2791352
-0.029444482 -0.21970113 1.2856768
-0.025042621 -0.2208304 1.2922852
-0.18057241 -0.22278413 1.3311651
-0.17520984 -0.22193246 1.3260761
-0.16988812 -0.22108729 1.3210262
-0.16460681 -0.22024855 1.3160146
-0.15936542 -0.21941614 1.3110409
-0.15416348 -0.21859002 1.3061047
-0.14900006 -0.21776931 1.3012009
-0.14428622 -0.21757446 1.3000365
-0.1403441 -0.21856867 1.3059771
-0.13636576 -0.21957198 1.311972
-0.13235067 -0.22058445 1.3180217
-0.12829839 -0.22160631 1.3241274
-0.12420838 -0.22263765 1.3302898
-0.11962929 -0.22283888 1.3314922
-0.11451905 -0.22202674 1.3266395
-0.1094459 -0.22122045 1.3218218
-0.10440948 -0.22042002 1.3170391
-0.099409372 -0.21962535 1.3122909
-0.094445184 -0.21883641 1.3075769
-0.089516535 -0.2180531 1.3028965
-0.08468359 -0.21743083 1.2991784
-0.080431335 -0.21831362 1.3044531
-0.076114967 -0.21911885 1.3092645
-0.07174357 -0.21985933 1.313689
-0.067323752 -0.22054332 1.317776
-0.060670711 -0.21347101 1.2755179
-0.05598069 -0.21272662 1.2710701
-0.051323149 -0.21198693 1.2666503
-0.046864189 -0.21200466 1.2667563
-0.042537831 -0.21268916 1.2708462
-0.038253542 -0.21376979 1.2773032
-0.033925489 -0.21486144 1.2838259
-0.029553009 -0.2159643 1.2904156
-0.025135381 -0.2170783 1.2970719
-0.17566782 -0.21782811 1.3295425
-0.17033051 -0.2169964 1.3244661
-0.16503382 -0.21617106 1.3194284
-0.15977725 -0.21535194 1.3144289
-0.15456039 -0.21453905 1.3094673
-0.14938231 -0.2137316 1.304539
-0.14475894 -0.21369176 1.3042958
-0.14080599 -0.21467143 1.3102753
-0.13681661 -0.21566007 1.3163096
-0.13279027 -0.21665782 1.3223995
-0.1287265 -0.21766481 1.3285458
-0.1246248 -0.21868126 1.3347498
-0.11992828 -0.21869273 1.3348199
-0.11480419 -0.21789367 1.3299427
-0.10971744 -0.21710047 1.3251013
-0.10466758 -0.216313 1.3202949
-0.09965422 -0.21553122 1.3155231
-0.094677515 -0.21475631 1.3107934
-0.089735776 -0.21398531 1.3060875
-0.084829628 -0.21322042 1.3014189
-0.080494471 -0.21388531 1.3054771
-0.076129206 -0.21454595 1.3095094
-0.071717799 -0.2151534 1.313217
-0.067263797 -0.21570805 1.3166025
-0.060816225 -0.20947811 1.2785772
-0.056114089 -0.20874441 1.274099
-0.051445168 -0.20801741 1.2696617
-0.046948597 -0.20791522 1.2690378
-0.042692807 -0.20897005 1.2754762
-0.038393613 -0.21003565 1.2819803
-0.034050357 -0.2111122 1.2885511
-0.029662319 -0.21219966 1.2951885
-0.025228836 -0.21329834 1.3018944
-0.17612822 -0.21370225 1.333027
-0.17077522 -0.21288419 1.3279241
-0.16546305 -0.21207236 1.3228601
-0.16019125 -0.21126671 1.3178347
-0.15495934 -0.21046716 1.3128473
-0.14976652 -0.20967312 1.3078942
-0.14523475 -0.20978352 1.3085829
-0.14127095 -0.21074846 1.314602
-0.13727044 -0.21172221 1.320676
-0.1332328 -0.212705 1.3268064
-0.12915748 -0.21369693 1.3329939
-0.125044 -0.21469818 1.3392395
-0.12022874 -0.21452579 1.3381641
-0.11509077 -0.21374001 1.3332626
-0.10999032 -0.21295998 1.3283969
-0.10492732 -0.21218637 1.3235713
-0.09990073 -0.21141782 1.3187773
-0.094910502 -0.21065502 1.3140191
-0.089955665 -0.20989655 1.3092879
-0.085036941 -0.20914492 1.3045994
-0.080465391 -0.20921002 1.3050056
-0.076061636 -0.20974572 1.3083471
-0.071615085 -0.21022493 1.3113363
-0.067127526 -0.21064155 1.313935
-0.060962059 -0.20546472 1.2816432
-0.056247979 -0.20474266 1.2771391
-0.051567532 -0.20402806 1.2726816
-0.047119394 -0.20418404 1.2736546
-0.042848915 -0.20522375 1.28014
-0.038534719 -0.20627408 1.2866918
-0.034176126 -0.20733517 1.2933106
-0.02977244 -0.20840707 1.299997
-0.17122225 -0.20875041 1.3314002
-0.16589452 -0.20795229 1.3263098
-0.16060737 -0.20716023 1.3212581
-0.15536034 -0.2063742 1.3162447
-0.1501527 -0.20559371 1.3112668
-0.14571369 -0.2058495 1.3128983
-0.14173895 -0.20679945 1.318957
-0.13772731 -0.20775814 1.3250715
-0.13367829 -0.20872575 1.3312428
-0.12959138 -0.20970242 1.337472
-0.12546605 -0.21068826 1.3437597
-0.12053071 -0.21033791 1.3415251
-0.11537892 -0.2095658 1.3366007
-0.11026493 -0.20879956 1.3317136
-0.10518791 -0.20803832 1.3268584
-0.10014808 -0.20728324 1.3220426
-0.095144577 -0.20653334 1.3172598
-0.090177134 -0.20578885 1.3125114
-0.085245393 -0.20504972 1.3077973
-0.08035136 -0.20432203 1.3031561
-0.075910106 -0.20472725 1.3057406
-0.071425177 -0.20505938 1.3078589
-0.066892371 -0.20529039 1.3093323
-0.061107915 -0.2014298 1.2847096
-0.05638276 -0.20072262 1.2801993
-0.051690664 -0.20002039 1.2757205
-0.047291439 -0.20042562 1.2783051
-0.043006167 -0.20144995 1.2848381
-0.038676865 -0.20248476 1.2914381
-0.03430282 -0.20353006 1.298105
-0.029883381 -0.20458622 1.3048412
-0.17167163 -0.20459495 1.3348944
-0.16632824 -0.20381066 1.3297772
-0.16102567 -0.20303237 1.3246993
-0.15576345 -0.20225999 1.3196598
-0.15054089 -0.20149319 1.3146567
-0.14619583 -0.20188949 1.3172424
-0.14221007 -0.20282419 1.323341
-0.13818721 -0.2037676 1.3294963
-0.13412677 -0.2047198 1.335709
-0.13002819 -0.20568095 1.3419801
-0.12589094 -0.20665117 1.3483104
-0.12083434 -0.20612916 1.3449045
-0.1156685 -0.2053706 1.3399552
-0.11054055 -0.2046176 1.3350422
-0.10545005 -0.20387009 1.330165
-0.10039663 -0.20312805 1.3253236
-0.095379844 -0.20239139 1.3205171
-0.090399317 -0.20166002 1.3157452
-0.085454658 -0.20093393 1.3110079
-0.080545388 -0.20021282 1.3063029
-0.075671479 -0.19949754 1.301636
-0.071094193 -0.19952242 1.3017983
-0.066423982 -0.19927195 1.3001641
-0.061255578 -0.19737908 1.287814
-0.056518186 -0.19668329 1.2832742
-0.051814385 -0.19599354 1.2787739
-0.047464747 -0.19663967 1.2829896
-0.043164577 -0.19764833 1.2895707
-0.038820036 -0.19866724 1.2962186
-0.034430455 -0.19969665 1.3029351
-0.029995155 -0.20073681 1.3097217
-0.16144615 -0.19888294 1.3281584
-0.15616864 -0.19812439 1.3230927
-0.15093109 -0.19737142 1.3180643
-0.14668114 -0.19790313 1.3216151
-0.14268433 -0.19882242 1.3277543
-0.13865021 -0.19975029 1.3339506
-0.13457826 -0.20068687 1.3402052
-0.11595945 -0.20115416 1.3433257
-0.11081758 -0.20041478 1.3383881
-0.10571335 -0.19968078 1.3334864
-0.1006464 -0.19895218 1.3286208
-0.095616281 -0.19822887 1.3237904
-0.090622596 -0.19751078 1.318995
-0.085664958 -0.19679788 1.3142341
-0.080742739 -0.19608951 1.3095036
-0.075856246 -0.1953873 1.3048142
-0.071004622 -0.19469009 1.3001581
-0.066186614 -0.19399525 1.2955179
-0.06140345 -0.19330715 1.2909228
-0.056654267 -0.19262449 1.286364
-0.051938694 -0.19194736 1.2818419
-0.047639325 -0.19282584 1.2877085
-0.043324146 -0.19381854 1.2943379
-0.038964272 -0.19482136 1.3010348
-0.034559049 -0.19583461 1.3078014
-0.030107765 -0.19685847 1.3146387
-0.15657595 -0.19396722 1.3265436
-0.15132332 -0.19322823 1.3214896
-0.14716966 -0.1938902 1.3260168
-0.14316176 -0.19479387 1.332197
-0.10597798 -0.19547051 1.3368245
-0.10089742 -0.19475548 1.3319345
-0.09585388 -0.19404566 1.32708
-0.090846971 -0.19334099 1.3222607
-0.085876293 -0.19264142 1.3174764
-0.080941357 -0.19194664 1.3127248
-0.076042108 -0.19125742 1.3080112
-0.071177833 -0.1905729 1.3033298
-0.066348076 -0.18989278 1.2986784
-0.061552338 -0.18921645 1.294053
-0.056790993 -0.18854609 1.2894684
-0.052101173 -0.18801728 1.2858518
-0.047815196 -0.18898387 1.2924623
-0.043484878 -0.18996026 1.2991399
-0.03910958 -0.19094679 1.3058867
-0.1011497 -0.19053781 1.3352648
-0.096092671 -0.18984163 1.330386
-0.09107247 -0.18915051 1.3255428
-0.08608868 -0.18846442 1.3207347
-0.081140809 -0.18778302 1.3159596
-0.076228403 -0.18710609 1.3112158
-0.071351886 -0.18643558 1.3065169
-0.066509746 -0.1857686 1.3018428
-0.061702125 -0.18510637 1.297202
-0.056928534 -0.18444845 1.2925913
-0.052293237 -0.18416314 1.290592
-0.047992334 -0.1851133 1.2972505
-0.091299079 -0.18493916 1.3288411
-0.086302117 -0.18426669 1.3240092
-0.081341363 -0.18359907 1.3192122
-0.07641647 -0.18293639 1.3144506
-0.071526796 -0.18227798 1.3097197
-0.066672206 -0.18162428 1.3050227
-0.061852295 -0.18097523 1.3003591
-0.05706672 -0.18033083 1.2957289
-0.086516611 -0.18004808 1.3272998
-0.081542797 -0.17939416 1.3224791
-0.07660494 -0.17874485 1.3176925
-0.071702562 -0.17809992 1.3129381
