# .PCD v0.7 - Point Cloud Data file format
VERSION 0.7
FIELDS x y z
SIZE 4 4 4
TYPE F F F
COUNT 1 1 1
WIDTH 1357
HEIGHT 1
VIEWPOINT 0 0 0 1 0 0 0
POINTS 1357
DATA ascii
-0.30438152 -0.053714383 0.92394882
-0.30160877 -0.053800486 0.92542988
-0.29882711 -0.053886857 0.92691559
-0.29603648 -0.053973503 0.928406
-0.29323691 -0.054060433 0.9299013
-0.29042786 -0.054147568 0.93140006
-0.28760973 -0.054234978 0.93290365
-0.2847825 -0.054322675 0.93441212
-0.28194609 -0.054410651 0.93592542
-0.27910048 -0.054498907 0.93744355
-0.27624562 -0.054587461 0.93896675
-0.2733815 -0.054676302 0.94049489
-0.27050805 -0.054765429 0.94202805
-0.3272236 -0.05046732 0.92410177
-0.32337031 -0.050374266 0.92239791
-0.31953126 -0.050281566 0.92070049
-0.31570625 -0.050189201 0.91900915
-0.31189504 -0.05009713 0.91732329
-0.30809778 -0.050005399 0.91564357
-0.30443415 -0.049933646 0.91432971
-0.30169037 -0.050012842 0.91577989
-0.29893789 -0.050092295 0.91723472
-0.29617667 -0.050172001 0.91869426
-0.29340661 -0.050251957 0.92015833
-0.29062772 -0.050332174 0.92162716
-0.28783968 -0.050412599 0.92309982
-0.28504258 -0.050493259 0.92457676
-0.28223652 -0.050574172 0.92605835
-0.27942145 -0.05065535 0.92754477
-0.27659729 -0.050736785 0.9290359
-0.27376404 -0.050818473 0.93053174
-0.27092168 -0.050900437 0.93203253
-0.26854068 -0.05107215 0.93517679
-0.26630002 -0.05127516 0.93889403
-0.33151862 -0.047359802 0.92700726
-0.32764527 -0.047272205 0.92529267
-0.32378626 -0.047184933 0.9235844
-0.31994146 -0.047097981 0.92188245
-0.31611118 -0.047011405 0.92018783
-0.3122943 -0.046925049 0.91849756
-0.30849144 -0.046839014 0.91681349
-0.30470249 -0.046753291 0.91513562
-0.30092743 -0.046667889 0.91346395
-0.29716608 -0.046582792 0.9117983
-0.29357281 -0.046522468 0.91061753
-0.29082304 -0.046595961 0.91205603
-0.2880646 -0.046669681 0.91349906
-0.2852973 -0.046743624 0.91494638
-0.28252086 -0.046817742 0.91639715
-0.27973565 -0.046892107 0.9178527
-0.2769416 -0.046966702 0.91931283
-0.27452356 -0.047107592 0.92207056
-0.27233782 -0.047292199 0.92568403
-0.27013493 -0.047478259 0.92932594
-0.26791465 -0.047665797 0.93299675
-0.26567671 -0.047854811 0.93669647
-0.263421 -0.048045337 0.94042575
-0.3358407 -0.044232678 0.92993098
-0.33194718 -0.04415061 0.92820561
-0.32806805 -0.044068843 0.92648661
-0.32420346 -0.043987405 0.92477447
-0.32035342 -0.043906305 0.92306948
-0.31651703 -0.043825436 0.92136931
-0.31269458 -0.043744836 0.91967481
-0.30888611 -0.04366453 0.91798645
-0.30509162 -0.043584518 0.91630435
-0.30131102 -0.043504797 0.91462833
-0.29754418 -0.04342537 0.91295844
-0.29379112 -0.04334623 0.9112947
-0.29005167 -0.043267377 0.90963691
-0.28632581 -0.04318881 0.90798515
-0.2827993 -0.04313888 0.90693539
-0.280341 -0.043252613 0.90932649
-0.27820811 -0.043419763 0.9128406
-0.27605867 -0.043588214 0.91638201
-0.27389249 -0.043757971 0.91995096
-0.27170935 -0.043929059 0.9235478
-0.26950911 -0.044101492 0.92717302
-0.26729152 -0.04427528 0.93082666
-0.26505634 -0.044450443 0.93450922
-0.26280347 -0.044627003 0.93822116
-0.34019017 -0.041085772 0.93287337
-0.33627626 -0.041009299 0.93113703
-0.33237687 -0.040933114 0.92940718
-0.32849193 -0.040857203 0.92768365
-0.32462206 -0.040781666 0.92596853
-0.32076591 -0.040706333 0.92425805
-0.31692323 -0.040631182 0.92255169
-0.31309593 -0.040556464 0.92085522
-0.30928183 -0.040481914 0.91916251
-0.30548173 -0.040407639 0.917476
-0.30169559 -0.040333632 0.91579568
-0.2979233 -0.040259905 0.91412163
-0.29416475 -0.040186439 0.91245359
-0.29041988 -0.04011324 0.91079158
-0.28668845 -0.040040288 0.9091351
-0.28297088 -0.039967638 0.9074856
-0.27970535 -0.039957907 0.90726465
-0.27757499 -0.040111993 0.91076326
-0.27542803 -0.040267255 0.91428852
-0.27326435 -0.040423717 0.91784114
-0.2710838 -0.040581409 0.92142153
-0.26888618 -0.04074033 0.92502993
-0.26667124 -0.040900499 0.92866665
-0.26443887 -0.041061938 0.93233222
-0.26218879 -0.041224655 0.93602675
-0.25992078 -0.041388661 0.93975061
-0.34851646 -0.037989948 0.93758816
-0.34456724 -0.037918881 0.93583429
-0.34063274 -0.037848081 0.93408692
-0.3367129 -0.037777547 0.93234611
-0.33280766 -0.037707269 0.93061173
-0.32891691 -0.03763726 0.92888385
-0.32504094 -0.037567545 0.9271633
-0.32117912 -0.037498072 0.92544872
-0.31733125 -0.037428815 0.92373949
-0.31349853 -0.037359927 0.92203933
-0.30967852 -0.037291132 0.92034149
-0.30587286 -0.037222624 0.91865069
-0.30208117 -0.037154369 0.91696614
-0.29830331 -0.037086356 0.91528767
-0.29453927 -0.037018597 0.91361535
-0.2907888 -0.036951061 0.91194856
-0.28705215 -0.036883797 0.91028851
-0.28332913 -0.03681678 0.90863448
-0.27961963 -0.036750007 0.90698659
-0.27694449 -0.036819208 0.90869445
-0.27480021 -0.036961433 0.9122045
-0.27263904 -0.037104722 0.91574091
-0.27046111 -0.037249133 0.91930497
-0.26826608 -0.037394665 0.92289668
-0.26605389 -0.037541345 0.92651671
-0.26382425 -0.037689179 0.93016523
-0.26157698 -0.037838183 0.9338426
-0.25931185 -0.037988361 0.93754905
-0.25702873 -0.038139749 0.94128525
-0.34897247 -0.034731857 0.93881494
-0.3450174 -0.034666818 0.9370569
-0.34107694 -0.034602009 0.93530506
-0.33715197 -0.03453752 0.93356186
-0.33323959 -0.034473058 0.9318195
-0.32934299 -0.034408968 0.93008709
-0.32658079 -0.034463301 0.93155569
-0.3260847 -0.034760296 0.93958366
-0.32499421 -0.034999378 0.94604605
-0.3139005 -0.034154978 0.92322159
-0.3100763 -0.034092158 0.92152357
-0.306265 -0.034029443 0.91982841
-0.3024677 -0.033966962 0.91813946
-0.29868349 -0.033904612 0.9164542
-0.29491439 -0.033842638 0.91477895
-0.2911582 -0.033780783 0.91310704
-0.2874167 -0.033719279 0.91144449
-0.28368831 -0.033657935 0.9097864
-0.27997345 -0.033596814 0.90813428
-0.2763167 -0.033541333 0.90663457
-0.2741749 -0.033670601 0.91012877
-0.27201656 -0.033800874 0.9136501
-0.26984125 -0.033932135 0.91719806
-0.26764888 -0.034064401 0.92077333
-0.26543936 -0.03419771 0.92437673
-0.26321247 -0.034332063 0.92800832
-0.26096803 -0.034467477 0.93166858
-0.25870582 -0.034603965 0.93535793
-0.25642562 -0.034741536 0.93907648
-0.34942949 -0.031465214 0.94004434
-0.34546804 -0.031406187 0.93828088
-0.34152198 -0.031347428 0.9365254
-0.33759099 -0.031288922 0.9347775
-0.33367419 -0.031230589 0.93303478
-0.33050194 -0.031241477 0.93336004
-0.32924196 -0.031435162 0.93914658
-0.3278065 -0.031615857 0.94454491
-0.32626647 -0.031790067 0.94974953
-0.3246161 -0.031957027 0.9547376
-0.31047514 -0.030884961 0.92270893
-0.306658 -0.030828051 0.92100871
-0.30285451 -0.030771313 0.91931361
-0.29906574 -0.03071486 0.91762704
-0.29529107 -0.030658634 0.91594726
-0.29152963 -0.030602558 0.91427195
-0.28778219 -0.030546714 0.91260356
-0.28404841 -0.030491073 0.91094124
-0.28032818 -0.030435631 0.90928489
-0.27662146 -0.030380392 0.90763462
-0.27355239 -0.030394711 0.90806234
-0.27139655 -0.030512039 0.91156763
-0.26922405 -0.030630279 0.91510016
-0.2670345 -0.030749429 0.91865981
-0.26482767 -0.030869484 0.92224652
-0.26260355 -0.030990481 0.92586142
-0.26036194 -0.031112434 0.92950481
-0.2581026 -0.031235345 0.93317688
-0.25582531 -0.031359233 0.93687809
-0.25352994 -0.031484112 0.94060892
-0.3498877 -0.028190004 0.94127709
-0.34592077 -0.028137097 0.93951046
-0.34196833 -0.028084354 0.93774939
-0.33803019 -0.028031772 0.93599361
-0.33410779 -0.027979471 0.93424726
-0.33182469 -0.028064774 0.93709558
-0.33024645 -0.028212009 0.94201183
-0.32858235 -0.028354824 0.94678044
-0.32683828 -0.028493593 0.95141405
-0.32502979 -0.028629567 0.95595431
-0.323154 -0.028762398 0.96038955
-0.30705178 -0.027618414 0.92219138
-0.30324298 -0.027567543 0.92049283
-0.29944959 -0.027516991 0.91880482
-0.29566815 -0.027466442 0.917117
-0.29190153 -0.027416166 0.91543823
-0.28814861 -0.02736607 0.91376555
-0.28440943 -0.027316161 0.912099
-0.28068382 -0.02726643 0.91043848
-0.27697176 -0.027216878 0.90878391
-0.27327317 -0.027167508 0.90713549
-0.2707794 -0.027238164 0.9094947
-0.26860943 -0.027343474 0.91301107
-0.26642263 -0.027449604 0.91655475
-0.26421881 -0.027556561 0.92012614
-0.26199746 -0.027664326 0.92372447
-0.25975862 -0.027772935 0.92735094
-0.25750217 -0.027882399 0.93100601
-0.25522786 -0.027992733 0.93469012
-0.25293544 -0.028103938 0.93840331
-0.25062478 -0.028216032 0.94214618
-0.3503471 -0.024906192 0.94251299
-0.34637412 -0.024859386 0.94074172
-0.34241605 -0.024812758 0.93897718
-0.33847195 -0.02476624 0.93721682
-0.33454254 -0.024719892 0.93546289
-0.33244351 -0.024809217 0.93884319
-0.33069298 -0.024926607 0.94328552
-0.32887861 -0.025041519 0.9476341
-0.32700381 -0.025154138 0.95189589
-0.32506892 -0.025264423 0.95606935
-0.32307768 -0.025372593 0.96016276
-0.32103276 -0.025478791 0.96418154
-0.30363286 -0.024355575 0.92167628
-0.29983255 -0.024310747 0.91997981
-0.2960465 -0.024266107 0.91829056
-0.29227436 -0.024221631 0.91660744
-0.28851599 -0.024177317 0.91493052
-0.28477135 -0.024133164 0.91325969
-0.28104034 -0.024089172 0.91159487
-0.27732292 -0.024045341 0.90993619
-0.27361903 -0.024001669 0.90828353
-0.27016503 -0.023979144 0.90743113
-0.26799762 -0.024071643 0.91093153
-0.26581347 -0.024164861 0.91445917
-0.26361233 -0.024258802 0.91801411
-0.26139396 -0.024353474 0.92159677
-0.2591581 -0.024448879 0.92520708
-0.25690451 -0.024545016 0.92884517
-0.25463316 -0.024641918 0.93251216
-0.25234374 -0.024739584 0.93620807
-0.25003612 -0.024838027 0.93993342
-0.35080773 -0.021613747 0.94375217
-0.34682867 -0.021573076 0.94197631
-0.34286454 -0.021532556 0.940207
-0.33891532 -0.021492191 0.9384445
-0.33497953 -0.02145189 0.93668485
-0.33263767 -0.021513879 0.93939149
-0.33076182 -0.021607555 0.94348186
-0.32883033 -0.021699462 0.94749492
-0.3268438 -0.021789586 0.95143014
-0.32480383 -0.021877978 0.95528966
-0.32270837 -0.021964444 0.95906514
-0.32055476 -0.02204874 0.9627459
-0.30402175 -0.021135202 0.92285681
-0.30021742 -0.021096358 0.9211607
-0.29642582 -0.021057572 0.91946709
-0.29264814 -0.021018926 0.91777968
-0.28888425 -0.020980421 0.91609836
-0.28513417 -0.020942058 0.91442329
-0.28139779 -0.020903835 0.9127543
-0.277675 -0.020865751 0.91109139
-0.27396578 -0.020827807 0.90943456
-0.27026999 -0.02079 0.90778375
-0.26738858 -0.020814681 0.9088614
-0.26520708 -0.020895103 0.91237301
-0.26300859 -0.020976145 0.91591167
-0.260793 -0.02105782 0.91947794
-0.25856012 -0.021140136 0.92307222
-0.25630966 -0.021223092 0.92669451
-0.25404119 -0.021306681 0.93034434
-0.25175482 -0.021390932 0.93402308
-0.2494503 -0.021475853 0.93773115
-0.24712738 -0.021561449 0.94146866
-0.35126954 -0.018312631 0.94499457
-0.34728438 -0.018278126 0.943214
-0.3433142 -0.018243751 0.94144011
-0.33935896 -0.018209506 0.93967295
-0.33541852 -0.018175388 0.9379124
-0.33250085 -0.018196562 0.93900508
-0.3305198 -0.018269937 0.94279146
-0.32848579 -0.018341847 0.94650221
-0.32639983 -0.018412299 0.95013779
-0.32424918 -0.018480523 0.9536584
-0.32204413 -0.018547045 0.95709115
-0.31977442 -0.018611209 0.96040225
-0.30441445 -0.017906733 0.92404884
-0.30060324 -0.017873706 0.92234457
-0.29680607 -0.017840803 0.92064661
-0.29302284 -0.017808018 0.91895479
-0.28925347 -0.017775353 0.91726923
-0.28549793 -0.017742811 0.91558987
-0.28175613 -0.017710386 0.91391665
-0.27802798 -0.01767808 0.91224957
-0.27431336 -0.017645888 0.91058838
-0.27061227 -0.017613817 0.9089334
-0.26692462 -0.017581861 0.90728438
-0.26460344 -0.017640229 0.91029632
-0.26240763 -0.017708492 0.9138189
-0.26019481 -0.017777286 0.91736895
-0.25796473 -0.017846616 0.9209466
-0.25571716 -0.017916488 0.92455226
-0.25345194 -0.017986912 0.92818642
-0.25116864 -0.018057875 0.93184835
-0.24886715 -0.018129395 0.93553901
-0.24654739 -0.018201485 0.93925905
-0.35173258 -0.015002812 0.94624025
-0.34774134 -0.014974507 0.94445503
-0.34376511 -0.014946309 0.94267654
-0.33980379 -0.014918215 0.94090462
-0.33585736 -0.014890228 0.93913949
-0.33207807 -0.014869167 0.9378112
-0.32999298 -0.014924306 0.94128883
-0.32785118 -0.014977972 0.9446736
-0.32564944 -0.015029974 0.9479534
-0.32338604 -0.015080178 0.95111978
-0.32104671 -0.015127856 0.95412689
-0.31863323 -0.015173011 0.95697486
-0.30480522 -0.014669769 0.92523497
-0.30098969 -0.014642742 0.92353034
-0.2971873 -0.014615769 0.9218291
-0.29339853 -0.014588877 0.92013299
-0.28962368 -0.014562083 0.91844314
-0.28586265 -0.014535389 0.91675949
-0.28211543 -0.014508793 0.91508204
-0.27838182 -0.014482291 0.91341054
-0.27466187 -0.014455887 0.91174525
-0.27095544 -0.01442958 0.91008604
-0.26726252 -0.014403368 0.90843284
-0.26400253 -0.014400138 0.90822905
-0.26180944 -0.014455736 0.91173565
-0.25959936 -0.014511765 0.91526949
-0.25737205 -0.014568229 0.91883075
-0.2551274 -0.014625137 0.92241997
-0.25286508 -0.014682489 0.92603719
-0.25058496 -0.014740292 0.92968291
-0.24828674 -0.014798547 0.93335712
-0.24597009 -0.014857254 0.93705976
-0.24363501 -0.014916429 0.94079202
-0.35219684 -0.011684256 0.9474892
-0.34819946 -0.011662182 0.94569927
-0.34421712 -0.011640193 0.94391608
-0.34024978 -0.011618285 0.94213957
-0.3362956 -0.0115964 0.9403649
-0.33235776 -0.011574648 0.93860102
-0.3291654 -0.011578682 0.93892813
-0.32689539 -0.011615572 0.94191957
-0.32455921 -0.011650844 0.94477975
-0.32213444 -0.011683633 0.94743866
-0.31961444 -0.011713618 0.94987029
-0.31697074 -0.011739657 0.95198178
-0.30520061 -0.011424622 0.92643517
-0.30137724 -0.011403463 0.92471939
-0.2975693 -0.011382432 0.92301399
-0.2937752 -0.011361471 0.9213143
-0.28999481 -0.011340579 0.9196201
-0.2862283 -0.011319763 0.91793209
-0.28247556 -0.011299022 0.91625023
-0.27873659 -0.011278359 0.91457462
-0.27501127 -0.011257771 0.9129051
-0.27129951 -0.011237258 0.91124165
-0.26760125 -0.011216818 0.90958422
-0.2639164 -0.011196454 0.90793282
-0.26121396 -0.011217777 0.90966195
-0.25900659 -0.011261157 0.91317964
-0.25678211 -0.011304873 0.91672462
-0.25454029 -0.01134893 0.92029732
-0.25228092 -0.011393333 0.92389792
-0.25000381 -0.011438084 0.92752683
-0.24770875 -0.011483187 0.93118435
-0.24539551 -0.011528648 0.93487084
-0.24306363 -0.011574458 0.93858564
-0.2407131 -0.011620632 0.94232994
-0.22121246 -0.012003777 0.97339952
-0.21868402 -0.012053451 0.9774276
-0.35266235 -0.0083569279 0.94874156
-0.3486588 -0.0083411196 0.94694686
-0.34467036 -0.008325371 0.94515896
-0.34069574 -0.0083096521 0.9433744
-0.33673695 -0.0082940133 0.94159901
-0.3327944 -0.0082784677 0.93983412
-0.32886472 -0.0082629323 0.93807048
-0.32553014 -0.0082621863 0.93798578
-0.32298627 -0.0082816994 0.94020104
-0.3202897 -0.0082976604 0.94201303
-0.31737441 -0.0083082309 0.94321305
-0.30943596 -0.0081861364 0.92935199
-0.30559456 -0.0081709772 0.92763102
-0.30176681 -0.00815586 0.92591476
-0.2979511 -0.0081407409 0.92419833
-0.29415262 -0.0081257625 0.92249793
-0.29036689 -0.0081108073 0.92080003
-0.28659484 -0.0080958996 0.91910762
-0.28283668 -0.0080810478 0.91742152
-0.27909225 -0.00806625 0.91574162
-0.27536154 -0.0080515062 0.9140678
-0.27164444 -0.0080368174 0.91240019
-0.26794082 -0.0080221808 0.91073847
-0.26425073 -0.0080075972 0.90908289
-0.26062116 -0.007994514 0.9075976
-0.25841656 -0.0080253584 0.91109931
-0.25619489 -0.0080564432 0.91462827
-0.25395593 -0.0080877682 0.91818452
-0.25169948 -0.0081193382 0.92176855
-0.24942538 -0.0081511559 0.92538077
-0.24713334 -0.0081832232 0.9290213
-0.24482323 -0.0082155447 0.93269062
-0.24249479 -0.0082481224 0.93638909
-0.24014767 -0.0082809543 0.94011641
-0.22566271 -0.0084835608 0.96311784
-0.22317934 -0.0085182954 0.96706122
-0.22067553 -0.008553315 0.97103685
-0.21815106 -0.0085886251 0.9750455
-0.35312909 -0.0050207926 0.94999713
-0.34911934 -0.0050112824 0.94819766
-0.34512383 -0.0050017945 0.94640243
-0.34114498 -0.0049923654 0.94461834
-0.33718005 -0.0049829562 0.94283801
-0.33322966 -0.0049735769 0.94106334
-0.32929429 -0.0049642357 0.93929583
-0.32537398 -0.0049549337 0.93753576
-0.32146823 -0.0049456651 0.93578207
-0.31757623 -0.0049364185 0.93403244
-0.31370059 -0.0049272343 0.93229473
-0.30983898 -0.0049180789 0.93056244
-0.30598971 -0.0049089259 0.92883056
-0.30215651 -0.0048998352 0.92711043
-0.29833698 -0.0048907702 0.92539525
-0.29453138 -0.0048817354 0.92368573
-0.29073861 -0.0048727137 0.92197877
-0.28696236 -0.0048637688 0.92028624
-0.28319871 -0.0048548351 0.91859585
-0.27944884 -0.0048459335 0.9169116
-0.2757127 -0.004837065 0.91523355
-0.27199018 -0.0048282281 0.91356152
-0.26828131 -0.0048194244 0.91189575
-0.26458588 -0.0048106522 0.91023594
-0.26090389 -0.0048019122 0.90858221
-0.25782919 -0.0048042703 0.90902841
-0.25561035 -0.0048228363 0.91254133
-0.25337422 -0.0048415456 0.91608131
-0.25112069 -0.0048604007 0.91964895
-0.24884957 -0.0048794034 0.92324448
-0.2465606 -0.0048985551 0.92686826
-0.24425361 -0.0049178582 0.93052059
-0.24192835 -0.004937313 0.93420178
-0.23958462 -0.0049569234 0.93791223
-0.23722216 -0.0049766889 0.94165212
-0.23001994 -0.0050369329 0.95305109
-0.22758028 -0.0050573396 0.95691228
-0.22512077 -0.005077912 0.96080482
-0.22264116 -0.0050986526 0.96472919
-0.2201412 -0.0051195626 0.96868569
-0.21762069 -0.0051406459 0.97267491
-0.21507929 -0.0051619029 0.97669697
-0.35359707 -0.0016758154 0.9512561
-0.34958026 -0.0016726328 0.94944948
-0.34557986 -0.0016694679 0.947653
-0.34159356 -0.0016663101 0.94586051
-0.3376227 -0.001663166 0.94407576
-0.33366677 -0.0016600337 0.94229776
-0.32972571 -0.0016569131 0.94052643
-0.32579941 -0.0016538042 0.93876165
-0.3218886 -0.0016507108 0.93700576
-0.31799069 -0.0016476201 0.93525136
-0.31410789 -0.0016445438 0.93350518
-0.31023958 -0.0016414792 0.93176556
-0.30638757 -0.0016384363 0.93003827
-0.3025476 -0.0016353924 0.92831045
-0.29872212 -0.0016323613 0.92658991
-0.294911 -0.0016293426 0.92487633
-0.29111397 -0.001626335 0.92316914
-0.28733012 -0.001623334 0.92146564
-0.28356126 -0.0016203501 0.91977185
-0.27980635 -0.0016173777 0.91808462
-0.27606475 -0.0016144137 0.91640216
-0.27233687 -0.0016114608 0.91472596
-0.26862261 -0.0016085187 0.9130559
-0.2649219 -0.0016055872 0.91139191
-0.26123464 -0.0016026666 0.90973401
-0.25756076 -0.0015997562 0.90808201
-0.25502843 -0.0016039524 0.91046387
-0.25279516 -0.0016101603 0.91398776
-0.25054458 -0.0016164167 0.91753912
-0.24827644 -0.0016227218 0.92111814
-0.2459905 -0.0016290762 0.92472512
-0.24368663 -0.0016354807 0.92836058
-0.24136454 -0.0016419357 0.93202466
-0.23902406 -0.0016484418 0.93571776
-0.23666498 -0.0016549998 0.93944037
-0.23428699 -0.0016616099 0.94319248
-0.23188983 -0.0016682721 0.94697422
-0.22947332 -0.0016749877 0.95078623
-0.22703724 -0.0016817574 0.95462894
-0.22458142 -0.0016885821 0.95850295
-0.22210558 -0.0016954625 0.96240848
-0.21960948 -0.0017023991 0.96634597
-0.21709286 -0.0017093926 0.97031575
-0.21455552 -0.0017164442 0.97431844
-0.21199711 -0.0017235538 0.97835416
-0.35406598 0.0016780378 0.95251757
-0.35004348 0.0016748491 0.95070755
-0.34603626 0.0016716727 0.94890451
-0.3420442 0.0016685083 0.94710827
-0.33806723 0.0016653559 0.94531882
-0.33410525 0.0016622152 0.9435361
-0.3301582 0.0016590866 0.94176012
-0.326226 0.0016559695 0.93999082
-0.32230732 0.0016528581 0.93822461
-0.31840491 0.0016497665 0.93646967
-0.31451634 0.0016466823 0.93471903
-0.31064364 0.0016436172 0.93297917
-0.30678481 0.0016405605 0.93124402
-0.30293962 0.0016375115 0.92951334
-0.2991077 0.0016344683 0.92778593
-0.29529151 0.0016314448 0.92606962
-0.29148889 0.0016284294 0.92435801
-0.28770027 0.0016254252 0.92265266
-0.28392476 0.0016224273 0.92095095
-0.28016493 0.0016194504 0.91926116
-0.27641773 0.001616478 0.91757387
-0.27268445 0.0016135174 0.91589338
-0.2689648 0.0016105677 0.91421902
-0.26525879 0.001607629 0.91255087
-0.26156619 0.0016047006 0.91088861
-0.25788707 0.001601783 0.9092325
-0.25444916 0.0016003092 0.90839589
-0.25221875 0.0016064889 0.91190374
-0.24997109 0.0016127167 0.91543889
-0.24770592 0.001618993 0.91900152
-0.24542306 0.0016253183 0.92259198
-0.24312229 0.0016316932 0.92621064
-0.24080336 0.0016381182 0.92985767
-0.23846616 0.0016445942 0.93353373
-0.23611036 0.0016511214 0.93723881
-0.23373574 0.0016577003 0.94097322
-0.23134206 0.0016643314 0.94473732
-0.22892915 0.0016710156 0.94853157
-0.22649679 0.001677754 0.95235646
-0.22404464 0.0016845461 0.95621198
-0.22157256 0.0016913937 0.96009886
-0.21908031 0.001698297 0.96401745
-0.21656761 0.0017052568 0.96796811
-0.21403426 0.001712274 0.97195137
-0.21147995 0.0017193492 0.97596747
-0.35453635 0.0050408011 0.95378298
-0.35050765 0.0050312104 0.95196825
-0.34649423 0.0050216555 0.95016038
-0.34249601 0.0050121369 0.94835931
-0.33851296 0.0050026546 0.94656515
-0.33454493 0.0049932078 0.94477773
-0.33059186 0.0049837972 0.9429971
-0.32665369 0.0049744216 0.94122314
-0.3227303 0.0049650813 0.93945587
-0.31882101 0.0049557672 0.93769348
-0.31492645 0.0049464889 0.93593788
-0.31104729 0.0049372585 0.93419141
-0.30718279 0.0049280664 0.93245214
-0.30333239 0.0049189036 0.93071842
-0.29949448 0.0049097454 0.9289856
-0.29567251 0.0049006492 0.92726445
-0.29186472 0.0048915879 0.92554992
-0.28807056 0.0048825517 0.92384022
-0.28429037 0.0048735496 0.92213684
-0.2805241 0.00486458 0.92043972
-0.27677068 0.0048556258 0.91874552
-0.2730329 0.0048467377 0.91706377
-0.26930791 0.0048378664 0.91538519
-0.26559648 0.0048290268 0.91371262
-0.26189861 0.0048202202 0.91204625
-0.25821421 0.0048114448 0.91038591
-0.25454322 0.004802702 0.90873164
-0.251645 0.0048085032 0.90982932
-0.24940024 0.0048271012 0.91334832
-0.24713802 0.0048458437 0.91689456
-0.24485822 0.0048647327 0.92046863
-0.24256054 0.004883769 0.92407054
-0.24024479 0.0049029551 0.92770076
-0.23791082 0.0049222927 0.93135971
-0.23555833 0.0049417834 0.93504757
-0.23318706 0.0049614268 0.93876439
-0.23079684 0.0049812268 0.94251078
-0.22838745 0.005001185 0.9462871
-0.22595868 0.0050213039 0.95009387
-0.2235103 0.0050415853 0.95393139
-0.22104204 0.0050620316 0.95780003
-0.21855368 0.0050826436 0.96170014
-0.2160449 0.0051034233 0.96563184
-0.21351552 0.0051243724 0.96959573
-0.21096531 0.0051454953 0.97359246
-0.20839396 0.0051667928 0.97762215
-0.35097301 0.008396483 0.95323217
-0.34695339 0.0083805164 0.95141953
-0.34294903 0.0083646104 0.94961375
-0.33895987 0.0083487658 0.94781488
-0.33498579 0.0083329799 0.94602275
-0.33102664 0.0083172526 0.94423729
-0.32708248 0.0083015859 0.94245869
-0.32315314 0.0082859779 0.94068676
-0.31923833 0.0082704229 0.93892086
-0.3153376 0.0082549108 0.93715978
-0.31145212 0.0082394741 0.93540728
-0.30758226 0.008224125 0.93366474
-0.30372614 0.008208815 0.93192661
-0.29988387 0.0081935488 0.93019348
-0.29605436 0.0081782974 0.92846203
-0.29224145 0.008163169 0.92674458
-0.28844181 0.0081480742 0.92503083
-0.28465608 0.0081330305 0.92332304
-0.2808843 0.0081180437 0.92162156
-0.2771264 0.0081031108 0.91992635
-0.2733815 0.0080882097 0.91823465
-0.2696518 0.0080734072 0.91655415
-0.26593506 0.0080586383 0.91487741
-0.26223189 0.0080439225 0.91320682
-0.25854218 0.0080292607 0.91154224
-0.25486594 0.0080146519 0.9098838
-0.251203 0.0080000954 0.90823126
-0.24883196 0.0080268374 0.91126716
-0.24657276 0.0080579333 0.91479743
-0.24429595 0.0080892704 0.91835499
-0.24200137 0.0081208516 0.92194033
-0.23968883 0.0081526814 0.92555392
-0.23735806 0.0081847608 0.92919582
-0.23500888 0.0082170935 0.93286651
-0.23264097 0.0082496796 0.93656588
-0.23025417 0.0082825245 0.94029468
-0.22784829 0.0083156312 0.94405323
-0.22542313 0.0083490051 0.94784206
-0.2229784 0.0083826464 0.95166129
-0.22051391 0.0084165614 0.95551157
-0.21802938 0.0084507512 0.95939302
-0.21552458 0.0084852194 0.96330619
-0.21299925 0.0085199699 0.9672513
-0.21045315 0.0085550062 0.9712289
-0.20788597 0.0085903285 0.97523898
-0.35143963 0.011770705 0.95449948
-0.34741378 0.011748292 0.95268202
-0.34340325 0.011725965 0.95087147
-0.33940795 0.011703722 0.94906777
-0.33542776 0.011681564 0.94727093
-0.33146262 0.011659489 0.94548088
-0.32751244 0.011637498 0.94369757
-0.32357711 0.011615588 0.94192088
-0.319657 0.011593778 0.94015223
-0.31574979 0.011571982 0.93838483
-0.31185848 0.011550314 0.93662775
-0.30798218 0.011528744 0.93487865
-0.30412093 0.011507278 0.93313795
-0.30027297 0.011485851 0.93140036
-0.29643929 0.011464503 0.9296692
-0.29261881 0.011443193 0.9279412
-0.28881407 0.011422025 0.92622465
-0.28502274 0.011400909 0.92451233
-0.28124541 0.011379872 0.92280644
-0.27748203 0.011358914 0.92110687
-0.27373248 0.011338032 0.91941357
-0.26999673 0.011317229 0.91772658
-0.26627442 0.01129649 0.91604489
-0.262566 0.01127584 0.91437036
-0.25887099 0.011255261 0.91270155
-0.25518945 0.011234756 0.91103876
-0.25152132 0.011214326 0.9093821
-0.24826628 0.011212026 0.90919554
-0.24601005 0.011255361 0.91270971
-0.24373627 0.011299032 0.916251
-0.24144478 0.011343043 0.91981995
-0.2391354 0.0113874 0.92341685
-0.23680787 0.011432104 0.92704195
-0.23446198 0.01147716 0.93069559
-0.23209742 0.011522567 0.93437767
-0.22971407 0.011568334 0.93808901
-0.2273117 0.011614466 0.94182992
-0.22489011 0.011660969 0.94560087
-0.22244903 0.011707844 0.94940203
-0.21998829 0.0117551 0.95323402
-0.21750757 0.011802737 0.95709693
-0.21500668 0.011850762 0.96099138
-0.21248533 0.011899179 0.96491754
-0.20994331 0.011947993 0.968876
-0.20738034 0.01199721 0.97286701
-0.20479618 0.012046834 0.9768911
-0.34787545 0.015125019 0.95394796
-0.34385866 0.015096234 0.95213246
-0.33985719 0.015067561 0.950324
-0.33587089 0.015038996 0.94852239
-0.3318997 0.015010539 0.94672763
-0.3279435 0.01498219 0.94493961
-0.32400221 0.014953948 0.94315833
-0.3200748 0.014925769 0.94138104
-0.31616354 0.014897758 0.93961442
-0.31226599 0.014869808 0.93785161
-0.30838338 0.014841981 0.93609649
-0.30451617 0.0148143 0.93435061
-0.30066305 0.014786707 0.93261033
-0.29682368 0.014759189 0.93087471
-0.29299852 0.014731769 0.9291454
-0.28918737 0.014704443 0.92742181
-0.28539035 0.014677218 0.92570478
-0.28160748 0.0146501 0.92399442
-0.27783859 0.014623083 0.92229044
-0.27408358 0.014596167 0.92059278
-0.27034235 0.014569349 0.91890132
-0.26661485 0.014542628 0.91721606
-0.26290035 0.014515971 0.91553473
-0.25920063 0.014489477 0.91386372
-0.25551382 0.014463047 0.91219682
-0.25184044 0.014436713 0.91053593
-0.2481804 0.014410475 0.90888107
-0.24544989 0.014438229 0.91063148
-0.24317914 0.014494121 0.91415668
-0.24089077 0.014550449 0.91770935
-0.23858453 0.014607216 0.92128968
-0.23626024 0.014664428 0.92489809
-0.23391761 0.014722087 0.92853469
-0.23155639 0.014780194 0.9321996
-0.22917649 0.014838765 0.93589371
-0.22677761 0.0148978 0.93961704
-0.22435962 0.014957308 0.94337028
-0.2219222 0.015017292 0.94715351
-0.21946518 0.01507776 0.95096731
-0.21698825 0.015138716 0.95481181
-0.21449126 0.015200168 0.95868766
-0.21197388 0.015262119 0.96259499
-0.20943591 0.015324579 0.96653438
-0.20711863 0.015405518 0.97163928
-0.20498811 0.015503302 0.97780663
-0.34431535 0.018475458 0.95339698
-0.34030768 0.018440317 0.95158368
-0.33631521 0.018405311 0.94977719
-0.33233795 0.018370438 0.94797766
-0.3283757 0.018335698 0.94618493
-0.32442841 0.01830109 0.944399
-0.32049596 0.018266611 0.94261974
-0.31657785 0.018232232 0.94084573
-0.31267449 0.018197985 0.93907851
-0.30878606 0.018163886 0.9373188
-0.30491254 0.018129934 0.93556678
-0.30105415 0.018096151 0.93382347
-0.29720902 0.018062428 0.93208319
-0.29337823 0.018028829 0.93034947
-0.28956181 0.017995367 0.92862266
-0.28575829 0.017961949 0.92689818
-0.2819705 0.017928759 0.9251855
-0.27819604 0.017895652 0.92347705
-0.27443555 0.017862668 0.92177498
-0.27068889 0.017829807 0.92007923
-0.266956 0.017797066 0.91838968
-0.26323679 0.017764445 0.91670632
-0.25953078 0.017731916 0.91502774
-0.25583902 0.017699555 0.91335773
-0.25216037 0.017667288 0.91169268
-0.24849513 0.017635139 0.91003364
-0.24489227 0.017606635 0.90856272
-0.24262455 0.017674636 0.91207188
-0.24033928 0.017743168 0.91560835
-0.23803619 0.017812232 0.91917229
-0.23571512 0.017881837 0.92276412
-0.23337574 0.01795198 0.92638379
-0.2310179 0.018022673 0.93003178
-0.22864142 0.018093925 0.93370861
-0.22624604 0.018165741 0.93741453
-0.22383161 0.018238131 0.94115013
-0.22139785 0.0183111 0.94491559
-0.21894455 0.018384656 0.94871134
-0.21647142 0.018458804 0.9525376
-0.21397829 0.018533552 0.95639491
-0.21171851 0.018631229 0.96143538
-0.20963915 0.018748216 0.96747231
-0.20753361 0.018866692 0.97358602
-0.205402 0.018986739 0.97978091
-0.34477317 0.021863665 0.95466471
-0.34075937 0.021822028 0.95284665
-0.33676076 0.021780547 0.95103544
-0.33277738 0.021739226 0.94923115
-0.32880905 0.02169806 0.94743365
-0.32485572 0.021657048 0.94564289
-0.32091731 0.021616193 0.94385898
-0.31699342 0.021575468 0.94208074
-0.31308407 0.021534882 0.94030863
-0.3091898 0.021494476 0.93854433
-0.3053101 0.021454223 0.93678665
-0.30144516 0.021414137 0.9350363
-0.29759541 0.021374255 0.93329495
-0.29375893 0.021334449 0.93155676
-0.28993672 0.021294788 0.92982501
-0.28612867 0.021255273 0.92809963
-0.28233424 0.021215867 0.92637897
-0.27855447 0.021176655 0.92466682
-0.27478844 0.021137573 0.92296028
-0.27103633 0.021098634 0.92126012
-0.26729801 0.021059843 0.91956627
-0.26357341 0.021021191 0.91787857
-0.25986245 0.020982681 0.91619706
-0.25616503 0.02094431 0.91452163
-0.2524811 0.020906078 0.91285223
-0.2488106 0.020867987 0.91118896
-0.24515347 0.020830033 0.90953177
-0.24207252 0.02084068 0.90999669
-0.23979032 0.020921303 0.913517
-0.23749037 0.02100255 0.91706461
-0.23517251 0.021084432 0.92063993
-0.23283638 0.021166945 0.92424279
-0.23048191 0.021250105 0.92787397
-0.22810884 0.02133392 0.93153369
-0.22571698 0.0214184 0.93522245
-0.22330609 0.021503549 0.93894047
-0.22087595 0.021589378 0.94268817
-0.21842636 0.0216759 0.94646603
-0.21622278 0.021789894 0.95144349
-0.21419315 0.021925284 0.95735526
-0.21213818 0.022062371 0.96334106
-0.21005729 0.022201177 0.96940202
-0.20795083 0.022341825 0.97554332
-0.20581755 0.022484271 0.98176312
-0.34121218 0.025212724 0.95411289
-0.33720747 0.025164736 0.95229691
-0.33321792 0.02511693 0.95048779
-0.32924354 0.025069306 0.94868559
-0.32528418 0.02502186 0.94689018
-0.32133982 0.024974596 0.94510156
-0.31741005 0.024927491 0.94331896
-0.31349474 0.024880536 0.94154209
-0.3095946 0.024833791 0.93977314
-0.30570906 0.024787221 0.93801081
-0.3018384 0.024740851 0.93625605
-0.29798281 0.024694707 0.93450987
-0.29414064 0.024648655 0.93276715
-0.29031274 0.024602775 0.93103087
-0.28649908 0.024557065 0.92930114
-0.28269836 0.024511419 0.9275738
-0.27891377 0.024466122 0.92585957
-0.27514228 0.024420911 0.92414874
-0.27138466 0.024375867 0.92244411
-0.26764089 0.024330989 0.92074585
-0.26391089 0.024286278 0.91905385
-0.26019457 0.024241731 0.91736805
-0.25649187 0.024197346 0.91568846
-0.25280267 0.024153121 0.91401488
-0.24912666 0.024109032 0.91234642
-0.24546456 0.024065154 0.91068596
-0.24181554 0.024021411 0.90903062
-0.23924385 0.02408495 0.91143513
-0.23694706 0.024178272 0.91496664
-0.23463239 0.024272317 0.91852552
-0.23229952 0.024367083 0.92211169
-0.22994839 0.024462594 0.92572612
-0.22757871 0.024558855 0.92936885
-0.22519036 0.024655879 0.9330405
-0.22278303 0.024753671 0.93674117
-0.22063436 0.024883574 0.94165707
-0.21865289 0.025036592 0.9474476
-0.21664691 0.025191501 0.95330977
-0.21461591 0.025348336 0.95924479
-0.21255949 0.025507139 0.96525431
-0.21047769 0.025668012 0.97134215
-0.20836973 0.025830958 0.97750843
-0.20623481 0.025995985 0.98375344
-0.33765534 0.028557913 0.95356172
-0.33365965 0.028503587 0.95174778
-0.32967916 0.028449472 0.9499408
-0.32571375 0.028395558 0.94814062
-0.32176337 0.02834185 0.9463473
-0.31782782 0.02828834 0.94456053
-0.31390649 0.028234974 0.94277865
-0.31000045 0.028181858 0.94100511
-0.30610907 0.028128942 0.93923819
-0.3022323 0.028076226 0.93747795
-0.29836965 0.028023668 0.93572301
-0.2945233 0.027971486 0.93398064
-0.29068974 0.027919354 0.93223995
-0.28687039 0.02786741 0.93050551
-0.28306529 0.027815664 0.92877769
-0.27927348 0.02776403 0.92705357
-0.27549696 0.027712714 0.92534012
-0.27173388 0.027661534 0.92363119
-0.26798463 0.027610539 0.92192847
-0.26424924 0.027559735 0.92023212
-0.26052755 0.027509119 0.91854203
-0.25681949 0.027458688 0.91685808
-0.25312501 0.027408442 0.91518033
-0.24944401 0.027358375 0.91350859
-0.24577646 0.027308496 0.91184312
-0.24212222 0.027258793 0.91018349
-0.23869984 0.02723421 0.90936267
-0.23640621 0.027339494 0.91287816
-0.23409472 0.027445588 0.9164207
-0.23176512 0.027552497 0.91999042
-0.22941732 0.027660245 0.92358816
-0.22705109 0.027768837 0.92721415
-0.22495614 0.027914265 0.93207002
-0.22302127 0.028084161 0.93774289
-0.22106268 0.028256131 0.94348508
-0.21907997 0.028430225 0.94929814
-0.21707268 0.028606478 0.95518333
-0.21504034 0.028784927 0.96114182
-0.21298289 0.028965674 0.96717703
-0.21089986 0.029148761 0.97329038
-0.20879029 0.029334173 0.9794814
-0.20665374 0.029521964 0.98575181
-0.33810443 0.031960119 0.95482999
-0.3341026 0.031899244 0.95301127
-0.33011594 0.031838596 0.95119935
-0.32614446 0.031778179 0.9493944
-0.32218805 0.031717993 0.94759637
-0.31824657 0.031658038 0.94580507
-0.31431928 0.031598236 0.94401848
-0.31040737 0.031538717 0.9422403
-0.30651012 0.031479418 0.94046873
-0.30262753 0.031420346 0.93870389
-0.29875976 0.031361524 0.93694651
-0.29490697 0.031302974 0.93519735
-0.29106772 0.031244555 0.93345207
-0.28724271 0.031186352 0.93171316
-0.28343198 0.031128367 0.92998087
-0.2796354 0.031070601 0.92825502
-0.27585265 0.031013018 0.92653471
-0.272084 0.030955665 0.92482126
-0.26832932 0.030898528 0.92311424
-0.26458845 0.030841598 0.92141342
-0.26086137 0.030784883 0.91971898
-0.25714797 0.030728374 0.91803074
-0.25344816 0.030672072 0.9163487
-0.24976192 0.030615978 0.91467285
-0.24608909 0.030560084 0.91300297
-0.24242967 0.030504396 0.91133928
-0.23878352 0.030448906 0.9096815
-0.23586783 0.030486319 0.91079921
-0.23355952 0.030604349 0.91432548
-0.23123318 0.030723289 0.91787887
-0.2291908 0.030883865 0.92267621
-0.22730106 0.031069931 0.92823499
-0.22538838 0.031258244 0.93386096
-0.2234524 0.031448856 0.9395557
-0.22149265 0.031641807 0.94532019
-0.21950872 0.031837143 0.95115596
-0.21750015 0.032034904 0.95706427
-0.21546671 0.032235175 0.9630475
-0.21340825 0.032438055 0.96910858
-0.21132369 0.032643497 0.97524637
-0.20921259 0.032851562 0.98146248
-0.33454669 0.035303921 0.95427799
-0.33055395 0.035236713 0.95246136
-0.32657638 0.035169762 0.95065165
-0.32261384 0.03510306 0.94884866
-0.31866637 0.035036616 0.94705266
-0.31473359 0.034970399 0.94526279
-0.31081539 0.034904402 0.94347882
-0.30691227 0.034838688 0.9417026
-0.30302379 0.034773223 0.939933
-0.29914993 0.034708004 0.93817014
-0.29529071 0.034643043 0.93641424
-0.29144669 0.03457842 0.93466741
-0.28761598 0.034513921 0.93292397
-0.28379962 0.034449667 0.93118715
-0.27999744 0.034385651 0.92945683
-0.27620935 0.034321874 0.92773288
-0.27243477 0.034258265 0.92601353
-0.26867488 0.034194984 0.924303
-0.26492858 0.034131903 0.92259789
-0.26119605 0.03406905 0.92089897
-0.25747728 0.034006435 0.91920644
-0.25377214 0.033944044 0.91752005
-0.25008059 0.033881888 0.91583991
-0.24640253 0.033819955 0.91416585
-0.24273786 0.033758245 0.91249782
-0.23908657 0.033696767 0.91083598
-0.23544855 0.033635508 0.90918016
-0.23334096 0.033794209 0.91346991
-0.23149492 0.033995755 0.91891783
-0.22962674 0.03419973 0.92443126
-0.22773601 0.034406159 0.93001115
-0.2258223 0.034615096 0.93565881
-0.22388522 0.034826588 0.94137555
-0.2219243 0.03504068 0.94716251
-0.21993916 0.035257421 0.95302111
-0.21792939 0.035476878 0.95895308
-0.21589518 0.035699204 0.9649626
-0.21383527 0.035924327 0.97104776
-0.21174926 0.036152314 0.97721034
-0.20963657 0.036383208 0.98345149
-0.33099303 0.038643856 0.95372659
-0.32700935 0.038570333 0.95191205
-0.32304081 0.03849709 0.95010442
-0.31908733 0.038424127 0.9483037
-0.31514856 0.038351413 0.94650906
-0.31122443 0.038278941 0.94472051
-0.30731544 0.038206782 0.94293964
-0.30342111 0.038134895 0.94116545
-0.29954147 0.03806328 0.93939799
-0.29567665 0.037991975 0.93763816
-0.29182661 0.03792097 0.93588585
-0.28799027 0.037850149 0.93413794
-0.28416821 0.037779592 0.93239659
-0.28036043 0.037709296 0.93066174
-0.27656677 0.037639264 0.92893332
-0.27278718 0.037569489 0.92721134
-0.2690213 0.037499938 0.92549479
-0.26526955 0.03743067 0.92378527
-0.26153162 0.037361663 0.92208213
-0.25780743 0.037292901 0.92038512
-0.25409696 0.037224397 0.91869444
-0.2504001 0.037156142 0.91700995
-0.24671674 0.037088137 0.9153316
-0.24304688 0.037020385 0.91365945
-0.23939034 0.036952872 0.91199327
-0.23574717 0.036885612 0.91033328
-0.23378037 0.037082404 0.91519004
-0.23193343 0.03730398 0.92065853
-0.23006435 0.037528228 0.92619294
-0.22817263 0.037755184 0.93179423
-0.22625788 0.0379849 0.93746358
-0.2243197 0.038217429 0.94320244
-0.22235763 0.038452823 0.94901192
-0.22037128 0.038691141 0.95489353
-0.21836092 0.038932566 0.96085191
-0.21632536 0.039177034 0.96688533
-0.21426405 0.039424583 0.97299486
-0.21217653 0.039675288 0.97918218
-0.2100623 0.039929196 0.98544866
-0.33143333 0.042060066 0.95499521
-0.32744351 0.041979935 0.95317584
-0.32346889 0.041900113 0.95136344
-0.31950933 0.041820593 0.9495579
-0.31556508 0.041741412 0.94776005
-0.31163457 0.041662376 0.94596547
-0.30771965 0.041583735 0.94417989
-0.30381945 0.041505393 0.94240105
-0.29993397 0.041427344 0.94062895
-0.29606304 0.041349586 0.93886346
-0.29220751 0.041272245 0.93710738
-0.28836548 0.041195069 0.93535501
-0.28453776 0.041118175 0.93360913
-0.28072435 0.041041572 0.9318698
-0.27692506 0.040965248 0.9301368
-0.27313992 0.040889211 0.92841035
-0.26936877 0.040813453 0.92669022
-0.26561138 0.040737942 0.92497575
-0.26186803 0.040662739 0.9232682
-0.25813848 0.040587809 0.9215669
-0.25442261 0.040513154 0.91987181
-0.25072041 0.040438775 0.91818297
-0.24703178 0.040364668 0.91650039
-0.24335665 0.040290836 0.91482395
-0.23969494 0.040217273 0.91315365
-0.2360473 0.040144101 0.91149223
-0.2342214 0.040383 0.91691661
-0.23237363 0.04062476 0.92240584
-0.23050362 0.040869433 0.92796135
-0.22861093 0.041117072 0.93358409
-0.22669515 0.041367728 0.93927532
-0.22475588 0.041621462 0.94503647
-0.22279269 0.041878324 0.95086867
-0.22080573 0.042138498 0.95677608
-0.21879414 0.042401966 0.96275824
-0.21675722 0.042668745 0.96881557
-0.21469454 0.042938907 0.97494978
-0.21260552 0.043212507 0.98116195
-0.21048975 0.043489616 0.98745394
-0.32787883 0.045398608 0.9544431
-0.32389808 0.045312166 0.95262575
-0.31993249 0.045226056 0.95081544
-0.31598189 0.04514027 0.94901192
-0.31204581 0.045054745 0.94721383
-0.30812496 0.044969589 0.94542354
-0.30421886 0.044884749 0.94363993
-0.30032751 0.044800237 0.94186312
-0.29645079 0.044716042 0.94009304
-0.29258895 0.044632215 0.93833071
-0.28874168 0.044548716 0.93657529
-0.28490829 0.044465456 0.93482488
-0.28108922 0.044382509 0.93308097
-0.27728432 0.044299863 0.9313435
-0.27349362 0.044217527 0.92961252
-0.26971695 0.044135503 0.92788804
-0.26595372 0.044053685 0.92616791
-0.2622053 0.043972317 0.92445731
-0.25847033 0.043891188 0.92275167
-0.25474912 0.043810356 0.92105228
-0.25104153 0.043729816 0.91935903
-0.24734761 0.04364958 0.91767216
-0.2436672 0.043569632 0.91599137
-0.24000026 0.043489981 0.91431683
-0.23649083 0.043437093 0.91320491
-0.23466413 0.043696079 0.91864973
-0.23281549 0.043958168 0.92415982
-0.23094456 0.044223424 0.9297365
-0.22905092 0.044491902 0.93538088
-0.22713411 0.044763658 0.9410941
-0.22519377 0.045038756 0.94687766
-0.2232299 0.045317348 0.95273471
-0.22124197 0.04559949 0.95866632
-0.21922909 0.045885157 0.96467209
-0.21719083 0.046174429 0.97075367
-0.21512672 0.046467371 0.97691238
-0.21303628 0.046764065 0.98314989
-0.21091893 0.047064554 0.98946732
-0.32831532 0.048826378 0.95571363
-0.32432845 0.04873329 0.95389158
-0.32035676 0.048640557 0.95207638
-0.31640014 0.048548169 0.95026803
-0.31245813 0.048456073 0.94846535
-0.30853131 0.048364367 0.94667035
-0.30461934 0.048273012 0.94488215
-0.30072212 0.048181996 0.94310069
-0.29683954 0.048091318 0.94132578
-0.29297158 0.048000991 0.93955773
-0.28911886 0.047911126 0.93779874
-0.28527978 0.047821466 0.93604374
-0.28145504 0.047732141 0.93429536
-0.27764452 0.047643144 0.93255329
-0.27384821 0.047554478 0.93081784
-0.27006602 0.047466151 0.92908889
-0.26629785 0.047378145 0.92736632
-0.26254338 0.047290422 0.92564923
-0.25880304 0.047203071 0.92393947
-0.25507641 0.047116026 0.92223567
-0.25136352 0.047029302 0.92053819
-0.24766426 0.046942897 0.91884691
-0.24397856 0.046856809 0.91716182
-0.24030638 0.046771038 0.915483
-0.23693603 0.04674248 0.91492403
-0.23510851 0.047021702 0.92038941
-0.23325904 0.04730428 0.92592049
-0.2313872 0.047590274 0.9315185
-0.22949259 0.047879748 0.93718457
-0.22757477 0.048172761 0.94291991
-0.2256337 0.048469462 0.94872743
-0.22366905 0.048769943 0.95460898
-0.22167991 0.04907418 0.96056402
-0.21966577 0.049382225 0.96659362
-0.21762618 0.049694166 0.97269946
-0.21556069 0.050010081 0.97888309
-0.21346875 0.050330032 0.98514569
-0.21134989 0.050654106 0.99148905
-0.32475993 0.052163515 0.95516062
-0.32078215 0.052064121 0.95334065
-0.31681952 0.051965106 0.9515276
-0.31287169 0.051866431 0.94972074
-0.30893874 0.051768113 0.94792044
-0.30502084 0.051670197 0.94612753
-0.30111772 0.051572651 0.94434136
-0.29722932 0.051475469 0.94256192
-0.29335555 0.051378656 0.94078916
-0.28949672 0.051282279 0.93902439
-0.28565222 0.051186237 0.93726581
-0.28182179 0.051090498 0.93551272
-0.27800566 0.050995123 0.93376631
-0.27420375 0.050900098 0.93202633
-0.27041599 0.050805427 0.93029284
-0.26664227 0.050711107 0.92856574
-0.26288256 0.05061714 0.92684513
-0.25913662 0.05052349 0.92513031
-0.25540459 0.050430205 0.92342216
-0.2516863 0.050337262 0.92172033
-0.24798173 0.050244663 0.92002475
-0.24429074 0.050152402 0.91833538
-0.24061325 0.050060473 0.91665208
-0.23738289 0.050060339 0.91664958
-0.23555459 0.050359949 0.92213571
-0.23370427 0.050663162 0.92768782
-0.23183154 0.050970055 0.93330729
-0.22993597 0.051280685 0.93899524
-0.22801733 0.051595163 0.94475359
-0.22607566 0.051913671 0.95058578
-0.22410992 0.052236147 0.95649058
-0.22211957 0.052562647 0.9624691
-0.22010419 0.052893255 0.96852285
-0.21806329 0.053228047 0.97465318
-0.21599641 0.053567111 0.98086172
-0.32120869 0.055496786 0.9546082
-0.31723994 0.055391103 0.95279032
-0.31328627 0.055285811 0.95097917
-0.30934727 0.055180866 0.94917399
-0.30542344 0.055076357 0.94737631
-0.30151439 0.054972235 0.94558531
-0.29762012 0.054868512 0.94380116
-0.29374054 0.054765183 0.94202381
-0.28987554 0.054662243 0.94025308
-0.28602567 0.054559808 0.93849111
-0.28218952 0.054457624 0.93673342
-0.27836773 0.05435583 0.93498242
-0.27456021 0.054254413 0.93323797
-0.27076685 0.054153375 0.93149996
-0.26698759 0.054052703 0.92976832
-0.2632224 0.053952415 0.92804325
-0.25947112 0.053852499 0.92632455
-0.25573358 0.053752918 0.92461169
-0.25200993 0.053653724 0.92290545
-0.24829999 0.0535549 0.92120552
-0.24460369 0.053456437 0.91951185
-0.24092095 0.053358331 0.91782433
-0.23783147 0.053390738 0.91838175
-0.23600239 0.053710885 0.92388868
-0.2341512 0.054034892 0.92946196
-0.23227759 0.054362837 0.935103
-0.23038109 0.05469479 0.94081295
-0.2284621 0.055031016 0.94659644
-0.22651942 0.055371415 0.95245165
-0.22455251 0.055716038 0.95837957
-0.22256099 0.056064982 0.96438181
-0.22054435 0.056418326 0.9704597
-0.21964231 0.057072412 0.98171073
-0.32163632 0.058938593 0.95587915
-0.31766152 0.058826208 0.95405644
-0.31370187 0.058714252 0.95224071
-0.30975685 0.058602646 0.95043069
-0.30582705 0.058491513 0.94862831
-0.30191213 0.058380798 0.94683266
-0.29801199 0.058270499 0.94504386
-0.29412651 0.05816061 0.94326162
-0.29025573 0.058051143 0.9414863
-0.28639984 0.057942163 0.93971884
-0.2825582 0.057833549 0.93795729
-0.27873075 0.057725299 0.93620169
-0.2749176 0.057617459 0.93445271
-0.27111864 0.057510018 0.93271017
-0.26733384 0.057402972 0.93097407
-0.2635631 0.057296328 0.92924452
-0.25980636 0.057190079 0.92752135
-0.25606352 0.057084229 0.92580462
-0.25233439 0.056978732 0.92409366
-0.24861906 0.056873642 0.92238933
-0.24491744 0.056768943 0.92069125
-0.24122943 0.056664631 0.91899949
-0.23828173 0.056733746 0.92012042
-0.23645186 0.057074588 0.92564827
-0.23459986 0.057419546 0.93124288
-0.23272535 0.057768706 0.93690562
-0.23082858 0.058122307 0.94264042
-0.22890864 0.058480311 0.94844663
-0.22696488 0.058842745 0.95432466
-0.22499689 0.059209708 0.96027613
-0.22300416 0.059581265 0.96630216
-0.31808424 0.062270459 0.95532602
-0.3141185 0.06215179 0.95350546
-0.31016752 0.062033508 0.95169079
-0.30623174 0.061915707 0.94988358
-0.30231088 0.061798356 0.94808322
-0.29840484 0.061681446 0.94628966
-0.29451355 0.061564982 0.94450289
-0.29063693 0.06144895 0.9427228
-0.28677487 0.061333355 0.94094938
-0.28292784 0.061218306 0.93918437
-0.2790947 0.061103575 0.93742418
-0.27527592 0.060989272 0.93567061
-0.27147138 0.060875397 0.9339236
-0.26768097 0.06076194 0.93218297
-0.26390472 0.060648907 0.93044889
-0.26014248 0.060536295 0.92872125
-0.25639418 0.060424104 0.92700005
-0.25265971 0.060312316 0.92528504
-0.24893898 0.06020093 0.92357618
-0.245232 0.060089961 0.92187375
-0.24153867 0.059979402 0.92017764
-0.23873368 0.060089432 0.92186564
-0.23690306 0.060451124 0.9274146
-0.23505023 0.060817193 0.93303066
-0.2331754 0.061187871 0.93871742
-0.23127785 0.061563171 0.94447511
-0.22935691 0.06194311 0.95030397
-0.2274121 0.062327761 0.95620513
-0.23309064 0.064844765 0.99481988
-0.31453624 0.065598466 0.95477349
-0.31057933 0.065473482 0.95295429
-0.30663756 0.065348983 0.95114231
-0.30271068 0.065224953 0.94933707
-0.29879874 0.0651014 0.94753873
-0.29490158 0.064978316 0.94574726
-0.29101914 0.064855695 0.94396251
-0.28715131 0.064733535 0.94218451
-0.28329834 0.064611904 0.94041425
-0.27945963 0.064490683 0.93864989
-0.27563515 0.064369887 0.93689167
-0.27182496 0.064249538 0.93514001
-0.268029 0.064129643 0.93339497
-0.26424718 0.064010188 0.93165636
-0.26047942 0.06389118 0.92992425
-0.25672564 0.063772611 0.92819852
-0.25298581 0.06365449 0.92647928
-0.24925968 0.063536778 0.924766
-0.24554737 0.063419521 0.92305928
-0.24184872 0.063302688 0.92135882
-0.23918737 0.063457876 0.92361754
-0.23735598 0.063840576 0.92918766
-0.23550273 0.064228021 0.93482685
-0.23362732 0.064620323 0.94053674
-0.2317289 0.065017462 0.94631702
-0.23555289 0.067055203 0.97597599
-0.31495509 0.06905432 0.95604485
-0.31099218 0.068922594 0.95422107
-0.30704439 0.068791367 0.95240426
-0.30311158 0.068660632 0.95059431
-0.29919371 0.068530403 0.94879127
-0.29529065 0.068400659 0.94699496
-0.29140234 0.068271406 0.94520551
-0.28752869 0.068142638 0.94342279
-0.28366965 0.068014361 0.94164681
-0.27982551 0.067886658 0.93987876
-0.27599534 0.067759335 0.93811601
-0.27217948 0.067632481 0.9363597
-0.26837796 0.067506112 0.93461013
-0.26459056 0.067380205 0.93286705
-0.26081729 0.067254774 0.93113041
-0.25705799 0.067129798 0.92940015
-0.25331271 0.067005292 0.92767644
-0.24958126 0.066881254 0.92595911
-0.24586357 0.066757657 0.92424798
-0.24215956 0.066634513 0.92254299
-0.2396428 0.066839151 0.92537618
-0.23781087 0.067243069 0.9309684
-0.23595728 0.067652084 0.93663114
-0.23788908 0.069173418 0.95769376
-0.31140617 0.072380893 0.9554913
-0.30745229 0.072242893 0.95366955
-0.3035135 0.072105423 0.95185483
-0.29958966 0.071968466 0.95004696
-0.29568073 0.071832046 0.948246
-0.29178658 0.071696132 0.94645184
-0.28790712 0.071560726 0.94466442
-0.28404227 0.071425833 0.94288367
-0.28019196 0.071291439 0.9411096
-0.27635649 0.071157657 0.93934351
-0.27253497 0.071024261 0.93758261
-0.26872778 0.07089138 0.93582845
-0.26493484 0.070758998 0.93408084
-0.26115602 0.070627101 0.93233973
-0.25739121 0.070495687 0.93060493
-0.25364047 0.070364773 0.92887676
-0.24990359 0.070234343 0.92715496
-0.24618056 0.070104398 0.9254396
-0.24247123 0.069974922 0.92373037
-0.24010001 0.070233338 0.92714167
-0.240134 0.07121215 0.94006288
-0.24911952 0.074910067 0.98887861
-0.31182122 0.075848408 0.95676482
-0.30786136 0.075703606 0.95493835
-0.30391654 0.075559363 0.9531188
-0.29998672 0.075415656 0.95130605
-0.29607183 0.075272501 0.94950026
-0.29217178 0.075129889 0.94770133
-0.28828651 0.074987821 0.94590926
