# .PCD v0.7 - Point Cloud Data file format
VERSION 0.7
FIELDS x y z
SIZE 4 4 4
TYPE F F F
COUNT 1 1 1
WIDTH 648
HEIGHT 1
VIEWPOINT 0 0 0 1 0 0 0
POINTS 648
DATA ascii
0.091721177 -0.29003724 1.407146
0.096637115 -0.28991136 1.4065353
0.10154907 -0.2897864 1.405929
0.10645729 -0.28966284 1.4053296
0.11136129 -0.28953937 1.4047306
0.061083522 -0.28098419 1.3869325
0.065941989 -0.28086403 1.3863393
0.070796296 -0.28074396 1.3857466
0.07564646 -0.28062397 1.3851544
0.080492474 -0.28050408 1.3845626
0.085334353 -0.2803843 1.3839715
0.090172097 -0.28026462 1.3833807
0.095006235 -0.2801466 1.3827981
0.099836461 -0.28002909 1.3822181
0.10466264 -0.27991173 1.3816388
0.10948479 -0.27979448 1.38106
0.11430289 -0.2796773 1.3804816
0.11911695 -0.27956021 1.3799037
0.12392699 -0.2794432 1.3793262
0.12873301 -0.27932632 1.3787493
0.041064207 -0.27295619 1.3711525
0.045708276 -0.27184397 1.3655654
0.0504984 -0.27172947 1.3649904
0.055284489 -0.27161509 1.3644158
0.060066551 -0.27150083 1.3638417
0.064844593 -0.27138665 1.3632681
0.06961862 -0.27127254 1.362695
0.074550696 -0.27174929 1.3650899
0.079559021 -0.27242938 1.3685062
0.084592491 -0.27311292 1.3719398
0.089392684 -0.27301008 1.3714232
0.093781985 -0.27172729 1.3649794
0.098181143 -0.2705968 1.3593005
0.10292795 -0.27048507 1.3587393
0.10767085 -0.27037346 1.3581786
0.11240983 -0.27026194 1.3576183
0.11714491 -0.27015048 1.3570585
0.12187608 -0.27003914 1.3564992
0.12660335 -0.26992789 1.3559403
0.13132674 -0.26981673 1.355382
0.13604626 -0.26970574 1.3548244
0.14076196 -0.26959491 1.3542677
0.14547378 -0.26948422 1.3537116
0.15018173 -0.26937357 1.3531557
0.036464553 -0.26983771 1.3799105
0.041121513 -0.26849928 1.3730661
0.045732617 -0.26717475 1.3662926
0.050298445 -0.26586321 1.3595855
0.054837115 -0.26464868 1.3533746
0.059753444 -0.26530528 1.3567324
0.064694233 -0.26596516 1.3601069
0.069659665 -0.26662838 1.3634984
0.074649915 -0.26729485 1.3669068
0.079665191 -0.26796472 1.3703324
0.084705651 -0.26863793 1.373775
0.089511566 -0.26853472 1.3732471
0.09390606 -0.26727107 1.3667852
0.098259456 -0.26601952 1.3603848
0.10257228 -0.26477963 1.3540442
0.10684508 -0.26355121 1.3477622
0.11107842 -0.26233414 1.3415383
0.11527284 -0.26112828 1.3353717
0.11989313 -0.26094389 1.3344288
0.12454432 -0.26083809 1.3338878
0.12919176 -0.26073244 1.3333476
0.1340055 -0.26095808 1.3345014
0.13898075 -0.26147225 1.3371308
0.14397562 -0.26198843 1.3397704
0.14899024 -0.26250663 1.3424205
0.15402479 -0.26302695 1.3450813
0.031805873 -0.26668 1.3887856
0.036515784 -0.26534802 1.3818491
0.041178983 -0.26402995 1.374985
0.045796212 -0.26272565 1.3681926
0.050368052 -0.26143417 1.361467
0.054909471 -0.26022315 1.3551604
0.059832484 -0.26086962 1.3585271
0.064780027 -0.26151937 1.3619107
0.069752276 -0.26217234 1.3653111
0.07474941 -0.26282859 1.3687286
0.079771623 -0.26348808 1.3721632
0.084819116 -0.26415095 1.3756151
0.089630783 -0.26404744 1.3750761
0.094030425 -0.26280299 1.3685954
0.098389015 -0.26157078 1.3621784
0.10270689 -0.26035002 1.355821
0.10698464 -0.25914055 1.3495226
0.11122284 -0.25794232 1.3432826
0.11542203 -0.25675511 1.3370999
0.11958273 -0.25557876 1.3309739
0.12383404 -0.25467756 1.3262807
0.12875865 -0.25517625 1.3288777
0.13370258 -0.25567687 1.3314847
0.13866594 -0.25617948 1.3341022
0.14364888 -0.25668406 1.3367299
0.14865145 -0.25719061 1.3393679
0.15367387 -0.25769928 1.3420168
0.15871628 -0.25821006 1.3446769
0.027086869 -0.26348138 1.3977754
0.031850863 -0.26215711 1.3907502
0.036567159 -0.26084572 1.3837932
0.041236617 -0.2595481 1.3769094
0.045859989 -0.25826415 1.3700979
0.050437842 -0.25699282 1.3633535
0.054982021 -0.25578591 1.3569509
0.059911743 -0.25642225 1.3603266
0.064866044 -0.25706175 1.3637191
0.069845133 -0.25770447 1.3671287
0.074849173 -0.25835037 1.3705553
0.079878353 -0.2589995 1.373999
0.084932856 -0.25965187 1.3774599
0.089750305 -0.25954819 1.3769097
0.094155297 -0.25832352 1.3704128
0.098518901 -0.2571103 1.3639767
0.10284183 -0.25590876 1.3576025
0.10712457 -0.25471842 1.3512877
0.11136763 -0.25353909 1.3450313
0.1155716 -0.25237063 1.3388326
0.11973696 -0.25121284 1.3326906
0.12386458 -0.25006622 1.3266077
0.12846881 -0.24993023 1.3258862
0.13340101 -0.25041944 1.3284816
0.13835257 -0.25091058 1.3310871
0.1433236 -0.25140369 1.333703
0.14831419 -0.25189871 1.3363291
0.15332457 -0.25239584 1.3389664
0.15835479 -0.25289497 1.3416142
0.027125437 -0.25892463 1.3997656
0.03189598 -0.25762138 1.3927202
0.03661868 -0.25633076 1.3857429
0.041294411 -0.2550537 1.3788391
0.045923937 -0.25379017 1.3720084
0.050507832 -0.25253916 1.3652453
0.055054769 -0.25133699 1.3587463
0.059991203 -0.25196305 1.3621309
0.064952299 -0.25259227 1.3655324
0.069938228 -0.25322461 1.368951
0.07494919 -0.25386015 1.3723867
0.079985373 -0.2544989 1.3758398
0.085046925 -0.25514075 1.3793098
0.089870155 -0.25503692 1.3787484
0.094280429 -0.25383192 1.3722341
0.098649174 -0.25263813 1.3657804
0.10297716 -0.25145584 1.3593888
0.10726485 -0.25028464 1.3530573
0.1115128 -0.24912435 1.3467846
0.11572154 -0.24797472 1.3405696
0.11989202 -0.24683651 1.3344164
0.12402394 -0.24570781 1.3283145
0.12818027 -0.24470778 1.3229083
0.13310082 -0.24518573 1.3254921
0.13804062 -0.24566549 1.3280858
0.1429998 -0.2461472 1.3306899
0.14797847 -0.24663077 1.3333042
0.15297686 -0.24711645 1.3359298
0.15799494 -0.24760403 1.3385656
0.16303289 -0.24809353 1.3412119
0.022338344 -0.25564995 1.4088986
0.027164111 -0.25435486 1.4017613
0.031941224 -0.25307277 1.3946956
0.036670342 -0.25180301 1.3876981
0.04135238 -0.25054678 1.3807749
0.045988072 -0.24930376 1.3739245
0.050578017 -0.24807313 1.3671424
0.055127706 -0.24687624 1.3605464
0.060070876 -0.24749202 1.3639399
0.065038778 -0.24811091 1.3673506
0.070031583 -0.24873285 1.3707782
0.075049482 -0.24935797 1.3742232
0.080092661 -0.2499862 1.3776854
0.085161276 -0.25061747 1.3811644
0.089990318 -0.25051358 1.3805919
0.094405904 -0.24932842 1.3740604
0.098779894 -0.24815437 1.3675902
0.10311278 -0.24699108 1.3611792
0.10740551 -0.24583928 1.3548316
0.11165834 -0.24469808 1.3485423
0.11587188 -0.24356742 1.3423113
0.12004663 -0.24244711 1.3361372
0.12418372 -0.24133818 1.3300258
0.1282827 -0.2402385 1.3239654
0.13280196 -0.2399755 1.322516
0.13773006 -0.24044402 1.325098
0.14267746 -0.2409144 1.3276904
0.1476443 -0.24138671 1.3302933
0.15263072 -0.24186097 1.332907
0.15763675 -0.24233709 1.3355309
0.16266255 -0.24281512 1.3381653
0.022370402 -0.25104561 1.4109205
0.027202895 -0.24977203 1.4037627
0.031986579 -0.24851112 1.3966762
0.036722153 -0.24726251 1.3896587
0.041410513 -0.24602717 1.3827159
0.046052381 -0.24480477 1.3758458
0.050648399 -0.24359468 1.3690449
0.05520083 -0.24240364 1.3623511
0.060150765 -0.24300909 1.3657538
0.06512548 -0.24361755 1.3691734
0.070125185 -0.24422908 1.3726103
0.075150035 -0.24484366 1.3760644
0.08020024 -0.24546133 1.3795358
0.085275955 -0.24608205 1.3830243
0.090110809 -0.24597816 1.3824404
0.094531693 -0.24481285 1.3758912
0.098910905 -0.24365857 1.369404
0.10324866 -0.2425143 1.362973
0.10754654 -0.24138223 1.3566105
0.11180428 -0.24026026 1.3503048
0.11602262 -0.23914868 1.3440576
0.12020271 -0.23804851 1.3378744
0.12434392 -0.23695728 1.3317416
0.12844744 -0.2358762 1.3256657
0.13251366 -0.2348049 1.3196448
0.13742092 -0.23524599 1.3221238
0.14235657 -0.23570514 1.3247043
0.14731163 -0.23616627 1.3272959
0.15228613 -0.23662922 1.3298978
0.15728018 -0.23709399 1.3325099
0.16229387 -0.23756059 1.3351322
0.16732733 -0.23802902 1.3377649
0.022402553 -0.24642807 1.4129483
0.027241793 -0.24517614 1.4057699
0.032032069 -0.24393651 1.3986623
0.03677411 -0.24270912 1.3916248
0.041468807 -0.2414948 1.3846623
0.046116874 -0.24029319 1.3777726
0.050718974 -0.23910375 1.3709526
0.055275742 -0.23792602 1.3641999
0.060230862 -0.23851421 1.3675724
0.065212429 -0.23911223 1.3710012
0.070219032 -0.23971325 1.3744473
0.075250871 -0.24031729 1.3779107
0.08030811 -0.24092433 1.3813913
0.085390933 -0.24153435 1.384889
0.090231612 -0.24143054 1.3842938
0.094657831 -0.24028528 1.3777272
0.099042259 -0.23915081 1.3712225
0.10338549 -0.23802704 1.3647791
0.10768778 -0.2369131 1.3583921
0.1119506 -0.23581083 1.352072
0.11617375 -0.2347184 1.3458083
0.12035874 -0.23363756 1.3396111
0.12450364 -0.23256341 1.3334522
0.12861258 -0.23150264 1.32737
0.13268326 -0.23044987 1.3213338
0.13711314 -0.2300712 1.3191626
0.14203714 -0.23051929 1.3217318
0.14698043 -0.23096925 1.3243117
0.15194309 -0.23142101 1.326902
0.15692519 -0.23187453 1.3295023
0.16192685 -0.23232983 1.3321129
0.1669482 -0.23278692 1.3347337
0.022434793 -0.24179722 1.4149817
0.027280798 -0.24056704 1.4077828
0.032077681 -0.23934886 1.4006541
0.036826216 -0.23814286 1.3935966
0.041527268 -0.2369497 1.3866143
0.046181545 -0.23576893 1.3797046
0.050789747 -0.23460026 1.3728656
0.05535249 -0.23344311 1.366094
0.060311176 -0.23400736 1.369396
0.0652996 -0.23459485 1.372834
0.070313133 -0.23518531 1.3762892
0.075351976 -0.23577875 1.3797621
0.080416255 -0.23637505 1.3832515
0.085506231 -0.2369744 1.3867589
0.090352751 -0.23687072 1.3861521
0.094784312 -0.23574559 1.379568
0.099173971 -0.23463109 1.373046
0.10352232 -0.23352708 1.3665854
0.10782941 -0.23243228 1.3601787
0.11209732 -0.2313498 1.353844
0.11632527 -0.23027657 1.3475636
0.1205152 -0.22921519 1.3413525
0.12466492 -0.22816032 1.3351794
0.12877816 -0.22711784 1.3290789
0.1328533 -0.22608368 1.3230271
0.13689151 -0.22505893 1.3170303
0.14171915 -0.22535667 1.3187727
0.14665073 -0.22579558 1.3213412
0.1516016 -0.22623622 1.3239198
0.15657182 -0.22667859 1.3265085
0.16159943 -0.22717601 1.3294194
0.16672556 -0.22778 1.3329538
0.17187899 -0.22838715 1.3365068
0.022467129 -0.23715302 1.4170212
0.02731991 -0.23594469 1.4098011
0.032123428 -0.23474813 1.4026515
0.03687847 -0.23356365 1.3955741
0.041585892 -0.23239174 1.3885719
0.046246398 -0.23123199 1.3816421
0.050860718 -0.23008421 1.374784
0.055429455 -0.22894774 1.3679935
0.060391702 -0.22948848 1.3712244
0.065387003 -0.23006539 1.3746716
0.070407487 -0.23064522 1.3781362
0.075453334 -0.23122795 1.381618
0.080524705 -0.23181355 1.3851171
0.085621826 -0.2324021 1.3886337
0.090474211 -0.23229866 1.3880156
0.094911121 -0.23119375 1.3814137
0.099306025 -0.23009934 1.3748744
0.10365951 -0.2290152 1.3683965
0.10797217 -0.22794124 1.3619795
0.1122449 -0.22687797 1.3556263
0.1164772 -0.22582313 1.3493235
0.1216263 -0.22655879 1.3537191
0.12685572 -0.2273829 1.3586433
0.12894416 -0.22272173 1.3307922
0.13302377 -0.22170629 1.3247248
0.13706627 -0.22069995 1.3187118
0.14156158 -0.22046477 1.3173065
0.1465881 -0.22104555 1.3207768
0.15164116 -0.2216294 1.3242654
0.156721 -0.22221634 1.3277724
0.1618278 -0.22280639 1.3312981
0.16696179 -0.22339958 1.3348424
0.17212306 -0.22399577 1.3384048
0.022499558 -0.23249543 1.4190664
0.02735913 -0.231309 1.4118249
0.032169301 -0.23013423 1.4046546
0.03693087 -0.22897139 1.397557
0.041644681 -0.2278209 1.3905349
0.046311449 -0.22668235 1.3835856
0.050931886 -0.22555549 1.3767077
0.055506632 -0.22443986 1.3698982
0.060472447 -0.2249575 1.3730577
0.065474644 -0.22552378 1.3765141
0.070502095 -0.22609293 1.379988
0.075554967 -0.22666489 1.383479
0.080633447 -0.2272397 1.3869874
0.085737742 -0.22781743 1.3905137
0.090595998 -0.22771427 1.389884
0.095038265 -0.22662972 1.3832643
0.099438429 -0.22555546 1.3767074
0.10379708 -0.22449136 1.3702126
0.10811479 -0.22343722 1.3637785
0.1123914 -0.2223915 1.3573958
0.11707942 -0.22221197 1.3563
0.12221895 -0.22286984 1.3603154
0.12737837 -0.22351299 1.364241
0.12911062 -0.2183143 1.3325101
0.13319406 -0.21731663 1.3264207
0.1372416 -0.21632998 1.3203984
0.14175981 -0.21612562 1.3191512
0.1467939 -0.21669577 1.3226311
0.15185462 -0.21726891 1.3261294
0.15694219 -0.21784511 1.3296463
0.1620568 -0.21842438 1.333182
0.16719861 -0.21900664 1.3367358
0.022532079 -0.22782436 1.4211177
0.027398454 -0.22665994 1.4138542
0.032215312 -0.22550717 1.4066635
0.036983419 -0.22436608 1.3995457
0.041703638 -0.22323713 1.3925035
0.046376679 -0.22211988 1.3855344
0.051003251 -0.2210141 1.3786367
0.055584025 -0.21991941 1.3718083
0.060553402 -0.22041437 1.3748958
0.065562524 -0.22096999 1.3783616
0.070596956 -0.22152838 1.3818448
0.075656869 -0.22208951 1.385345
0.080742478 -0.22265351 1.388863
0.085853972 -0.22322033 1.3923987
0.090718113 -0.22311752 1.3917574
0.095165767 -0.22205345 1.38512
0.099571191 -0.22099948 1.3785455
0.103935 -0.21995544 1.3720331
0.10825777 -0.21892126 1.3655821
0.11254008 -0.21789674 1.3591914
0.11737181 -0.21797621 1.3596871
0.12248204 -0.21854639 1.3632437
0.12761191 -0.21910723 1.3667421
0.1327617 -0.21966028 1.3701919
0.13336518 -0.21291634 1.3281248
0.1374173 -0.21194872 1.322089
0.14195858 -0.21177427 1.3210008
0.14700028 -0.21233374 1.3244905
0.15206867 -0.21289615 1.3279988
0.15716401 -0.21346156 1.3315257
0.16228642 -0.21402992 1.335071
0.16743608 -0.21460117 1.3386344
0.022564696 -0.22313976 1.4231747
0.027437897 -0.22199753 1.4158896
0.032261454 -0.22086686 1.4086783
0.037036117 -0.21974763 1.4015399
0.041762762 -0.21864034 1.3944776
0.046442103 -0.21754459 1.387489
0.051074825 -0.21645997 1.3805714
0.055661637 -0.21538633 1.3737237
0.06063458 -0.2158591 1.376739
0.065650634 -0.21640395 1.380214
0.070692077 -0.21695155 1.3837066
0.075759053 -0.2175018 1.3872161
0.080851801 -0.21805486 1.3907435
0.085970521 -0.21861075 1.3942889
0.090840556 -0.21850836 1.3936359
0.095293596 -0.21746486 1.3869805
0.09970431 -0.2164313 1.3803885
0.10407329 -0.21540752 1.3738588
0.10840113 -0.21439335 1.3673905
0.11268958 -0.2133909 1.360997
0.11747708 -0.21337673 1.3609066
0.12255996 -0.21387914 1.3641109
0.12766035 -0.21437305 1.3672611
0.13277906 -0.21486066 1.370371
0.13353764 -0.20850612 1.3298421
0.13759345 -0.20755622 1.3237836
0.14215791 -0.20741074 1.3228557
0.14720725 -0.20795944 1.3263553
0.15228333 -0.20851102 1.3298733
0.15738645 -0.20906559 1.3334103
0.16251664 -0.2096229 1.3369648
0.16767424 -0.2101832 1.3405384
0.027477451 -0.21732165 1.4179307
0.032307722 -0.21621323 1.4106987
0.037088968 -0.21511602 1.4035399
0.041822053 -0.21403052 1.3964574
0.046507705 -0.21295634 1.3894489
0.051146593 -0.21189302 1.3825113
0.055739462 -0.21084057 1.3756444
0.060715973 -0.2112916 1.3785871
0.065738983 -0.21182561 1.3820714
0.070787437 -0.21236232 1.3855731
0.075861514 -0.21290167 1.3890922
0.080961436 -0.21344379 1.3926293
0.086087383 -0.21398863 1.3961842
0.090963334 -0.21388675 1.3955195
0.095421776 -0.21286395 1.3888462
0.09983778 -0.2118509 1.3822364
0.10421196 -0.21084744 1.3756893
0.10854488 -0.20985344 1.3692038
0.11283704 -0.20886856 1.3627779
0.1174279 -0.20849444 1.3603369
0.12247611 -0.20892984 1.3631777
0.12753844 -0.20935556 1.3659554
0.13261294 -0.20976956 1.3686565
0.13370983 -0.20408343 1.3315569
0.13777007 -0.20315246 1.3254828
0.14235781 -0.20303491 1.3247159
0.14741477 -0.20357279 1.3282253
0.15249862 -0.20411353 1.3317534
0.15760943 -0.20465703 1.3352995
0.1627475 -0.20520337 1.3388641
0.16791308 -0.20575264 1.3424479
0.027517121 -0.21263231 1.4199779
0.032354128 -0.21154623 1.412725
0.037141975 -0.21047118 1.4055457
0.041881513 -0.20940755 1.3984427
0.046573497 -0.20835511 1.3914144
0.051218569 -0.20731325 1.3844568
0.055817507 -0.20628209 1.3775706
0.060797583 -0.20671178 1.3804401
0.065827571 -0.20723495 1.3839339
0.070883058 -0.20776069 1.3874449
0.07596425 -0.20828909 1.3909734
0.081071347 -0.20882015 1.3945199
0.086204559 -0.20935394 1.3980846
0.09108644 -0.20925263 1.3974081
0.095550306 -0.20825067 1.3907169
0.099971607 -0.20725821 1.3840892
0.10435098 -0.20627519 1.3775245
0.10868846 -0.20530044 1.371015
0.1129863 -0.20433691 1.3645805
0.11724322 -0.20338109 1.3581975
0.12220003 -0.20366672 1.3601049
0.12719786 -0.20399657 1.3623077
0.13219698 -0.20430443 1.3643636
0.13388263 -0.19964953 1.3332777
0.13794713 -0.19873738 1.3271863
0.14255828 -0.19864677 1.3265812
0.14762291 -0.19917376 1.3301005
0.15271445 -0.1997035 1.3336382
0.15783305 -0.20023596 1.337194
0.16297904 -0.20077127 1.3407688
0.1681526 -0.20130946 1.3443629
0.032400664 -0.20686577 1.4147569
0.037195124 -0.20581301 1.407557
0.041941144 -0.20477147 1.4004339
0.046639472 -0.20374085 1.3933855
0.051290743 -0.20272057 1.3864077
0.055895768 -0.20171082 1.3795021
0.06087942 -0.20211968 1.3822982
0.065916397 -0.20263189 1.3858013
0.07097894 -0.20314662 1.3893216
0.076067269 -0.20366398 1.3928597
0.081181578 -0.20418397 1.3964159
0.086322069 -0.20470662 1.3999904
0.091209888 -0.20460597 1.399302
0.095679164 -0.20362489 1.3925924
0.10010581 -0.20265323 1.3859472
0.1044907 -0.20169136 1.379369
0.10883351 -0.20073737 1.3728447
0.1131357 -0.19979282 1.3663849
0.11739778 -0.19885747 1.359988
0.12162054 -0.19793145 1.353655
0.12628567 -0.19776812 1.352538
0.12994838 -0.19610393 1.3411565
0.13405494 -0.1952028 1.3349937
0.13812463 -0.19431092 1.3288941
0.14275928 -0.19424623 1.3284518
0.1478316 -0.19476227 1.3319809
0.15293086 -0.19528092 1.335528
0.1580573 -0.19580233 1.3390939
0.16321121 -0.19632654 1.3426789
0.16839279 -0.19685355 1.3462832
0.032447338 -0.20217188 1.4167949
0.037248433 -0.20114154 1.4095744
0.042000946 -0.20012215 1.4024307
0.046705637 -0.19911352 1.3953623
0.051363144 -0.19811498 1.3883647
0.055974253 -0.19712672 1.3814391
0.06096147 -0.19751516 1.3841612
0.066005453 -0.19801636 1.3876736
0.071075082 -0.19852005 1.3912034
0.076170556 -0.1990263 1.3947511
0.081292093 -0.19953515 1.398317
0.086439893 -0.2000466 1.4019012
0.091333665 -0.19994666 1.4012009
0.095808387 -0.19898665 1.3944732
0.10024036 -0.19803582 1.38781
0.10463013 -0.19709396 1.3812095
0.10897838 -0.19616108 1.3746719
0.11328575 -0.19523714 1.3681972
0.11755276 -0.1943219 1.3617833
0.12178057 -0.19341619 1.3554362
0.12596723 -0.19251595 1.3491274
0.13011667 -0.19162637 1.3428934
0.13422871 -0.19074605 1.3367242
0.13830259 -0.18987305 1.3306063
0.14296088 -0.1898333 1.3303277
0.14804083 -0.19033822 1.3338661
0.15314786 -0.1908458 1.3374232
0.15828221 -0.19135609 1.3409992
0.16344406 -0.19186912 1.3445945
0.16863367 -0.19238488 1.3482089
0.037301887 -0.19645661 1.4115973
0.042060915 -0.19545954 1.4044331
0.046771992 -0.19447301 1.3973446
0.051435743 -0.19349636 1.3903271
0.056052957 -0.19252972 1.3833815
0.061043739 -0.19289823 1.3860292
0.066094756 -0.19338836 1.389551
0.071171477 -0.19388093 1.3930902
0.076274134 -0.19437602 1.3966477
0.081402913 -0.19487365 1.4002233
0.086558029 -0.19537385 1.4038173
0.091457769 -0.1952747 1.4031049
0.095937952 -0.19433586 1.3963591
0.10037519 -0.19340585 1.3896767
0.1047703 -0.19248497 1.38306
0.10912379 -0.19157287 1.3765062
0.11343621 -0.19066937 1.3700143
0.11770814 -0.18977435 1.3635833
0.12194103 -0.18888906 1.3572222
0.12613218 -0.18800834 1.350894
0.13028648 -0.18713877 1.3446459
0.13440251 -0.18627717 1.3384551
0.13848084 -0.18542349 1.3323212
0.14316298 -0.1854078 1.3322084
0.14838025 -0.18606412 1.3369243
0.15373453 -0.18684658 1.3425465
0.15913402 -0.18763563 1.3482161
0.16457938 -0.18843146 1.3539343
0.037355501 -0.19175825 1.4136262
0.04212106 -0.19078362 1.4064413
0.046838526 -0.18981929 1.3993324
0.05150855 -0.18886469 1.3922951
0.056131877 -0.18791977 1.3853292
0.061126243 -0.18826883 1.3879025
0.06618429 -0.18874779 1.3914334
0.071268134 -0.18922919 1.3949822
0.076377995 -0.18971309 1.3985494
0.081514046 -0.19019943 1.4021348
0.086676493 -0.1906883 1.4057386
0.091582224 -0.19059004 1.4050143
0.096067674 -0.18967208 1.3982471
0.10051057 -0.18876375 1.391551
0.10491095 -0.1878638 1.3849167
0.1092696 -0.18697242 1.3783455
0.11358707 -0.18608946 1.3718363
0.11786395 -0.18521477 1.3653883
0.12210152 -0.18434936 1.3590084
0.12629776 -0.1834892 1.3526675
0.13045672 -0.18263941 1.3464029
0.13457733 -0.18179744 1.340196
0.13900836 -0.18141769 1.3373965
0.14432511 -0.18218087 1.3430226
0.14968677 -0.1829505 1.3486962
0.15509394 -0.18372667 1.354418
0.16054796 -0.18451034 1.3601952
0.042181373 -0.1860943 1.4084553
0.046905261 -0.18515234 1.4013261
0.051581565 -0.18421988 1.3942688
0.056211032 -0.18329684 1.3872827
0.061208956 -0.18362686 1.3897805
0.066274069 -0.18409465 1.3933209
0.071365073 -0.18456484 1.3968796
0.076482132 -0.18503742 1.4004563
0.081625469 -0.18551242 1.4040514
0.086795293 -0.18598992 1.4076653
0.091707043 -0.18589266 1.4069291
0.096198201 -0.18499655 1.400147
0.10064634 -0.18410915 1.3934307
0.105052 -0.18323024 1.3867786
0.10941578 -0.18235964 1.3801895
0.11373832 -0.18149732 1.3736631
0.11802015 -0.1806431 1.3671979
0.12226238 -0.17979762 1.3607988
0.1264638 -0.17895819 1.3544457
0.13062741 -0.17812829 1.3481646
0.13490902 -0.17751186 1.3434991
0.14023279 -0.17826201 1.3491766
0.14560176 -0.17901856 1.3549025
0.15101697 -0.17978211 1.3606814
0.15647908 -0.18055278 1.3665143
0.16198823 -0.18133011 1.3723975
0.046972178 -0.18047205 1.4033253
0.051654786 -0.17956187 1.3962479
0.056290403 -0.17866084 1.3892416
0.061291888 -0.17897232 1.3916636
0.066364102 -0.17942886 1.3952136
0.071462251 -0.17988774 1.3987818
0.076586567 -0.18034901 1.4023685
0.096328951 -0.18030803 1.4020499
0.10078247 -0.17944196 1.3953154
0.10519341 -0.17858417 1.3886454
0.10956238 -0.17773452 1.3820387
0.11388997 -0.17689294 1.3754946
0.11817679 -0.17605931 1.3690124
0.12242366 -0.17523386 1.3625939
0.12663025 -0.17441525 1.3562285
0.13079856 -0.17360537 1.3499309
0.13610281 -0.17430711 1.3553876
0.14147915 -0.17505048 1.3611679
0.14690231 -0.17580113 1.3670049
0.15237221 -0.17655829 1.3728924
0.15788943 -0.17732197 1.3788307
0.10970936 -0.173097 1.3838928
0.11404204 -0.17227627 1.3773311
0.11833382 -0.1714633 1.3708315
0.1225853 -0.17065796 1.364393
0.12679715 -0.16986033 1.358016
0.13193461 -0.17031559 1.3616557
0.1373187 -0.17104609 1.367496
0.14274926 -0.171783 1.3733876
0.14822684 -0.17252631 1.3793303
0.12274764 -0.16607034 1.3661999
