# .PCD v0.7 - Point Cloud Data file format
VERSION 0.7
FIELDS x y z
SIZE 4 4 4
TYPE F F F
COUNT 1 1 1
WIDTH 753
HEIGHT 1
VIEWPOINT 0 0 0 1 0 0 0
POINTS 753
DATA ascii
0.23770252 -0.29939631 1.0299917
0.2420601 -0.30030012 1.0331011
0.22436932 -0.29257759 1.0188839
0.22863993 -0.29345125 1.0219264
0.23293613 -0.29433015 1.0249871
0.23725815 -0.29521435 1.0280663
0.24160618 -0.29610381 1.0311638
0.215507 -0.28674898 1.010991
0.21971816 -0.28759858 1.0139863
0.22395436 -0.28845322 1.0169996
0.22821583 -0.28931299 1.0200309
0.23250274 -0.29017785 1.0230801
0.23681542 -0.29104796 1.0261478
0.24115397 -0.29192322 1.0292338
0.24551876 -0.29280385 1.0323386
0.20791692 -0.28255376 1.0087306
0.2113754 -0.28242597 1.0082744
0.2151113 -0.28266692 1.0091347
0.21931376 -0.28350314 1.01212
0.22354096 -0.28434411 1.0151223
0.22779331 -0.28519005 1.0181423
0.232071 -0.28604099 1.0211803
0.2363743 -0.28689706 1.0242364
0.24070348 -0.28775829 1.0273111
0.2450587 -0.2886247 1.0304042
0.20449747 -0.27918351 1.0093955
0.20795982 -0.27905717 1.0089388
0.21141905 -0.27893099 1.0084826
0.21487513 -0.27880493 1.0080267
0.21891043 -0.27942225 1.0102587
0.2231289 -0.28024989 1.0132511
0.2273723 -0.2810823 1.0162606
0.23164085 -0.28191948 1.0192875
0.23593487 -0.28276163 1.0223323
0.24025464 -0.28360885 1.0253955
0.24460036 -0.28446114 1.028477
0.24897228 -0.28531861 1.0315771
0.19760424 -0.27593386 1.0105191
0.20107356 -0.27580884 1.0100614
0.20453973 -0.275684 1.0096041
0.20800276 -0.27555922 1.0091472
0.21146268 -0.27543458 1.0086907
0.21491948 -0.27531007 1.0082347
0.21850847 -0.2753562 1.0084037
0.22271799 -0.27617031 1.0113851
0.22695246 -0.27698922 1.0143842
0.23121215 -0.27781305 1.0174011
0.23549706 -0.27864155 1.0204352
0.23980747 -0.27947485 1.023487
0.24414375 -0.28031319 1.0265571
0.2485061 -0.28115654 1.0296456
0.25289479 -0.28200498 1.0327528
0.19069566 -0.27267697 1.0116453
0.19417195 -0.27255329 1.0111865
0.19764511 -0.27242973 1.0107281
0.2011151 -0.27230629 1.0102701
0.20458198 -0.27218297 1.0098126
0.20804572 -0.27205977 1.0093555
0.21150634 -0.27193671 1.008899
0.21496384 -0.27181378 1.0084429
0.21841821 -0.27169093 1.0079871
0.22230861 -0.27210572 1.009526
0.22653408 -0.27291113 1.0125141
0.23078462 -0.27372131 1.0155199
0.2350605 -0.27453631 1.0185436
0.23936188 -0.27535614 1.0215852
0.24368882 -0.27618068 1.0246443
0.24804167 -0.27701005 1.0277213
0.25242072 -0.2778444 1.0308168
0.18725494 -0.26929042 1.012314
0.19073512 -0.26916823 1.0118546
0.19421212 -0.26904616 1.0113957
0.197686 -0.26892418 1.0109372
0.20115671 -0.26880231 1.0104791
0.20462427 -0.26868054 1.0100213
0.20808871 -0.26855895 1.0095642
0.21155001 -0.26843742 1.0091074
0.21500821 -0.26831603 1.008651
0.21846326 -0.26819474 1.008195
0.2219152 -0.26807356 1.0077395
0.22611721 -0.26884803 1.0106509
0.23035868 -0.26964465 1.0136455
0.23462535 -0.27044603 1.0166581
0.23891748 -0.27125219 1.0196886
0.24323526 -0.27206314 1.0227371
0.24757895 -0.27287897 1.025804
0.25194845 -0.2736994 1.0288881
0.25634429 -0.27452475 1.0319908
0.18032251 -0.26602033 1.0134442
0.18380971 -0.26589948 1.0129838
0.18729374 -0.26577875 1.0125238
0.19077462 -0.26565811 1.0120642
0.19425233 -0.26553759 1.011605
0.19772688 -0.26541716 1.0111463
0.20119828 -0.26529685 1.0106879
0.20466655 -0.26517665 1.0102301
0.20813172 -0.26505664 1.0097728
0.21159373 -0.26493669 1.0093158
0.2150526 -0.26481685 1.0088593
0.21850833 -0.26469707 1.0084031
0.22196096 -0.26457745 1.0079473
0.22570185 -0.2647998 1.0087944
0.2299343 -0.26558304 1.0117782
0.23419183 -0.26637086 1.0147796
0.23847473 -0.26716343 1.0177989
0.24278317 -0.2679607 1.0208362
0.2471174 -0.26876271 1.0238917
0.25147766 -0.26956958 1.0269655
0.25586411 -0.27038124 1.0300577
0.17337456 -0.26274291 1.0145768
0.17686883 -0.2626234 1.0141153
0.1803599 -0.26250401 1.0136544
0.18384781 -0.26238474 1.0131937
0.18733256 -0.26226556 1.0127336
0.19081412 -0.2621465 1.0122738
0.19429255 -0.26202756 1.0118145
0.19776779 -0.26190871 1.0113555
0.20123991 -0.26178998 1.010897
0.20470889 -0.26167136 1.010439
0.20817471 -0.26155284 1.0099814
0.21163744 -0.2614345 1.0095243
0.215097 -0.26131618 1.0090675
0.21855347 -0.26119804 1.0086113
0.22200677 -0.26107997 1.0081553
0.22545697 -0.26096201 1.0076998
0.2295115 -0.26153636 1.0099177
0.23375994 -0.26231077 1.0129081
0.23803361 -0.26308978 1.0159162
0.24233273 -0.26387343 1.0189422
0.24665755 -0.26466176 1.0219864
0.25100827 -0.2654548 1.0250487
0.25538516 -0.26625261 1.0281295
0.26012695 -0.26740322 1.0325725
0.16991241 -0.25934002 1.0152495
0.17341056 -0.25922197 1.0147874
0.17690551 -0.25910404 1.0143257
0.18039732 -0.25898626 1.0138646
0.18388592 -0.25886852 1.0134038
0.18737136 -0.25875092 1.0129434
0.19085364 -0.25863343 1.0124835
0.19433276 -0.25851604 1.0120239
0.19780873 -0.2583988 1.0115649
0.20128153 -0.25828162 1.0111061
0.20475122 -0.25816458 1.010648
0.20821775 -0.25804764 1.0101902
0.21168117 -0.25793085 1.009733
0.21514142 -0.25781408 1.0092759
0.21859856 -0.25769749 1.0088195
0.22205257 -0.257581 1.0083634
0.22550347 -0.25746459 1.0079077
0.22909023 -0.25750452 1.008064
0.23332961 -0.25826558 1.0110434
0.23759411 -0.25903118 1.0140405
0.24188396 -0.2598013 1.0170553
0.2461994 -0.26057601 1.0200881
0.2515575 -0.26241609 1.0272915
0.25939682 -0.26675558 1.0442796
0.16294043 -0.25604925 1.0163862
0.16644567 -0.25593257 1.015923
0.16994771 -0.25581604 1.0154604
0.17344658 -0.2556996 1.0149982
0.17694226 -0.25558326 1.0145364
0.18043473 -0.255467 1.0140749
0.18392406 -0.25535089 1.0136139
0.18741019 -0.25523484 1.0131533
0.19089319 -0.25511894 1.0126933
0.194373 -0.25500312 1.0122335
0.19784969 -0.25488743 1.0117743
0.2013232 -0.25477183 1.0113155
0.20479359 -0.25465637 1.0108571
0.2082608 -0.25454098 1.0103991
0.21172491 -0.25442573 1.0099416
0.21518588 -0.25431058 1.0094845
0.21864371 -0.25419554 1.0090278
0.22209841 -0.25408059 1.0085715
0.22555 -0.25396574 1.0081156
0.22899844 -0.253851 1.0076602
0.23290084 -0.25423527 1.0091856
0.23715623 -0.25498754 1.0121716
0.24307522 -0.25747967 1.0220642
0.25072742 -0.26170817 1.0388492
0.25864968 -0.26609281 1.056254
0.15946518 -0.25263584 1.0170612
0.16297431 -0.25252065 1.0165975
0.16648027 -0.25240558 1.0161343
0.16998303 -0.25229061 1.0156714
0.1734826 -0.25217575 1.015209
0.17697898 -0.25206095 1.0147469
0.18047218 -0.2519463 1.0142853
0.18396221 -0.25183177 1.0138242
0.18744905 -0.2517173 1.0133634
0.19093275 -0.25160295 1.0129031
0.19441326 -0.25148872 1.0124432
0.19789064 -0.2513746 1.0119838
0.20136487 -0.25126061 1.0115248
0.20483597 -0.2511467 1.0110663
0.20830388 -0.25103289 1.0106081
0.21176869 -0.25091919 1.0101504
0.21523033 -0.25080559 1.009693
0.21868888 -0.25069213 1.0092362
0.22214428 -0.25057873 1.0087798
0.22559653 -0.25046545 1.0083237
0.22904569 -0.25035226 1.0078681
0.23467717 -0.25259146 1.0168825
0.24215701 -0.25672284 1.0335147
0.25155899 -0.26273939 1.0577362
0.25788492 -0.26541439 1.0685052
0.15246901 -0.24933168 1.0182019
0.1559853 -0.2492179 1.0177373
0.15949835 -0.24910416 1.0172728
0.16300823 -0.24899058 1.016809
0.16651489 -0.24887708 1.0163455
0.17001836 -0.24876371 1.0158825
0.17351863 -0.24865042 1.0154198
0.17701574 -0.24853724 1.0149577
0.18050964 -0.24842416 1.0144958
0.18400037 -0.24831118 1.0140345
0.18748792 -0.2481983 1.0135735
0.19097231 -0.24808553 1.013113
0.19445354 -0.24797285 1.0126529
0.19793162 -0.24786033 1.0121933
0.20140657 -0.2477479 1.0117342
0.20487836 -0.24763557 1.0112755
0.20834698 -0.24752334 1.0108172
0.21181248 -0.24741121 1.0103593
0.21527483 -0.24729918 1.0099018
0.21873404 -0.24718726 1.0094447
0.22219013 -0.24707542 1.008988
0.22636643 -0.24775538 1.0117648
0.23367774 -0.25179231 1.0282505
0.24653412 -0.26158965 1.0682601
0.24964796 -0.26091027 1.0654857
0.25709313 -0.26471072 1.0810057
0.14545715 -0.24602012 1.0193453
0.14898057 -0.24590768 1.0188794
0.15250079 -0.24579538 1.0184141
0.15601778 -0.24568318 1.0179492
0.15953156 -0.24557106 1.0174847
0.16304214 -0.24545905 1.0170206
0.1665495 -0.24534713 1.0165569
0.17005371 -0.24523535 1.0160937
0.17355469 -0.24512364 1.0156308
0.17705248 -0.24501203 1.0151684
0.18054712 -0.24490054 1.0147065
0.18403855 -0.24478914 1.0142449
0.18752682 -0.24467786 1.0137838
0.19101191 -0.24456665 1.0133231
0.19449385 -0.24445556 1.0128628
0.19797266 -0.24434462 1.0124031
0.20144826 -0.24423374 1.0119437
0.20492077 -0.244123 1.0114849
0.20839007 -0.24401231 1.0110263
0.21185629 -0.24390177 1.0105683
0.21531932 -0.2437913 1.0101105
0.21877925 -0.24368095 1.0096533
0.22527102 -0.24689704 1.0229787
0.23264344 -0.25096181 1.0398204
0.24340805 -0.25850311 1.0710666
0.24813393 -0.25949883 1.0751922
0.14196011 -0.24259007 1.0200243
0.14548749 -0.24247913 1.0195578
0.14901163 -0.24236831 1.0190918
0.15253256 -0.2422576 1.0186263
0.15605026 -0.24214697 1.0181612
0.15956478 -0.24203646 1.0176965
0.16307606 -0.24192603 1.0172322
0.16658418 -0.24181575 1.0167685
0.17008907 -0.24170551 1.016305
0.17359075 -0.24159537 1.0158418
0.17708927 -0.24148537 1.0153793
0.18058459 -0.24137545 1.0149171
0.18407676 -0.24126564 1.0144554
0.18756571 -0.24115592 1.0139941
0.1910515 -0.24104629 1.0135331
0.19453418 -0.24093683 1.0130728
0.19801365 -0.24082741 1.0126128
0.20149001 -0.24071816 1.0121534
0.20496319 -0.24060898 1.0116943
0.20843323 -0.24049987 1.0112356
0.2119001 -0.24039087 1.0107772
0.21695778 -0.24206033 1.0177969
0.22415107 -0.24601947 1.034444
0.23613484 -0.25502563 1.0723124
0.23991147 -0.25502402 1.0723056
0.2472291 -0.25872812 1.0878804
0.13498701 -0.23937696 1.0216496
0.13845842 -0.23915544 1.0207042
0.14198975 -0.23904604 1.0202372
0.14551783 -0.23893668 1.0197705
0.14904271 -0.23882747 1.0193044
0.15256435 -0.23871835 1.0188386
0.15608279 -0.23860933 1.0183734
0.15959801 -0.2385004 1.0179085
0.16311002 -0.23839158 1.017444
0.16661882 -0.23828284 1.0169799
0.17012444 -0.23817421 1.0165163
0.17362684 -0.23806567 1.0160531
0.17712606 -0.23795724 1.0155903
0.1806221 -0.23784889 1.0151279
0.18411495 -0.23774067 1.014666
0.18760464 -0.23763254 1.0142045
0.19109116 -0.23752454 1.0137435
0.19457451 -0.23741661 1.0132829
0.1980547 -0.23730879 1.0128227
0.20153172 -0.23720106 1.012363
0.20500563 -0.23709346 1.0119038
0.2087283 -0.23727234 1.0126672
0.21575087 -0.24113333 1.0291457
0.2230165 -0.24513385 1.0462197
0.2319565 -0.25081477 1.0704656
0.23827338 -0.25352287 1.0820237
0.24630266 -0.25793901 1.1008716
0.13203846 -0.23694573 1.0267125
0.13523112 -0.2362037 1.0234972
0.13848734 -0.23560834 1.0209174
0.14201938 -0.23550048 1.0204501
0.14554821 -0.23539278 1.0199834
0.14907381 -0.23528516 1.0195171
0.15259616 -0.23517762 1.0190511
0.15611531 -0.23507018 1.0185856
0.15963125 -0.23496287 1.0181205
0.16314398 -0.23485562 1.0176558
0.16665351 -0.2347485 1.0171916
0.17015982 -0.23464142 1.0167277
0.17366295 -0.23453449 1.0162643
0.17716287 -0.23442763 1.0158013
0.18065962 -0.23432089 1.0153388
0.18415317 -0.23421423 1.0148766
0.18764356 -0.23410767 1.0144149
0.1911308 -0.23400126 1.0139538
0.19461487 -0.23389493 1.0134931
0.19809575 -0.23378868 1.0130327
0.20157352 -0.23368257 1.0125729
0.20743626 -0.23629697 1.0239013
0.21452081 -0.24018997 1.0407702
0.22185229 -0.24422395 1.0582498
0.22941442 -0.24837428 1.0762337
0.23724601 -0.25267664 1.0948763
0.12906054 -0.23449028 1.0318258
0.13227844 -0.23375231 1.0285785
0.13547614 -0.23301896 1.0253516
0.13865384 -0.23229022 1.0221449
0.14204904 -0.2319535 1.0206633
0.14557858 -0.23184736 1.0201962
0.14910489 -0.23174135 1.0197297
0.15262799 -0.23163542 1.0192636
0.15614785 -0.23152958 1.0187979
0.15966451 -0.23142384 1.0183326
0.16317794 -0.23131819 1.0178677
0.16668817 -0.23121263 1.0174032
0.17019522 -0.23110721 1.0169393
0.17369905 -0.23100184 1.0164757
0.17719971 -0.23089659 1.0160125
0.18069716 -0.23079142 1.0155498
0.18419144 -0.23068637 1.0150875
0.18768254 -0.23058142 1.0146257
0.19117047 -0.23047654 1.0141642
0.19465522 -0.23037177 1.0137032
0.19920596 -0.23150964 1.0187101
0.20611775 -0.23530257 1.0354002
0.21326935 -0.23923258 1.0526934
0.22066011 -0.24329191 1.0705556
0.22828825 -0.24747214 1.0889498
0.1260528 -0.23201022 1.0369902
0.12929626 -0.23127641 1.0337104
0.13251927 -0.23054723 1.0304513
0.13572204 -0.22982267 1.0272127
0.13890474 -0.22910263 1.0239944
0.14207871 -0.22840501 1.0208764
0.14560898 -0.22830048 1.0204092
0.14913599 -0.22819604 1.0199424
0.15265982 -0.22809173 1.0194762
0.15618041 -0.2279875 1.0190103
0.15969779 -0.22788335 1.0185448
0.16321194 -0.2277793 1.0180798
0.16672289 -0.22767533 1.0176151
0.17023064 -0.22757149 1.0171509
0.1737352 -0.22746773 1.0166872
0.17723656 -0.22736406 1.0162238
0.18073471 -0.22726047 1.0157608
0.18422969 -0.22715698 1.0152982
0.18772151 -0.22705363 1.0148363
0.19121015 -0.22695036 1.0143747
0.19780165 -0.23046613 1.0300888
0.20477609 -0.23429337 1.047195
0.21198189 -0.23824513 1.0648577
0.21942756 -0.24232434 1.0830901
0.22713512 -0.24654838 1.1019698
0.11972449 -0.23023939 1.0455406
0.12301481 -0.22950523 1.0422066
0.1262842 -0.22877571 1.0388938
0.12953286 -0.22805081 1.035602
0.13276102 -0.22733051 1.032331
0.13596883 -0.22661471 1.0290805
0.13915652 -0.22590344 1.0258505
0.14232425 -0.2251966 1.0226407
0.14563936 -0.22475208 1.0206221
0.14916711 -0.22464927 1.0201552
0.15269165 -0.22454654 1.0196887
0.15621296 -0.2244439 1.0192226
0.15973105 -0.22434136 1.018757
0.16324592 -0.2242389 1.0182917
0.16675761 -0.22413658 1.017827
0.17026606 -0.22403429 1.0173626
0.17377134 -0.22393213 1.0168986
0.17727339 -0.22383004 1.016435
0.18077229 -0.22372808 1.015972
0.18426798 -0.2236262 1.0155094
0.1895725 -0.22568154 1.0248429
0.19637109 -0.22940548 1.0417536
0.2033978 -0.23325434 1.0592318
0.2106643 -0.23723458 1.0773064
0.21817473 -0.24134372 1.0959665
0.11662924 -0.22770469 1.0508437
0.11994609 -0.2269749 1.0474758
0.12324176 -0.2262498 1.0441295
0.12651643 -0.2255293 1.0408044
0.12977032 -0.22481339 1.0375005
0.13300362 -0.22410199 1.0342175
0.13621652 -0.22339509 1.0309552
0.13940921 -0.22269265 1.0277134
0.14258191 -0.22199461 1.024492
0.14573474 -0.22130091 1.0212907
0.14919826 -0.22110103 1.0203682
0.15272351 -0.22099991 1.0199015
0.15624553 -0.22089885 1.0194352
0.15976433 -0.22079791 1.0189693
0.16327994 -0.22069706 1.0185039
0.16679232 -0.2205963 1.0180389
0.1703015 -0.22049563 1.0175743
0.17380749 -0.22039507 1.0171102
0.17731027 -0.22029458 1.0166465
0.18080986 -0.22019418 1.0161831
0.18805295 -0.2245681 1.0363685
0.19490391 -0.22831601 1.0536649
0.20198745 -0.23219118 1.0715486
0.2093149 -0.23619938 1.0900462
0.21689239 -0.24034022 1.1091559
0.11684619 -0.22441886 1.0527985
0.1201685 -0.22369829 1.0494181
0.12346955 -0.22298233 1.0460594
0.12674953 -0.22227092 1.042722
0.13000865 -0.22156405 1.0394059
0.13324712 -0.22086166 1.0361109
0.13646512 -0.22016372 1.0328367
0.13966285 -0.21947017 1.0295831
0.14284049 -0.21878099 1.02635
0.14599821 -0.21809609 1.023137
0.14922941 -0.21755131 1.0205812
0.15275538 -0.21745177 1.0201143
0.15627812 -0.21735233 1.0196478
0.15979767 -0.217253 1.0191818
0.16331397 -0.21715374 1.0187162
0.16682707 -0.21705456 1.0182509
0.17033698 -0.21695551 1.0177863
0.17384365 -0.21685651 1.0173218
0.17734715 -0.21675764 1.016858
0.18084747 -0.21665885 1.0163945
0.19340284 -0.22720139 1.0658519
0.2005439 -0.23110297 1.0841551
0.20793004 -0.23513584 1.1030742
0.11706401 -0.22112092 1.0547612
0.12039176 -0.22040953 1.0513678
0.1236982 -0.21970278 1.0479965
0.12698349 -0.21900052 1.0446467
0.13024788 -0.21830277 1.0413184
0.13349152 -0.21760947 1.0380113
0.13671461 -0.21692051 1.034725
0.13991739 -0.21623595 1.0314596
0.14309999 -0.2155557 1.0282147
0.14626265 -0.21487969 1.0249901
0.14940551 -0.2142079 1.0217856
0.15278725 -0.21390216 1.0203272
0.15631072 -0.21380432 1.0198605
0.15983097 -0.21370658 1.0193943
0.16334802 -0.21360894 1.0189285
0.16686183 -0.21351138 1.0184631
0.17037243 -0.21341388 1.0179981
0.17387985 -0.21331652 1.0175337
0.17738405 -0.2132192 1.0170695
0.18088505 -0.21312198 1.0166057
0.18438286 -0.21302484 1.0161424
0.12047496 -0.22373921 1.0854942
0.12061591 -0.21710864 1.0533253
0.1239277 -0.21641107 1.0499409
0.12721834 -0.21571805 1.0465786
0.13048798 -0.21502949 1.043238
0.13373682 -0.21434531 1.0399187
0.13696504 -0.21366544 1.0366203
0.14017285 -0.21298991 1.0333428
0.14336047 -0.21231866 1.0300862
0.14652804 -0.21165159 1.0268499
0.14967574 -0.2109887 1.0236337
0.15281916 -0.21035108 1.0205402
0.15634336 -0.21025485 1.0200734
0.15986432 -0.21015871 1.0196069
0.16338207 -0.21006265 1.019141
0.1668966 -0.20996669 1.0186753
0.17040792 -0.2098708 1.0182102
0.17391606 -0.20977503 1.0177455
0.17742097 -0.20967932 1.0172812
0.18092267 -0.2095837 1.0168172
0.1844212 -0.20948817 1.0163537
0.12156028 -0.21506818 1.0615723
0.12415813 -0.21310723 1.0518931
0.12745409 -0.21242347 1.0485181
0.13072896 -0.2117441 1.0451647
0.13398302 -0.21106912 1.041833
0.13721637 -0.21039845 1.0385226
0.14042927 -0.20973203 1.0352331
0.14362186 -0.2090698 1.0319644
0.14679436 -0.20841175 1.0287163
0.14994696 -0.20775785 1.0254886
0.15307984 -0.20710801 1.0222811
0.15637596 -0.20670386 1.0202862
0.15989766 -0.20660934 1.0198196
0.16341612 -0.20651488 1.0193534
0.16693138 -0.20642053 1.0188876
0.17044342 -0.20632623 1.0184222
0.17395225 -0.20623204 1.0179573
0.17745787 -0.20613793 1.0174928
0.1809603 -0.20604391 1.0170287
0.18445955 -0.20594999 1.0165651
0.18795557 -0.20585611 1.0161017
0.12438942 -0.20979111 1.0538527
0.12769075 -0.20911673 1.050465
0.13097093 -0.20844668 1.0470991
0.13423012 -0.20778088 1.0437546
0.13746864 -0.20711942 1.0404319
0.1406866 -0.20646216 1.0371302
0.14388423 -0.20580909 1.0338496
0.14706168 -0.20516011 1.0305896
0.15021916 -0.20451525 1.0273502
0.15335687 -0.20387441 1.0241311
0.15647493 -0.20323756 1.020932
0.15993102 -0.2030585 1.0200324
0.1634502 -0.20296563 1.0195659
0.16696618 -0.20287289 1.0191001
0.17047893 -0.2027802 1.0186344
0.17398849 -0.20268762 1.0181694
0.17749481 -0.2025951 1.0177046
0.18099795 -0.20250267 1.0172403
0.18449791 -0.20241033 1.0167764
0.18799466 -0.20231806 1.016313
0.19148822 -0.20222588 1.0158499
0.12663718 -0.20980188 1.0728961
0.12792829 -0.20579769 1.0524192
0.13121377 -0.20513701 1.0490407
0.13447824 -0.2044806 1.0456839
0.13772188 -0.20382838 1.0423485
0.14094491 -0.20318034 1.0390345
0.14414756 -0.20253643 1.0357417
0.14732999 -0.20189665 1.0324699
0.15049236 -0.20126086 1.0292186
0.15363486 -0.20062906 1.0259876
0.15675771 -0.20000122 1.022777
0.1599644 -0.19950616 1.0202453
0.16348431 -0.19941492 1.0197787
0.16700099 -0.19932376 1.0193125
0.17051446 -0.19923268 1.0188468
0.17402473 -0.1991417 1.0183815
0.17753178 -0.19905078 1.0179166
0.18103562 -0.19895995 1.017452
0.18453628 -0.1988692 1.0169879
0.18803374 -0.19877854 1.0165243
0.19152802 -0.19868796 1.0160611
0.12816671 -0.20246623 1.0543805
0.13145754 -0.20181508 1.0509895
0.13472727 -0.20116811 1.0476203
0.1379761 -0.20052527 1.0442725
0.14120422 -0.19988649 1.040946
0.14441186 -0.19925182 1.0376408
0.14759925 -0.19862121 1.0343568
0.15076654 -0.19799462 1.0310937
0.15391392 -0.19737196 1.0278511
0.15704153 -0.19675319 1.0246288
0.16014962 -0.19613829 1.0214266
0.1635184 -0.19586271 1.0199914
0.1670358 -0.19577315 1.0195251
0.17055 -0.1956837 1.0190592
0.17406099 -0.19559431 1.0185937
0.17756875 -0.19550499 1.0181285
0.18107332 -0.19541575 1.0176638
0.18457468 -0.1953266 1.0171995
0.18807285 -0.19523753 1.0167357
0.19156782 -0.19514853 1.0162722
0.19505964 -0.19505964 1.0158093
0.13182187 -0.20441942 1.0844502
0.1317022 -0.19848078 1.0529456
0.13497721 -0.1978433 1.0495638
0.13823125 -0.19720991 1.0462036
0.14146452 -0.19658056 1.0428649
0.14467722 -0.19595522 1.0395474
0.14786953 -0.19533382 1.0362509
0.15104172 -0.19471644 1.0329757
0.15419395 -0.19410297 1.0297213
0.15732637 -0.19349337 1.0264872
0.16043919 -0.19288756 1.0232735
0.16355254 -0.19230902 1.0202043
0.16707066 -0.19222108 1.0197377
0.17058556 -0.19213322 1.0192716
0.17409727 -0.19204544 1.018806
0.17760576 -0.19195774 1.0183407
0.18111101 -0.19187008 1.0178757
0.18461309 -0.19178253 1.0174112
0.18811196 -0.19169505 1.0169472
0.19160765 -0.19160765 1.0164835
0.19510016 -0.19152033 1.0160203
0.13265799 -0.19618435 1.060587
0.1352281 -0.19450615 1.0515146
0.13848735 -0.19388229 1.048142
0.14172578 -0.19326241 1.0447909
0.14494355 -0.19264649 1.0414611
0.14814089 -0.19203448 1.0381526
0.15131797 -0.19142634 1.0348649
0.15447502 -0.19082208 1.0315982
0.15761225 -0.19022167 1.0283524
0.1607298 -0.18962504 1.0251269
0.16382785 -0.18903214 1.0219216
0.16710551 -0.18866752 1.0199505
0.17062114 -0.18858126 1.0194842
0.17413355 -0.18849508 1.0190183
0.17764275 -0.18840897 1.0185528
0.18114872 -0.18832293 1.0180876
0.18465151 -0.18823697 1.0176229
0.18815111 -0.18815111 1.0171587
0.1916475 -0.18806531 1.0166949
0.19514072 -0.18797959 1.0162315
0.19863075 -0.18789394 1.0157685
0.1354799 -0.19115657 1.0534726
0.1387444 -0.19054231 1.0500875
0.14198798 -0.18993197 1.0467238
0.14521088 -0.18932557 1.0433819
0.14841324 -0.18872301 1.0400612
0.15159526 -0.18812425 1.0367614
0.1547572 -0.18752931 1.0334827
0.15789917 -0.18693809 1.0302244
0.16102147 -0.18635069 1.0269872
0.16412422 -0.18576697 1.0237703
0.16720758 -0.18518689 1.0205735
0.17065673 -0.18502782 1.0196968
0.17416985 -0.18494324 1.0192307
0.17767978 -0.18485875 1.0187651
0.18118645 -0.18477431 1.0182997
0.18468997 -0.18468997 1.0178349
0.18819027 -0.18460569 1.0173705
0.19168739 -0.18452151 1.0169065
0.19518131 -0.18443738 1.0164429
0.1995485 -0.18516663 1.0204618
0.13784839 -0.19072175 1.0718898
0.13900241 -0.18718992 1.0520402
0.14225119 -0.18658923 1.0486642
0.14547919 -0.18599238 1.0453098
0.14868657 -0.18539931 1.0419767
0.1518736 -0.18481004 1.0386649
0.1550404 -0.18422447 1.0353739
0.15818723 -0.18364264 1.0321039
0.16131423 -0.18306448 1.0288545
0.16442166 -0.18248998 1.0256257
0.16750965 -0.18191908 1.0224172
0.17069232 -0.18147288 1.0199095
0.17420617 -0.18138993 1.0194433
0.17771678 -0.18130702 1.0189773
0.18122421 -0.18122421 1.0185119
0.18472843 -0.18114147 1.0180469
0.18822943 -0.18105878 1.0175822
0.19172725 -0.1809762 1.017118
0.1993567 -0.18472502 1.038187
0.13926136 -0.18382502 1.0540001
0.14251536 -0.18323404 1.0506116
0.14574847 -0.18264681 1.0472447
0.14896093 -0.18206336 1.0438993
0.15215296 -0.18148364 1.0405754
0.15532468 -0.18090756 1.0372723
0.15847634 -0.18033515 1.0339903
0.16160813 -0.17976636 1.0307289
0.16472025 -0.17920116 1.0274882
0.16781282 -0.17863946 1.0242677
0.17088616 -0.17808136 1.0210677
0.17424251 -0.17783514 1.0196559
0.17775385 -0.17775385 1.0191898
0.18126197 -0.17767262 1.0187241
0.18476689 -0.17759147 1.0182588
0.1905089 -0.17962268 1.0299052
0.19915815 -0.18426782 1.0565391
0.20826657 -0.18915954 1.0845869
0.14314401 -0.18513292 1.0833859
0.14278051 -0.17986636 1.0525663
0.14601877 -0.17928888 1.0491869
0.14923631 -0.17871509 1.0458292
0.15243331 -0.17814495 1.0424927
0.15560998 -0.17757845 1.0391777
0.15876652 -0.17701554 1.0358835
0.16190311 -0.1764562 1.0326103
0.16501994 -0.17590038 1.0293577
0.1681172 -0.17534804 1.0261254
0.17119506 -0.17479917 1.0229135
0.17427886 -0.17427886 1.0198686
0.1777909 -0.17419916 1.0194023
0.18180116 -0.17460111 1.0217544
0.1901568 -0.17907971 1.0479629
0.19895241 -0.18379413 1.0755514
0.20822492 -0.18876466 1.1046386
0.14373511 -0.17733553 1.0596036
0.14629006 -0.17591844 1.0511363
0.14951269 -0.17535439 1.047766
0.15271473 -0.17479396 1.0444174
0.15589635 -0.1742371 1.04109
0.15905778 -0.17368378 1.0377839
0.16219915 -0.17313392 1.0344985
0.16532075 -0.17258759 1.031234
0.16842268 -0.17204466 1.02799
0.17150515 -0.17150515 1.0247663
0.17456837 -0.17096902 1.0215628
0.1813017 -0.17397638 1.0395322
0.18979473 -0.1785198 1.0666797
0.19874324 -0.18330687 1.0952832
0.14656238 -0.17253546 1.053093
0.14979011 -0.17198125 1.0497102
0.15299718 -0.17143057 1.046349
0.15618376 -0.17088342 1.0430094
0.15935007 -0.17033973 1.039691
0.1624963 -0.16979951 1.0363936
0.16562264 -0.16926271 1.0331172
0.16872928 -0.16872928 1.0298613
0.17259562 -0.16896202 1.0312819
0.18078743 -0.17333227 1.0579563
0.18942083 -0.17794079 1.086085
0.19852638 -0.18280153 1.1157532
0.14903413 -0.17167222 1.0708531
0.15006857 -0.16859555 1.0516615
0.15328068 -0.16805471 1.0482879
0.15647224 -0.16751733 1.0449358
0.15964347 -0.1669834 1.0416052
0.16279453 -0.16645284 1.0382957
0.16592565 -0.16592565 1.0350072
0.17193843 -0.16824083 1.0494488
0.18025944 -0.17266956 1.0770743
0.18903306 -0.1773403 1.1062093
0.15034805 -0.16519724 1.0536201
0.15356523 -0.16466632 1.050234
0.1567618 -0.16413882 1.0468695
0.15993793 -0.16361468 1.0435265
0.16321696 -0.16321696 1.04099
0.17125615 -0.16749229 1.0682578
0.179712 -0.17198245 1.0968958
0.15444398 -0.16588427 1.0823238
0.15385084 -0.16126533 1.0521872
0.1570524 -0.16074775 1.0488102
0.16239098 -0.16239098 1.0595316
0.17054899 -0.16671643 1.0877533
0.15478951 -0.15851939 1.0586069
0.16153504 -0.16153504 1.0787457
