# .PCD v0.7 - Point Cloud Data file format
VERSION 0.7
FIELDS x y z
SIZE 4 4 4
TYPE F F F
COUNT 1 1 1
WIDTH 1420
HEIGHT 1
VIEWPOINT 0 0 0 1 0 0 0
POINTS 1420
DATA ascii
0.24400136 -0.19373499 0.59443939
0.2455982 -0.19334325 0.59323746
0.24718858 -0.19295311 0.59204036
0.24964634 -0.19324088 0.59292334
0.25230432 -0.1936776 0.59426332
0.2549744 -0.19411631 0.59560943
0.25765654 -0.19455698 0.59696156
0.26035094 -0.19499971 0.59831995
0.26305759 -0.19544441 0.59968442
0.26577666 -0.19589117 0.60105526
0.26851073 -0.19634184 0.60243803
0.27125719 -0.19679444 0.60382676
0.27401248 -0.19724633 0.60521328
0.27678406 -0.19770291 0.60661423
0.27956694 -0.19816048 0.60801822
0.28235921 -0.1986177 0.60942107
0.28516844 -0.19907986 0.61083913
0.28799129 -0.19954452 0.61226487
0.29082462 -0.2000095 0.61369157
0.29367238 -0.20047745 0.61512738
0.29653352 -0.20094763 0.61657006
0.29940876 -0.20142044 0.61802077
0.30229518 -0.20189388 0.61947346
0.30519855 -0.20237181 0.62093985
0.30811408 -0.20285091 0.62240988
0.31104368 -0.20333242 0.62388736
0.31398717 -0.20381624 0.62537181
0.31694472 -0.20430234 0.62686336
0.31991643 -0.20479079 0.62836206
0.32290238 -0.20528159 0.62986797
0.32590267 -0.20577472 0.63138109
0.32891741 -0.20627025 0.63290149
0.3319467 -0.20676816 0.63442922
0.33499065 -0.20726846 0.63596433
0.33804935 -0.20777121 0.6375069
0.34112296 -0.20827639 0.63905698
0.34421155 -0.20878404 0.64061463
0.34731522 -0.2092942 0.64217991
0.35043409 -0.20980683 0.64375281
0.35356826 -0.21032196 0.64533341
0.35671791 -0.21083966 0.64692187
0.35988307 -0.2113599 0.64851815
0.3630639 -0.21188271 0.65012228
0.3662605 -0.21240813 0.65173441
0.36947301 -0.21293616 0.65335459
0.3727015 -0.21346679 0.65498275
0.3759461 -0.21400009 0.65661907
0.37920696 -0.21453606 0.65826356
0.2292584 -0.20667137 0.64106268
0.23021814 -0.20551181 0.63746589
0.23116715 -0.20436516 0.63390917
0.23210561 -0.20323123 0.6303919
0.23303376 -0.20210986 0.62691355
0.23395172 -0.20100076 0.62347335
0.23485969 -0.19990383 0.62007082
0.23575783 -0.1988188 0.61670524
0.23664622 -0.19774547 0.6133759
0.23752509 -0.19668368 0.61008239
0.2383946 -0.19563325 0.6068241
0.23925486 -0.19459395 0.60360038
0.24010603 -0.19356565 0.60041076
0.24119487 -0.19274525 0.597866
0.24280678 -0.19235341 0.5966506
0.24441214 -0.19196318 0.59544015
0.24601085 -0.19157441 0.59423423
0.24760306 -0.19118717 0.59303308
0.24918886 -0.1908015 0.59183681
0.25101802 -0.19060704 0.59123361
0.25367156 -0.1910366 0.59256601
0.25633705 -0.19146809 0.59390444
0.25901461 -0.1919015 0.59524882
0.26170433 -0.19233692 0.5965994
0.26440626 -0.19277428 0.59795606
0.26712051 -0.19321366 0.59931892
0.2698516 -0.1936582 0.60069782
0.27259067 -0.19410153 0.60207295
0.27533972 -0.19454505 0.60344869
0.27810776 -0.19499511 0.60484469
0.28088543 -0.195445 0.60624021
0.28367552 -0.19589669 0.60764128
0.28647825 -0.19635026 0.60904819
0.28929231 -0.19680479 0.61045808
0.29212338 -0.19726413 0.61188287
0.29496455 -0.19772348 0.61330771
0.29782024 -0.19818583 0.61474186
0.30068928 -0.19865033 0.61618263
0.30357182 -0.199117 0.61763018
0.30646813 -0.199586 0.61908495
0.30937919 -0.20005792 0.62054878
0.31230122 -0.20053025 0.62201387
0.31523922 -0.20100619 0.62349015
0.31819081 -0.20148414 0.6249727
0.32115647 -0.20196439 0.62646234
0.32413632 -0.20244692 0.62795907
0.32713047 -0.20293178 0.62946302
0.33013898 -0.20341897 0.63097423
0.33316198 -0.20390849 0.63249266
0.33619952 -0.20440038 0.63401842
0.33925176 -0.20489463 0.63555151
0.34231883 -0.2053913 0.63709211
0.34540084 -0.2058904 0.63864022
0.34849778 -0.2063919 0.64019579
0.35160992 -0.20689587 0.64175904
0.35473725 -0.20740229 0.64332986
0.35787994 -0.20791119 0.64490843
0.36103806 -0.20842262 0.64649475
0.36421177 -0.20893654 0.64808887
0.36740121 -0.20945302 0.64969093
0.37060642 -0.20997205 0.65130091
0.37382758 -0.21049367 0.65291888
0.37706476 -0.21101791 0.65454495
0.38031808 -0.21154471 0.65617901
0.22817516 -0.20547116 0.64438224
0.22914593 -0.20431237 0.64074814
0.23010582 -0.2031666 0.63715488
0.23105501 -0.20203361 0.63360167
0.23199368 -0.20091318 0.63008785
0.23292196 -0.1998051 0.62661278
0.23384009 -0.19870917 0.62317586
0.23474823 -0.19762526 0.61977655
0.23564653 -0.1965531 0.61641413
0.23653515 -0.19549252 0.61308801
0.23741421 -0.19444332 0.6097976
0.23828389 -0.19340532 0.60654229
0.23914436 -0.19237836 0.60332161
0.23999569 -0.1913622 0.60013485
0.24160327 -0.19096154 0.59887832
0.24321704 -0.19057266 0.59765875
0.24482428 -0.19018538 0.59644419
0.24642487 -0.18979958 0.59523427
0.24801894 -0.18941531 0.59402913
0.24960655 -0.18903258 0.59282887
0.25118777 -0.1886514 0.59163344
0.25276262 -0.18827173 0.59044278
0.25503093 -0.18841061 0.59087831
0.25769189 -0.18883495 0.5922091
0.26036489 -0.18926121 0.59354591
0.26304993 -0.1896894 0.59488875
0.26574719 -0.19011952 0.59623766
0.26845664 -0.19055158 0.59759265
0.27118242 -0.19098839 0.59896255
0.27391624 -0.19142409 0.60032892
0.27666405 -0.19186279 0.60170478
0.27942398 -0.1923032 0.60308594
0.28219619 -0.19274533 0.60447252
0.28498119 -0.1931895 0.60586548
0.28777903 -0.1936357 0.60726482
0.29058984 -0.19408399 0.60867071
0.29341099 -0.19453254 0.61007744
0.29625013 -0.19498645 0.61150092
0.29909936 -0.19544037 0.61292446
0.30196288 -0.19589707 0.61435676
0.30483985 -0.19635591 0.61579573
0.30773032 -0.19681692 0.6172415
0.31063437 -0.19728008 0.61869401
0.31355214 -0.19774543 0.62015343
0.31648454 -0.1982135 0.62162137
0.31942761 -0.19868177 0.62308991
0.3223891 -0.19915503 0.62457412
0.3253628 -0.19962938 0.62606174
0.32835081 -0.20010605 0.62755662
0.33135313 -0.20058501 0.62905866
0.33436981 -0.20106623 0.63056785
0.33740103 -0.2015498 0.63208437
0.34044686 -0.20203568 0.63360816
0.34350741 -0.2025239 0.63513929
0.34658277 -0.20301451 0.63667786
0.34967309 -0.2035075 0.63822395
0.35277846 -0.20400289 0.63977754
0.35589895 -0.20450066 0.64133865
0.35903475 -0.20500092 0.6429075
0.3621859 -0.2055036 0.64448398
0.36535251 -0.20600875 0.64606816
0.36853477 -0.20651639 0.6476602
0.37173277 -0.20702656 0.64926016
0.37494659 -0.20753925 0.650868
0.37817636 -0.20805447 0.65248382
0.38142222 -0.20857227 0.65410769
0.22806261 -0.20310055 0.64406443
0.22903356 -0.20195571 0.64043397
0.22999361 -0.20082369 0.63684416
0.23094296 -0.1997043 0.6332944
0.23188178 -0.19859733 0.62978399
0.23281027 -0.19750255 0.62631232
0.23372857 -0.19641979 0.62287867
0.23463692 -0.19534887 0.61948264
0.23553538 -0.19428955 0.61612338
0.23642419 -0.19324169 0.61280042
0.23730344 -0.19220504 0.60951304
0.23817331 -0.19117947 0.60626078
0.23903392 -0.19016477 0.60304302
0.24039075 -0.18955922 0.60112274
0.24201304 -0.18917176 0.59989405
0.24362871 -0.1887859 0.59867036
0.24523783 -0.18840159 0.59745169
0.24684031 -0.1880188 0.59623778
0.24843621 -0.18763748 0.59502858
0.25002563 -0.18725769 0.59382421
0.25160867 -0.18687947 0.59262478
0.25318527 -0.18650274 0.59143013
0.25475559 -0.18612756 0.59024036
0.25638267 -0.18579958 0.58920032
0.25903907 -0.18621683 0.59052348
0.26170743 -0.18663599 0.59185266
0.26438785 -0.187057 0.59318781
0.26708037 -0.18747996 0.59452903
0.26978514 -0.18790482 0.59587634
0.27250522 -0.18833373 0.59723651
0.27523285 -0.18876123 0.59859216
0.27797768 -0.18919393 0.59996432
0.28073218 -0.18962665 0.60133654
0.28349936 -0.19006138 0.60271513
0.2862792 -0.19049805 0.60409993
0.28907189 -0.19093679 0.60549122
0.29187745 -0.19137752 0.60688883
0.29469597 -0.19182029 0.60829294
0.29752415 -0.19226289 0.60969651
0.30037177 -0.19271162 0.61111951
0.3032288 -0.19315998 0.61254132
0.30610031 -0.19361116 0.61397207
0.3089852 -0.19406438 0.61540931
0.31188357 -0.19451971 0.61685324
0.31479555 -0.19497718 0.61830395
0.31772131 -0.19543682 0.61976153
0.32066086 -0.19589861 0.62122595
0.32361457 -0.19636273 0.62269777
0.32658106 -0.19682831 0.62417418
0.32956389 -0.19729744 0.62566185
0.33255994 -0.1977682 0.62715471
0.33557037 -0.19824123 0.62865478
0.33859521 -0.19871654 0.63016206
0.34163466 -0.19919415 0.63167661
0.34468871 -0.19967404 0.63319844
0.34775749 -0.20015624 0.6347276
0.35084116 -0.20064078 0.63626415
0.3539398 -0.20112769 0.6378082
0.35705352 -0.20161697 0.63935977
0.36018237 -0.20210861 0.64091885
0.36332658 -0.20260268 0.64248562
0.36648622 -0.20309918 0.64406008
0.3696613 -0.20359807 0.64564216
0.37285206 -0.20409945 0.64723212
0.37605858 -0.20460331 0.64882994
0.37928098 -0.20510966 0.65043563
0.38251933 -0.20561852 0.6520493
0.22795022 -0.20073228 0.64374697
0.22892131 -0.19960134 0.64012009
0.22988153 -0.19848306 0.6365338
0.23083104 -0.19737726 0.6329875
0.23177002 -0.1962837 0.62948042
0.23269869 -0.19520223 0.62601215
0.23361714 -0.19413255 0.62258172
0.23452567 -0.19307461 0.6191889
0.23542432 -0.19202814 0.61583287
0.2363133 -0.19099294 0.61251301
0.23719274 -0.18996884 0.60922873
0.2380628 -0.18895568 0.6059795
0.23916909 -0.18814635 0.60338402
0.24079999 -0.18776034 0.60214609
0.2424242 -0.18737592 0.60091323
0.24404177 -0.18699305 0.59968537
0.24565275 -0.18661174 0.59846252
0.24725714 -0.18623197 0.59724462
0.24885488 -0.18585365 0.59603131
0.25044614 -0.18547685 0.59482294
0.25203097 -0.18510158 0.59361947
0.25360942 -0.18472785 0.59242088
0.25518146 -0.18435559 0.59122705
0.25674722 -0.18398483 0.59003806
0.25830665 -0.18361558 0.58885384
0.2603786 -0.18361358 0.58884746
0.26304236 -0.18402569 0.59016907
0.26571813 -0.18443964 0.59149665
0.26840597 -0.18485548 0.59283018
0.27110732 -0.18527412 0.59417278
0.27382085 -0.18569461 0.59552127
0.27654564 -0.18611628 0.59687358
0.27928331 -0.18654019 0.59823304
0.28203282 -0.18696558 0.59959728
0.28479493 -0.18739294 0.60096782
0.2875697 -0.18782227 0.60234469
0.29035717 -0.18825355 0.60372782
0.29315755 -0.18868685 0.60511738
0.29597077 -0.18912211 0.60651326
0.29879701 -0.1895594 0.60791564
0.30163366 -0.189997 0.60931903
0.30448806 -0.19043954 0.61073822
0.30735305 -0.19088241 0.61215854
0.31023264 -0.19132814 0.61358798
0.31312534 -0.19177572 0.61502337
0.31603158 -0.19222538 0.61646545
0.31895152 -0.19267718 0.61791438
0.3218852 -0.19313112 0.6193701
0.32483271 -0.19358717 0.62083268
0.32779422 -0.19404541 0.62230223
0.33076975 -0.1945058 0.6237787
0.33376044 -0.19496897 0.62526411
0.33676377 -0.19543339 0.62675351
0.33978218 -0.19590047 0.62825143
0.34281519 -0.19636986 0.62975675
0.34586278 -0.19684151 0.63126934
0.34892505 -0.19731545 0.63278925
0.35200211 -0.19779167 0.63431644
0.35509402 -0.19827016 0.63585097
0.35820097 -0.198751 0.63739306
0.361323 -0.19923419 0.6389426
0.36446023 -0.1997197 0.64049965
0.36761281 -0.20020759 0.64206433
0.37078086 -0.20069788 0.6436367
0.37396443 -0.20119058 0.64521676
0.37716365 -0.2016857 0.64680457
0.38037866 -0.20218325 0.64840025
0.22880918 -0.19724929 0.63980651
0.22976954 -0.19614473 0.63622373
0.23071921 -0.19505247 0.63268083
0.23165838 -0.19397232 0.62917721
0.2325872 -0.19290408 0.62571222
0.23350583 -0.1918475 0.62228507
0.23441453 -0.19080253 0.61889553
0.2353134 -0.18976888 0.61554271
0.23620255 -0.18874633 0.61222595
0.23708214 -0.18773472 0.60894465
0.2379524 -0.18673395 0.60569847
0.2395778 -0.18633829 0.60441512
0.24121061 -0.18595532 0.6031729
0.24283677 -0.18557395 0.60193586
0.24445623 -0.18519412 0.60070384
0.2460691 -0.18481585 0.59947687
0.2476754 -0.18443914 0.59825492
0.24927498 -0.18406381 0.59703749
0.25086805 -0.18369 0.59582502
0.2524547 -0.18331772 0.59461749
0.25403491 -0.18294697 0.59341484
0.25560874 -0.18257768 0.59221703
0.25717625 -0.18220991 0.5910241
0.25873747 -0.18184359 0.58983594
0.26029238 -0.18147875 0.58865249
0.26184106 -0.18111536 0.58747381
0.26436973 -0.18143021 0.58849502
0.26704088 -0.18183717 0.58981508
0.26972401 -0.18224595 0.59114105
0.27242145 -0.18265805 0.59247774
0.27512807 -0.18307 0.59381396
0.27784932 -0.18348539 0.59516132
0.28058141 -0.18390167 0.5965116
0.28332597 -0.18431987 0.59786808
0.28608301 -0.18473996 0.59923071
0.28885269 -0.18516198 0.60059959
0.29163504 -0.18558593 0.60197473
0.29443017 -0.18601185 0.60335624
0.29723814 -0.18643969 0.60474402
0.30005905 -0.18686952 0.60613823
0.30289301 -0.18730134 0.60753888
0.30574009 -0.18773514 0.60894603
0.30859908 -0.18817018 0.61035711
0.31147212 -0.18860769 0.61177623
0.31435972 -0.18904795 0.6132043
0.31726027 -0.18948993 0.61463791
0.32017443 -0.18993399 0.61607826
0.32310221 -0.1903801 0.61752528
0.32604381 -0.19082831 0.61897916
0.32899931 -0.19127867 0.62043995
0.33196875 -0.19173114 0.62190759
0.33495235 -0.19218577 0.62338227
0.33795005 -0.19264254 0.62486386
0.34096226 -0.1931016 0.62635291
0.34398821 -0.19356249 0.62784785
0.34702975 -0.19402622 0.62935203
0.3500855 -0.19449194 0.63086265
0.35315594 -0.19495989 0.63238055
0.3562412 -0.19543011 0.63390577
0.35934132 -0.1959026 0.63543832
0.36245656 -0.1963774 0.63697839
0.36558691 -0.19685449 0.6385259
0.36873245 -0.19733389 0.64008093
0.37189341 -0.19781564 0.64164358
0.37506986 -0.19829978 0.64321393
0.3782618 -0.19878624 0.64479184
0.38146955 -0.19927514 0.64637762
0.22869714 -0.19489953 0.63949323
0.22965765 -0.19380866 0.63591391
0.23060751 -0.19272995 0.63237453
0.23154682 -0.19166316 0.62887424
0.23247583 -0.19060814 0.62541258
0.23339465 -0.18956466 0.62198877
0.2343035 -0.18853259 0.6186024
0.23520252 -0.1875117 0.61525267
0.23609187 -0.1865018 0.61193907
0.23697168 -0.18550272 0.60866094
0.23834637 -0.18490548 0.60670131
0.23998791 -0.18452403 0.60544974
0.24162267 -0.18414415 0.60420328
0.24325074 -0.18376584 0.60296202
0.24487214 -0.18338908 0.60172582
0.24648684 -0.18301384 0.60049456
0.24809502 -0.18264017 0.5992685
0.24969651 -0.1822679 0.59804708
0.25129139 -0.18189713 0.59683049
0.25287986 -0.18152787 0.5956189
0.25446188 -0.18116011 0.59441221
0.2560375 -0.18079382 0.5932104
0.25760674 -0.18042903 0.59201342
0.25916967 -0.18006566 0.59082121
0.26072633 -0.1797038 0.58963388
0.26227674 -0.17934337 0.58845127
0.26382095 -0.1789844 0.58727342
0.26568952 -0.17884937 0.58683038
0.26835611 -0.17924944 0.58814305
0.27103457 -0.17965128 0.58946151
0.27372676 -0.18005601 0.5907895
0.27642995 -0.18046181 0.59212101
0.27914485 -0.18086915 0.59345752
0.28187212 -0.18127835 0.59480017
0.2846117 -0.18168938 0.59614885
0.28736371 -0.18210228 0.5975036
0.29012829 -0.18251707 0.59886461
0.29290551 -0.18293376 0.60023183
0.29569539 -0.18335234 0.60160524
0.29849812 -0.18377286 0.60298502
0.3013137 -0.18419531 0.60437113
0.30414227 -0.18461969 0.60576361
0.30698386 -0.18504603 0.60716248
0.30983868 -0.18547437 0.60856789
0.31270504 -0.18590368 0.60997659
0.31558606 -0.1863358 0.61139441
0.31848168 -0.18677062 0.6128211
0.32139003 -0.187207 0.61425292
0.32431203 -0.18764544 0.61569148
0.32724771 -0.1880859 0.61713672
0.33019719 -0.18852843 0.61858875
0.33316064 -0.18897308 0.62004769
0.33613801 -0.18941979 0.62151343
0.33912957 -0.18986866 0.6229862
0.34213531 -0.19031964 0.62446594
0.34515539 -0.19077279 0.62595278
0.34818983 -0.19122808 0.62744665
0.35123834 -0.19168527 0.62894678
0.35430273 -0.19214538 0.63045645
0.35738137 -0.1926074 0.63197243
0.36047482 -0.19307165 0.63349569
0.36358315 -0.19353811 0.63502622
0.36670664 -0.19400688 0.63656431
0.36984527 -0.1944779 0.6381098
0.37299913 -0.19495121 0.6396628
0.37616843 -0.19542685 0.64122343
0.37935326 -0.19590481 0.64279169
0.38255361 -0.1963851 0.64436758
0.22954589 -0.19147487 0.63560444
0.2304959 -0.19040966 0.63206846
0.23143539 -0.18935622 0.62857157
0.23236457 -0.18831441 0.62511325
0.23328355 -0.18728398 0.62169272
0.23419259 -0.18626481 0.61830956
0.23509181 -0.18525667 0.61496305
0.23598132 -0.18425938 0.61165249
0.23710558 -0.18346179 0.60900486
0.2387559 -0.18308187 0.60774374
0.24039941 -0.18270354 0.60648787
0.24203613 -0.18232678 0.60523719
0.24366611 -0.18195155 0.60399163
0.24528942 -0.18157788 0.6027512
0.24690604 -0.18120572 0.60151583
0.24851607 -0.1808351 0.60028553
0.25011945 -0.18046592 0.59906006
0.2517162 -0.18009821 0.59783942
0.25330645 -0.17973197 0.59662366
0.25489026 -0.17936723 0.59541291
0.25646767 -0.17900397 0.59420705
0.25803867 -0.17864215 0.59300601
0.25960335 -0.17828181 0.59180987
0.26116171 -0.17792292 0.59061849
0.26271385 -0.17756549 0.589432
0.26425976 -0.17720948 0.58825022
0.26579943 -0.17685486 0.58707309
0.267333 -0.17650172 0.58590078
0.26966384 -0.17667632 0.58648038
0.27233768 -0.17707126 0.58779138
0.27502492 -0.17746891 0.58911139
0.27772295 -0.1778675 0.59043455
0.28043306 -0.17826785 0.5917635
0.28315538 -0.17867 0.59309846
0.28589001 -0.17907396 0.59443939
0.28863704 -0.17947976 0.59578645
0.29139653 -0.17988738 0.5971396
0.29416862 -0.18029688 0.59849894
0.29695332 -0.18070824 0.59986442
0.29975078 -0.1811215 0.60123622
0.30256104 -0.18153663 0.60261428
0.30538422 -0.18195367 0.60399866
0.30822045 -0.18237266 0.60538948
0.31106973 -0.18279356 0.60678667
0.31393218 -0.18321639 0.6081903
0.31680584 -0.18363999 0.60959643
0.31969559 -0.18406716 0.61101443
0.32259852 -0.18449615 0.61243844
0.32551464 -0.18492693 0.61386842
0.32844442 -0.18535973 0.61530513
0.331388 -0.18579458 0.61674863
0.33434534 -0.18623145 0.61819881
0.33731663 -0.18667038 0.61965585
0.34030202 -0.18711141 0.62111986
0.3433015 -0.18755451 0.62259072
0.34631526 -0.18799971 0.62406862
0.34934333 -0.18844703 0.62555349
0.35238585 -0.18889648 0.62704545
0.35544294 -0.1893481 0.62854463
0.35851485 -0.18980198 0.63005126
0.36160132 -0.19025792 0.6315648
0.36470294 -0.19071621 0.63308609
0.36781952 -0.19117671 0.63461471
0.37095118 -0.19163942 0.63615072
0.37409806 -0.19210441 0.63769424
0.37726024 -0.19257164 0.63924521
0.38043782 -0.19304115 0.64080375
0.38363099 -0.19351298 0.64236999
0.22943424 -0.18914334 0.63529527
0.23038439 -0.18809161 0.63176268
0.23132405 -0.1870515 0.6282692
0.23225339 -0.18602285 0.62481415
0.23317258 -0.18500547 0.62139696
0.23408179 -0.18399918 0.61801702
0.23498116 -0.18300375 0.61467361
0.23587085 -0.18201907 0.61136621
0.23751454 -0.18162876 0.61005527
0.23916684 -0.181252 0.6087898
0.24081232 -0.18087681 0.60752958
0.242451 -0.18050316 0.6062746
0.24408293 -0.18013108 0.60502481
0.24570812 -0.17976049 0.60378009
0.24732664 -0.17939143 0.60254049
0.24893855 -0.17902389 0.60130602
0.25054383 -0.17865783 0.6000765
0.25214243 -0.17829317 0.59885168
0.2537345 -0.17793001 0.59763187
0.2553201 -0.17756829 0.59641695
0.25689927 -0.17720807 0.59520704
0.25847206 -0.17684931 0.59400201
0.26003847 -0.17649198 0.59280181
0.26159859 -0.17613611 0.5916065
0.26315242 -0.17578167 0.59041601
0.2647 -0.17542863 0.58923024
0.2662414 -0.17507704 0.58804929
0.26777661 -0.17472681 0.58687299
0.26930571 -0.17437802 0.58570147
0.27096426 -0.17411773 0.58482718
0.27363363 -0.17450598 0.58613122
0.27631545 -0.17489628 0.58744222
0.27900866 -0.17528796 0.58875775
0.28171387 -0.17568135 0.59007907
0.28443131 -0.17607653 0.5914064
0.28716102 -0.1764735 0.59273976
0.28990304 -0.17687225 0.59407908
0.29265749 -0.17727283 0.59542453
0.29542443 -0.17767519 0.59677601
0.298204 -0.17807943 0.59813374
0.30099621 -0.17848547 0.59949756
0.30380118 -0.17889337 0.60086763
0.30661902 -0.17930315 0.60224402
0.30944976 -0.17971481 0.60362667
0.31229356 -0.18012838 0.60501575
0.3151505 -0.18054384 0.60641122
0.31802061 -0.18096122 0.60781312
0.32090163 -0.18137918 0.60921699
0.32380024 -0.18180147 0.61063534
0.32671016 -0.18222448 0.6120562
0.3296341 -0.18264972 0.61348444
0.33257169 -0.18307693 0.61491936
0.33552304 -0.18350613 0.61636096
0.33848825 -0.18393736 0.61780936
0.34146747 -0.18437061 0.6192646
0.34446073 -0.18480591 0.6207267
0.34746817 -0.18524328 0.62219572
0.35048985 -0.18568271 0.62367171
0.35352594 -0.18612425 0.62515473
0.3565765 -0.1865679 0.62664485
0.35964161 -0.18701364 0.628142
0.36272141 -0.18746153 0.62964636
0.36581603 -0.18791157 0.63115799
0.36892563 -0.18836385 0.63267708
0.37205034 -0.18881835 0.63420367
0.37519023 -0.18927507 0.63573772
0.37834534 -0.18973401 0.63727921
0.38151577 -0.19019517 0.63882816
0.38470164 -0.19065858 0.64038467
0.23027302 -0.18577582 0.63145727
0.23121285 -0.18474902 0.62796718
0.23214234 -0.18373351 0.62451541
0.2330617 -0.18272913 0.6211015
0.23397107 -0.18173568 0.61772472
0.23487063 -0.18075296 0.61438447
0.23626368 -0.18016455 0.61238438
0.23792489 -0.17978939 0.61110926
0.2395792 -0.17941581 0.60983944
0.24122666 -0.17904378 0.60857493
0.24286729 -0.1786733 0.6073156
0.24450114 -0.17830433 0.60606146
0.24612826 -0.17793688 0.6048125
0.2477487 -0.17757095 0.60356873
0.24936248 -0.17720653 0.60233003
0.25096962 -0.17684357 0.60109633
0.25257009 -0.17648202 0.5998674
0.25416398 -0.17612192 0.59864342
0.2557514 -0.17576329 0.59742445
0.25733235 -0.17540613 0.59621042
0.25890687 -0.17505041 0.59500128
0.2604751 -0.17469615 0.59379715
0.26203692 -0.17434329 0.59259778
0.26359245 -0.17399186 0.59140325
0.26514173 -0.17364185 0.59021354
0.2666848 -0.17329325 0.58902866
0.26822171 -0.17294604 0.58784848
0.26975244 -0.17260021 0.58667302
0.27127704 -0.17225575 0.58550221
0.27279562 -0.1719127 0.58433616
0.27492213 -0.17195503 0.58448005
0.27759862 -0.17233817 0.58578235
0.28028703 -0.172723 0.58709037
0.28298748 -0.17310956 0.5884043
0.28570005 -0.17349786 0.58972412
0.28842479 -0.17388786 0.59104979
0.29116184 -0.17427967 0.59238154
0.29391122 -0.17467323 0.59371924
0.29667309 -0.17506857 0.59506303
0.29944745 -0.1754657 0.5964129
0.30223444 -0.17586464 0.5977689
0.30503413 -0.1762654 0.59913111
0.30784661 -0.17666799 0.60049951
0.31067196 -0.17707242 0.60187417
0.3135103 -0.1774787 0.60325515
0.3163617 -0.17788689 0.60464257
0.31922624 -0.17829692 0.60603631
0.32210395 -0.17870884 0.60743642
0.32499504 -0.17912269 0.60884309
0.32789925 -0.17953828 0.61025572
0.33081675 -0.17995569 0.61167449
0.3337484 -0.18037535 0.61310095
0.33669376 -0.18079697 0.61453402
0.3396529 -0.18122056 0.61597383
0.34262598 -0.18164615 0.61742043
0.34561303 -0.18207374 0.61887383
0.34861419 -0.18250336 0.62033409
0.35162956 -0.182935 0.62180126
0.35465917 -0.18336868 0.62327534
0.35770327 -0.18380444 0.62475652
0.36076179 -0.18424226 0.62624466
0.36383495 -0.18468218 0.62773997
0.36692283 -0.1851242 0.62924242
0.37002549 -0.18556833 0.63075203
0.37314311 -0.18601462 0.63226897
0.37627557 -0.18646297 0.63379294
0.37942374 -0.18691376 0.63532519
0.38258708 -0.18736669 0.63686472
0.23016173 -0.18346225 0.63115209
0.23110174 -0.18244874 0.6276654
0.23203138 -0.18144634 0.62421691
0.23295096 -0.18045495 0.62080634
0.23386048 -0.17947432 0.61743271
0.23500323 -0.17868909 0.61473137
0.23667344 -0.17831561 0.61344647
0.23833668 -0.17794368 0.61216694
0.23999299 -0.17757328 0.61089271
0.24164242 -0.17720443 0.60962379
0.243285 -0.17683712 0.60836011
0.24492082 -0.17647132 0.60710174
0.24654986 -0.17610703 0.60584849
0.24817219 -0.17574425 0.60460043
0.24978785 -0.17538296 0.60335749
0.25139686 -0.17502314 0.60211962
0.25299919 -0.17466471 0.60088652
0.25459492 -0.17430772 0.59965843
0.25618413 -0.17395219 0.59843534
0.2577669 -0.17359811 0.5972172
0.25934321 -0.17324546 0.59600401
0.26091313 -0.17289425 0.59479576
0.26247668 -0.17254445 0.59359235
0.26403397 -0.17219608 0.59239388
0.26558495 -0.17184909 0.59120017
0.26712972 -0.17150351 0.5900113
0.26866826 -0.17115931 0.58882719
0.27020064 -0.1708165 0.5876478
0.27172691 -0.17047505 0.58647317
0.27324706 -0.17013496 0.58530319
0.27507314 -0.169989 0.58480108
0.27727288 -0.17007445 0.58509499
0.27947482 -0.17015995 0.58538914
0.28167897 -0.17024554 0.58568358
0.28425384 -0.17055231 0.58673894
0.28696153 -0.17093377 0.58805126
0.28968138 -0.17131695 0.58936948
0.29241344 -0.17170183 0.59069359
0.29515779 -0.17208846 0.59202367
0.29791456 -0.17247686 0.59335983
0.30068377 -0.17286699 0.59470195
0.30346557 -0.17325889 0.5960502
0.30626002 -0.17365257 0.5974046
0.30906713 -0.17404804 0.59876508
0.31188709 -0.17444532 0.60013181
0.31471995 -0.17484443 0.6015048
0.31756583 -0.17524536 0.60288411
0.32042477 -0.17564812 0.60426974
0.3232969 -0.17605278 0.60566181
0.32618225 -0.17645925 0.60706019
0.329081 -0.17686763 0.60846514
0.33199281 -0.17727771 0.60987586
0.33491814 -0.1776897 0.6112932
0.33785754 -0.17810382 0.61271787
0.34081066 -0.17851986 0.61414915
0.34377763 -0.17893788 0.61558723
0.34675848 -0.17935784 0.61703199
0.34975335 -0.17977975 0.61848348
0.3527624 -0.18020371 0.61994195
0.35578561 -0.18062963 0.62140721
0.35882321 -0.18105759 0.62287951
0.36187521 -0.18148756 0.62435871
0.36494175 -0.18191959 0.62584502
0.36802292 -0.18235369 0.62733841
0.37111878 -0.18278985 0.6288389
0.37422952 -0.18322811 0.6303466
0.37735528 -0.18366849 0.63186163
0.38049603 -0.18411098 0.63338387
0.38365197 -0.18455561 0.6349135
0.23099071 -0.18015066 0.62736386
0.23192054 -0.17916135 0.62391871
0.23284025 -0.17818291 0.62051135
0.23374999 -0.17721511 0.61714101
0.23541239 -0.1768305 0.61580163
0.23708461 -0.17646024 0.61451221
0.23874989 -0.17609155 0.61322826
0.2404082 -0.17572437 0.61194962
0.24205962 -0.17535876 0.61067635
0.24370418 -0.17499463 0.60940832
0.24534191 -0.17463201 0.60814553
0.24697287 -0.17427091 0.606888
0.24859715 -0.1739113 0.6056357
0.25021467 -0.17355315 0.60438848
0.25182557 -0.17319648 0.60314637
0.25342977 -0.17284122 0.60190922
0.25502732 -0.17248736 0.60067689
0.25661835 -0.17213495 0.59944963
0.25820291 -0.17178397 0.59822738
0.25978097 -0.17143442 0.59701008
0.26135266 -0.17108628 0.59579772
0.26291797 -0.17073956 0.59459031
0.26447695 -0.17039424 0.59338772
0.26602966 -0.17005032 0.59219009
0.2675761 -0.16970779 0.59099722
0.26911628 -0.16936663 0.58980912
0.27065033 -0.16902684 0.58862585
0.27217823 -0.16868842 0.58744729
0.27383623 -0.16843511 0.5865652
0.27604201 -0.16852002 0.5868609
0.27824995 -0.16860498 0.58715677
0.28046018 -0.16869007 0.58745307
0.28267258 -0.1687752 0.58774954
0.28488728 -0.16886045 0.58804643
0.28710419 -0.16894577 0.58834356
0.28932333 -0.16903119 0.58864099
0.29154474 -0.16911669 0.58893877
0.29376838 -0.16920228 0.5892368
0.29639727 -0.16951844 0.59033781
0.29914895 -0.16989993 0.59166634
0.30191305 -0.17028314 0.59300083
0.30468962 -0.17066807 0.59434134
0.30747879 -0.17105475 0.59568793
0.31028062 -0.17144319 0.59704065
0.31309521 -0.1718334 0.59839952
0.31592265 -0.17222539 0.59976459
0.31876299 -0.17261916 0.60113591
0.32161638 -0.17301475 0.60251349
0.32448283 -0.17341214 0.60389739
0.32736257 -0.17381141 0.60528779
0.33025554 -0.17421247 0.60668451
0.33316189 -0.1746154 0.60808766
0.33608094 -0.17501979 0.60949594
0.33901447 -0.17542653 0.61091238
0.34196153 -0.17583512 0.61233526
0.34492242 -0.17624561 0.61376482
0.34789708 -0.17665802 0.615201
0.35088575 -0.17707238 0.61664397
0.35388848 -0.17748868 0.61809373
0.35690534 -0.17790695 0.61955029
0.35993648 -0.17832719 0.62101376
0.36298195 -0.17874941 0.62248415
0.36604187 -0.17917365 0.62396151
0.36911637 -0.1795999 0.6254459
0.37220553 -0.18002819 0.62693739
0.37530938 -0.1804585 0.62843591
0.37842822 -0.1808909 0.62994176
0.38156199 -0.18132538 0.63145477
0.23087983 -0.17785479 0.62706268
0.23180979 -0.17687857 0.62362081
0.2327297 -0.17591307 0.62021673
0.23414159 -0.17533393 0.61817491
0.23582295 -0.17496541 0.61687559
0.23749726 -0.17459844 0.61558175
0.23916453 -0.17423299 0.61429328
0.24082486 -0.17386907 0.61301023
0.24247825 -0.17350666 0.61173248
0.24412479 -0.17314577 0.6104601
0.24576448 -0.17278637 0.60919297
0.24739739 -0.17242847 0.60793114
0.24902351 -0.17207204 0.60667443
0.25064296 -0.17171709 0.60542297
0.25225571 -0.17136359 0.60417664
0.25386181 -0.17101152 0.60293537
0.25546119 -0.17066079 0.60169882
0.25705403 -0.17031153 0.60046738
0.25864038 -0.16996367 0.59924096
0.26022023 -0.16961724 0.59801954
0.2617937 -0.16927223 0.59680313
0.26336074 -0.16892859 0.5955916
0.26492146 -0.16858637 0.59438503
0.26647586 -0.16824554 0.59318334
0.26802394 -0.16790606 0.59198642
0.26956585 -0.16756795 0.59079438
0.27110156 -0.16723123 0.58960718
0.27263105 -0.16689582 0.58842462
0.27480367 -0.16695619 0.58863747
0.27701768 -0.16704063 0.5889352
0.27923396 -0.16712517 0.58923322
0.28145248 -0.16720977 0.58953154
0.28367326 -0.16729449 0.58983022
0.28589627 -0.16737927 0.59012914
0.28812152 -0.16746414 0.59042835
0.29034907 -0.1675491 0.59072793
0.29257888 -0.16763416 0.5910278
0.29481095 -0.16771929 0.59132797
0.29704526 -0.16780452 0.59162843
0.29928187 -0.16788982 0.5919292
0.30152076 -0.16797523 0.59223032
0.3037619 -0.16806071 0.59253168
0.30600533 -0.16814627 0.59283334
0.30869061 -0.16847183 0.59398115
0.31148714 -0.1688533 0.59532613
0.31429639 -0.16923653 0.59667724
0.31711841 -0.16962147 0.59803444
0.31995326 -0.17000817 0.59939784
0.32280105 -0.17039663 0.60076743
0.32566193 -0.17078689 0.60214335
0.32853594 -0.17117892 0.60352558
0.33142319 -0.17157277 0.60491419
0.33432373 -0.17196845 0.60630918
0.33723769 -0.17236593 0.6077106
0.34016389 -0.17276461 0.60911626
0.34310567 -0.17316619 0.61053205
0.34606045 -0.17356926 0.6119532
0.349029 -0.17397422 0.61338091
0.35201147 -0.17438106 0.61481535
0.35500792 -0.17478983 0.61625654
0.35801837 -0.17520049 0.61770439
0.36104307 -0.17561309 0.6191591
0.36408207 -0.17602767 0.62062079
0.36713541 -0.17644417 0.62208927
0.37020323 -0.17686267 0.62356478
0.37328565 -0.17728315 0.62504727
0.37638277 -0.17770565 0.62653685
0.23169915 -0.17459793 0.62332314
0.232861 -0.17382582 0.62056661
0.23455153 -0.17345904 0.61925721
0.23623496 -0.17309383 0.61795336
0.2379113 -0.17273012 0.61665493
0.23958062 -0.17236796 0.61536199
0.24124296 -0.17200731 0.61407447
0.24289834 -0.17164817 0.61279231
0.24454686 -0.17129053 0.61151552
0.24618848 -0.17093436 0.61024398
0.24782333 -0.17057969 0.60897779
0.24945137 -0.17022647 0.6077168
0.2510727 -0.16987473 0.60646105
0.25268734 -0.16952442 0.60521042
0.25429532 -0.16917555 0.60396492
0.25589657 -0.16882803 0.60272425
0.2574912 -0.1684819 0.60148859
0.25907934 -0.16813721 0.60025799
0.26066101 -0.16779391 0.59903246
0.26223618 -0.16745202 0.59781188
0.263805 -0.16711153 0.5965963
0.26536745 -0.16677243 0.59538567
0.26692352 -0.16643468 0.59417987
0.26847336 -0.1660983 0.59297901
0.27001691 -0.16576329 0.59178299
0.27155423 -0.16542959 0.59059167
0.27355778 -0.16538283 0.59042478
0.27577791 -0.16546676 0.59072435
0.2780003 -0.16555074 0.59102422
0.28022495 -0.16563483 0.59132439
0.28245184 -0.16571897 0.5916248
0.28468102 -0.16580324 0.59192562
0.28691247 -0.16588756 0.59222668
0.28914616 -0.16597198 0.59252805
0.29138216 -0.1660565 0.59282976
0.29362038 -0.16614108 0.59313172
0.29586095 -0.16622576 0.59343404
0.29810375 -0.16631052 0.59373665
0.30034888 -0.16639537 0.59403956
0.3025963 -0.16648032 0.59434283
0.30484599 -0.16656533 0.59464633
0.307098 -0.16665044 0.5949502
0.30935231 -0.16673565 0.59525436
0.31160891 -0.16682093 0.59555882
0.31386781 -0.1669063 0.59586358
0.31612906 -0.16699176 0.5961687
0.3183926 -0.1670773 0.59647411
0.32113662 -0.16741221 0.59766972
0.3239789 -0.16779363 0.59903145
0.3268342 -0.16817681 0.60039943
0.32970256 -0.16856176 0.60177368
0.33258405 -0.16894844 0.60315418
0.33547881 -0.16933693 0.60454106
0.33838692 -0.16972719 0.60593432
0.34130847 -0.17011927 0.60733408
0.34424356 -0.17051315 0.60874027
0.34719178 -0.17090864 0.61015218
0.35015425 -0.17130624 0.61157161
0.35313049 -0.17170565 0.61299753
0.35612068 -0.17210695 0.61443019
0.35912484 -0.17251012 0.61586952
0.3621431 -0.17291518 0.61731559
0.3651756 -0.17332216 0.61876851
0.36822236 -0.17373103 0.62022823
0.37128356 -0.17414184 0.62169486
0.23327027 -0.171941 0.62165731
0.2349629 -0.17157756 0.62034327
0.2366484 -0.17121565 0.61903483
0.23832682 -0.1708553 0.61773193
0.23999819 -0.17049645 0.61643451
0.24166253 -0.17013909 0.61514246
0.24331991 -0.16978322 0.61385584
0.24497037 -0.16942886 0.61257458
0.24661398 -0.16907595 0.61129868
0.24825074 -0.16872452 0.61002809
0.2498807 -0.16837455 0.60876274
0.25150391 -0.16802603 0.60750264
0.25312045 -0.16767895 0.60624778
0.25473034 -0.16733332 0.60499811
0.25633338 -0.16698895 0.60375309
0.25792989 -0.16664605 0.60251331
0.25951982 -0.16630454 0.60127854
0.26110324 -0.16596441 0.60004878
0.2626802 -0.16562568 0.59882408
0.26425076 -0.16528833 0.59760439
0.2658149 -0.16495232 0.59638959
0.26737273 -0.16461772 0.5951798
0.26892424 -0.16428445 0.59397489
0.27046946 -0.16395253 0.59277481
0.27230433 -0.16379993 0.59222305
0.27453059 -0.16388327 0.59252441
0.27675912 -0.16396673 0.59282613
0.27898994 -0.16405027 0.59312814
0.28122297 -0.16413386 0.5934304
0.28345832 -0.16421756 0.59373301
0.28569597 -0.16430134 0.59403592
0.28793588 -0.16438521 0.59433919
0.29017809 -0.16446917 0.5946427
0.29242259 -0.16455321 0.59494656
0.29466936 -0.16463733 0.59525073
0.29691842 -0.16472153 0.59555513
0.29916984 -0.16480583 0.59585994
0.30142352 -0.16489023 0.59616506
0.3036795 -0.16497467 0.59647042
0.30593786 -0.16505925 0.59677619
0.30819848 -0.16514389 0.5970822
0.3104614 -0.16522861 0.59738851
0.31272671 -0.16531345 0.59769523
0.31499428 -0.16539833 0.59800214
0.31726423 -0.16548333 0.59830946
0.31953651 -0.16556841 0.59861708
0.32181111 -0.16565359 0.59892499
0.32408804 -0.16573884 0.59923321
0.32636732 -0.16582417 0.59954178
0.32864895 -0.1659096 0.59985065
0.33093295 -0.16599512 0.60015982
0.33373821 -0.16633935 0.60140443
0.33662719 -0.16672072 0.60278326
0.33952945 -0.16710383 0.60416842
0.34244511 -0.16748872 0.60556
0.3453742 -0.16787538 0.60695797
0.34831682 -0.16826382 0.60836238
0.35127285 -0.16865394 0.60977286
0.35424292 -0.16904601 0.61119044
0.35722682 -0.16943991 0.61261457
0.36022469 -0.16983567 0.61404544
0.36323661 -0.17023326 0.61548299
0.36626261 -0.17063273 0.61692727
0.3693029 -0.17103408 0.61837834
0.23537572 -0.16968946 0.6214332
0.2370633 -0.16933092 0.62012017
0.23874378 -0.16897391 0.61881268
0.24041717 -0.16861838 0.61751068
0.24208355 -0.16826434 0.61621416
0.24374293 -0.1679118 0.61492306
0.24539539 -0.16756073 0.61363739
0.24704094 -0.16721112 0.61235702
0.24867964 -0.16686296 0.61108202
0.25031152 -0.16651626 0.60981232
0.25193664 -0.16617098 0.60854787
0.25355503 -0.16582714 0.60728866
0.25516677 -0.16548473 0.6060347
0.25677171 -0.16514364 0.60478556
0.25837004 -0.16480394 0.60354149
0.25996175 -0.16446561 0.60230249
0.26154697 -0.16412866 0.60106856
0.26312572 -0.16379312 0.59983969
0.26469803 -0.16345894 0.59861588
0.2662639 -0.1631261 0.59739697
0.26782346 -0.16279465 0.59618312
0.26937664 -0.16246451 0.5949741
0.27104321 -0.16220734 0.59403229
0.27327564 -0.16229013 0.5943355
0.27551034 -0.16237302 0.59463906
0.27774733 -0.16245599 0.59494293
0.27998659 -0.16253904 0.59524703
0.28222814 -0.16262217 0.59555149
0.28447199 -0.16270539 0.59585625
0.28671816 -0.1627887 0.59616137
0.28896663 -0.16287211 0.59646678
0.29121739 -0.16295558 0.59677249
0.29347044 -0.16303913 0.5970785
0.29572582 -0.16312277 0.59738481
0.29798353 -0.16320652 0.59769148
0.30024356 -0.16329035 0.5979985
0.30250588 -0.16337426 0.59830576
0.30477056 -0.16345826 0.59861338
0.3070375 -0.16354232 0.59892124
0.30930686 -0.16362649 0.59922951
0.31157854 -0.16371076 0.59953809
0.31385252 -0.16379508 0.5998469
0.31612888 -0.16387951 0.60015613
0.31840757 -0.16396402 0.6004656
0.32068864 -0.16404864 0.60077548
0.32297203 -0.16413333 0.6010856
0.32525778 -0.1642181 0.60139608
0.32754591 -0.16430296 0.60170686
0.32983643 -0.16438793 0.602018
0.33212927 -0.16447297 0.60232943
0.3344245 -0.16455808 0.60264117
0.33672211 -0.1646433 0.60295326
0.3390221 -0.16472861 0.60326564
0.34132445 -0.164814 0.60357833
0.34362924 -0.16489948 0.60389143
0.34649825 -0.16525301 0.6051861
0.34943485 -0.16563426 0.60658228
0.35238507 -0.16601729 0.60798502
0.35534883 -0.16640201 0.60939395
0.35832649 -0.16678861 0.61080974
0.36131811 -0.16717704 0.61223221
0.36432359 -0.16756722 0.61366117
0.23916219 -0.16708592 0.61989719
0.24083765 -0.16673376 0.61859065
0.24250604 -0.16638307 0.6172896
0.24416742 -0.16603385 0.61599398
0.24582185 -0.16568609 0.61470377
0.24746937 -0.1653398 0.613419
0.24911001 -0.16499494 0.61213958
0.25074381 -0.16465153 0.61086547
0.25237083 -0.16430953 0.60959667
0.25399116 -0.16396897 0.60833317
0.25560474 -0.1636298 0.60707486
0.25721157 -0.16329199 0.60582155
0.25881168 -0.16295551 0.60457319
0.26040524 -0.16262041 0.60332996
0.26199225 -0.1622867 0.60209185
0.26357272 -0.16195433 0.60085875
0.26514679 -0.16162334 0.59963077
0.26671442 -0.1612937 0.5984078
0.26827565 -0.16096538 0.59718972
0.26983058 -0.16063844 0.59597671
0.27201298 -0.16068721 0.59615767
0.2742539 -0.16076952 0.59646308
0.2764971 -0.16085193 0.5967688
0.27874261 -0.16093442 0.59707481
0.28099042 -0.16101699 0.59738117
0.28324053 -0.16109963 0.59768778
0.28549299 -0.16118239 0.5979948
0.28774774 -0.16126522 0.59830213
0.29000479 -0.16134812 0.59860969
0.29226416 -0.16143112 0.5989176
0.29452589 -0.16151419 0.59922582
0.29678991 -0.16159734 0.59953433
0.29905629 -0.16168061 0.59984326
0.30132496 -0.16176394 0.60015237
0.30359602 -0.16184737 0.6004619
0.30586946 -0.16193089 0.60077178
0.3081452 -0.16201448 0.60108191
0.31042328 -0.16209817 0.60139239
0.3127037 -0.16218191 0.60170311
0.3149865 -0.16226578 0.60201424
0.31727168 -0.16234972 0.60232568
0.31955919 -0.16243374 0.60263741
0.32184911 -0.16251786 0.6029495
0.32414138 -0.16260207 0.60326189
0.32643604 -0.16268636 0.60357463
0.32873303 -0.16277072 0.60388762
0.33103245 -0.16285519 0.60420102
0.33333427 -0.16293976 0.60451472
0.33563846 -0.1630244 0.60482877
0.33794507 -0.16310914 0.60514313
0.34025404 -0.16319394 0.60545778
0.34256542 -0.16327885 0.60577279
0.34487924 -0.16336386 0.60608816
0.34719542 -0.16344891 0.60640377
0.34951404 -0.16353409 0.60671973
0.35183507 -0.16361935 0.60703605
0.35415855 -0.16370471 0.60735273
0.35648441 -0.16379014 0.60766971
0.35941973 -0.16415289 0.60901552
0.24125957 -0.16484252 0.61967438
0.24293 -0.1644952 0.61836874
0.2445934 -0.16414934 0.61706865
0.24624982 -0.16380495 0.61577398
0.24789928 -0.16346197 0.61448467
0.24954189 -0.16312046 0.61320084
0.25117764 -0.16278034 0.61192232
0.25280654 -0.16244166 0.61064911
0.25442871 -0.16210437 0.6093812
0.25604415 -0.16176848 0.60811853
0.25765291 -0.16143398 0.60686105
0.25925487 -0.16110078 0.60560846
0.26085022 -0.16076891 0.60436094
0.26243901 -0.16043843 0.6031186
0.26402131 -0.1601093 0.60188133
0.26559708 -0.15978152 0.60064912
0.26716647 -0.15945508 0.59942198
0.26872945 -0.15912999 0.5981999
0.27074257 -0.15907443 0.59799105
0.27298975 -0.15915617 0.59829837
0.2752392 -0.15923801 0.59860599
0.27749097 -0.15931991 0.59891385
0.27974507 -0.15940191 0.59922212
0.28200147 -0.15948398 0.59953064
0.28426021 -0.15956615 0.59983951
0.28652129 -0.15964839 0.60014868
0.28878468 -0.15973073 0.6004582
0.29105043 -0.15981315 0.60076803
0.29331851 -0.15989564 0.60107815
0.29558891 -0.15997824 0.60138863
0.2978617 -0.16006091 0.60169941
0.30013677 -0.16014366 0.60201049
0.30241427 -0.16022651 0.60232192
0.30469412 -0.16030945 0.60263371
0.30697629 -0.16039245 0.60294574
0.30926082 -0.16047555 0.60325813
0.31154773 -0.16055873 0.60357082
0.31383705 -0.16064201 0.60388392
0.3161287 -0.16072537 0.60419726
0.31842276 -0.16080882 0.60451096
0.32071921 -0.16089237 0.60482502
0.32301801 -0.16097598 0.60513932
0.32531923 -0.16105969 0.60545403
0.32762286 -0.16114348 0.60576904
0.32992885 -0.16122736 0.60608435
0.33223724 -0.16131134 0.60640001
0.33454803 -0.16139537 0.60671592
0.33686125 -0.16147952 0.60703224
0.33917689 -0.16156375 0.60734892
0.34149495 -0.16164808 0.6076659
0.34381542 -0.16173248 0.60798317
0.3461383 -0.16181697 0.60830081
0.34846362 -0.16190156 0.6086188
0.35079142 -0.16198625 0.60893714
0.35312158 -0.162071 0.60925573
0.35545421 -0.16215584 0.60957468
0.35778928 -0.16224079 0.60989398
0.24502085 -0.16225825 0.61814702
0.24667928 -0.16191724 0.61684787
0.24833071 -0.16157763 0.61555409
0.24997525 -0.16123945 0.61426574
0.25161293 -0.16090269 0.61298281
0.25324377 -0.16056733 0.61170518
0.25486785 -0.16023336 0.61043292
0.25648516 -0.15990078 0.60916591
0.25809574 -0.15956956 0.60790408
0.25969958 -0.15923966 0.60664725
0.26129672 -0.15891106 0.60539544
0.26288733 -0.15858385 0.60414886
0.26447138 -0.15825798 0.60290736
0.26604894 -0.15793343 0.60167098
0.26762006 -0.15761022 0.60043967
0.26946434 -0.15745172 0.59983581
0.27171776 -0.15753287 0.60014498
0.27397352 -0.15761411 0.60045451
0.27623159 -0.15769543 0.60076427
0.27849203 -0.15777685 0.60107446
0.28075475 -0.15785833 0.60138488
0.28301984 -0.15793991 0.60169566
0.28528729 -0.15802158 0.60200679
0.28755704 -0.15810332 0.60231817
0.28982916 -0.15818515 0.60262996
0.29210368 -0.15826708 0.60294205
0.29438046 -0.15834907 0.60325438
0.29665968 -0.15843116 0.60356712
0.2989412 -0.15851331 0.60388011
0.30122516 -0.15859558 0.60419351
0.30351144 -0.15867792 0.60450721
0.30580011 -0.15876034 0.60482121
0.30809116 -0.15884285 0.60513556
0.3103846 -0.15892544 0.60545021
0.31268042 -0.15900813 0.60576522
0.31497863 -0.15909091 0.60608053
0.31727925 -0.15917376 0.6063962
0.31958222 -0.1592567 0.60671216
0.32188761 -0.15933971 0.60702842
0.32419544 -0.15942284 0.6073451
0.32650566 -0.15950604 0.60766208
0.32881826 -0.15958932 0.60797936
0.33113334 -0.15967271 0.60829699
0.33345079 -0.15975617 0.60861498
0.3357707 -0.15983972 0.60893327
0.33809301 -0.15992336 0.60925192
0.34041774 -0.16000709 0.60957086
0.34274495 -0.16009089 0.60989016
0.34507453 -0.16017479 0.61020976
0.34740663 -0.16025878 0.61052978
0.34974116 -0.16034287 0.6108501
0.35207811 -0.16042703 0.61117071
0.35441753 -0.16051129 0.61149168
0.35675946 -0.16059564 0.61181307
0.35910383 -0.1606801 0.61213481
0.24711023 -0.16002293 0.61792552
0.24876365 -0.1596867 0.61662722
0.25041014 -0.1593519 0.61533439
0.25204974 -0.15901852 0.61404699
0.25368249 -0.1586865 0.61276495
0.25530845 -0.15835588 0.61148822
0.25692764 -0.15802662 0.61021686
0.25854012 -0.15769875 0.60895073
0.26014578 -0.15737213 0.60768956
0.26174477 -0.15704687 0.60643351
0.26333717 -0.15672293 0.60518265
0.26492301 -0.15640032 0.60393691
0.26650232 -0.15607904 0.6026963
0.26817819 -0.15581895 0.60169196
0.27043793 -0.15589951 0.60200304
0.27270001 -0.15598017 0.60231447
0.27496439 -0.15606087 0.60262614
0.27723119 -0.1561417 0.60293823
0.27950031 -0.1562226 0.60325062
0.28177175 -0.15630357 0.60356331
0.28404558 -0.15638465 0.60387635
0.28632176 -0.15646578 0.60418969
0.2886003 -0.15654702 0.60450339
0.29088122 -0.15662836 0.60481745
0.29316449 -0.15670975 0.60513175
0.29545018 -0.15679125 0.60544646
0.29773822 -0.15687282 0.60576147
0.30002862 -0.15695448 0.60607678
0.3023214 -0.15703622 0.60639238
0.3046166 -0.15711804 0.60670835
0.30691421 -0.15719995 0.60702467
0.30921417 -0.15728195 0.60734129
0.31151655 -0.15736404 0.60765827
0.31382135 -0.15744621 0.60797554
0.31612852 -0.15752846 0.60829318
0.31843817 -0.1576108 0.60861117
0.32075018 -0.15769324 0.60892946
0.3230646 -0.15777573 0.60924804
0.32538149 -0.15785834 0.60956705
0.32770076 -0.15794103 0.60988629
0.33002251 -0.1580238 0.61020595
0.33234668 -0.15810668 0.61052597
0.33467326 -0.15818961 0.61084622
0.33700234 -0.15827265 0.61116689
0.33933377 -0.15835576 0.61148781
0.34166771 -0.15843898 0.61180913
0.34400415 -0.15852228 0.61213082
0.34634295 -0.15860565 0.61245275
0.34868428 -0.15868913 0.61277509
0.35102803 -0.15877268 0.61309773
0.3533743 -0.15885635 0.61342078
0.35572314 -0.15894012 0.61374432
0.3580744 -0.15902397 0.61406809
0.25084656 -0.1574578 0.6164068
0.25248805 -0.15712777 0.61511481
0.25412273 -0.15679914 0.6138283
0.2557506 -0.15647188 0.61254722
0.25737166 -0.15614599 0.61127144
0.258986 -0.15582146 0.61000097
0.26059353 -0.15549821 0.6087355
0.26219434 -0.15517624 0.6074751
0.26378852 -0.15485562 0.60621995
0.26537615 -0.15453632 0.60496998
0.26695722 -0.15421832 0.60372508
0.26915011 -0.154256 0.6038726
0.27141857 -0.15433605 0.604186
0.27368936 -0.15441617 0.60449964
0.2759625 -0.15449639 0.60481364
0.27823803 -0.15457669 0.60512799
0.28051591 -0.15465707 0.60544264
0.28279617 -0.15473753 0.60575765
0.28507879 -0.15481807 0.60607296
0.28736377 -0.15489869 0.60638857
0.28965119 -0.15497942 0.60670459
0.29194093 -0.1550602 0.60702085
0.29423308 -0.15514109 0.60733747
0.29652765 -0.15522206 0.60765445
0.29882458 -0.15530311 0.60797173
0.30112395 -0.15538424 0.60828936
0.30342567 -0.15546545 0.60860729
0.30572987 -0.15554677 0.60892564
0.30803645 -0.15562817 0.60924429
0.31034538 -0.15570962 0.60956317
0.31265679 -0.15579119 0.60988247
0.31497061 -0.15587284 0.61020207
0.31728691 -0.15595457 0.61052209
0.31960559 -0.15603641 0.61084241
0.32192671 -0.1561183 0.61116302
0.32425025 -0.15620029 0.61148399
0.32657623 -0.15628235 0.61180526
0.32890469 -0.15636453 0.61212695
0.33123559 -0.15644678 0.61244893
0.3335689 -0.1565291 0.61277121
0.33590475 -0.15661153 0.61309391
0.33824298 -0.15669402 0.61341685
0.34058371 -0.15677662 0.61374021
0.34292692 -0.15685932 0.61406392
0.34527257 -0.15694208 0.61438793
0.34762073 -0.15702493 0.6147123
0.34997138 -0.15710789 0.61503702
0.35232458 -0.15719096 0.61536223
0.35468024 -0.15727411 0.61568773
0.35703841 -0.15735735 0.61601359
0.25292793 -0.15523045 0.61618644
0.25456452 -0.15490523 0.61489546
0.25619426 -0.15458135 0.61360985
0.25781724 -0.15425885 0.61232966
0.25943342 -0.15393767 0.61105478
0.26104283 -0.1536178 0.60978502
0.26264548 -0.1532992 0.60852033
0.26424149 -0.15298191 0.60726088
0.26583087 -0.15266593 0.60600656
0.2678543 -0.15260226 0.60575384
0.27012914 -0.15268169 0.60606915
0.27240634 -0.15276119 0.60638475
0.27468592 -0.15284081 0.60670078
0.27696785 -0.15292048 0.60701704
0.2792522 -0.15300025 0.60733366
0.28153893 -0.15308011 0.60765064
0.28382805 -0.15316004 0.60796797
0.28611952 -0.15324004 0.60828555
0.28841344 -0.15332015 0.60860354
0.2907097 -0.15340032 0.60892177
0.29300842 -0.1534806 0.60924041
0.29530951 -0.15356095 0.60955936
0.29761302 -0.15364139 0.60987866
0.29991895 -0.1537219 0.61019826
0.30222729 -0.1538025 0.61051822
0.30453807 -0.1538832 0.61083853
0.30685127 -0.15396397 0.61115915
0.30916688 -0.15404482 0.61148012
0.31148496 -0.15412578 0.61180145
0.3138054 -0.15420678 0.61212301
0.31612837 -0.15428792 0.61244506
0.31845376 -0.1543691 0.61276734
0.32078156 -0.15445039 0.61308998
0.32311186 -0.15453175 0.61341298
0.32544461 -0.15461321 0.61373633
0.32777977 -0.15469475 0.61405998
0.33011746 -0.15477639 0.61438406
0.33245757 -0.1548581 0.61470836
0.33480018 -0.15493989 0.61503309
0.33714527 -0.15502177 0.61535811
0.33949286 -0.15510376 0.61568356
0.34184289 -0.15518582 0.61600929
0.3441954 -0.15526795 0.61633533
0.34655043 -0.15535019 0.61666179
0.34890807 -0.15543257 0.61698872
0.35126814 -0.155515 0.61731595
0.35363072 -0.15559752 0.61764354
0.35599583 -0.15568013 0.61797148
0.25663951 -0.15268426 0.61467624
0.25826433 -0.15236516 0.61339158
0.25988239 -0.15204738 0.61211228
0.26149368 -0.15173091 0.61083823
0.26309815 -0.15141568 0.60956913
0.26469594 -0.15110172 0.60830528
0.26655039 -0.15093817 0.60764682
0.26883164 -0.15101698 0.6079641
0.2711153 -0.15109588 0.60828173
0.27340132 -0.15117486 0.60859966
0.27568975 -0.15125392 0.60891795
0.27798057 -0.15133305 0.60923654
0.28027382 -0.15141229 0.60955554
0.28256944 -0.15149161 0.60987484
0.28486744 -0.15157098 0.61019439
0.28716791 -0.15165047 0.6105144
0.28947076 -0.15173002 0.61083466
0.29177603 -0.15180966 0.61115527
0.29408374 -0.1518894 0.6114763
0.29639384 -0.15196921 0.61179757
0.29870638 -0.15204909 0.6121192
0.30102137 -0.15212908 0.61244118
0.30333877 -0.15220913 0.61276346
0.30565861 -0.15228927 0.6130861
0.30798092 -0.15236951 0.6134091
0.31030568 -0.15244983 0.61373246
0.31263286 -0.15253022 0.61405611
0.31496254 -0.1526107 0.61438012
0.31729466 -0.15269127 0.61470449
0.31962922 -0.15277192 0.61502916
0.32196629 -0.15285268 0.61535424
0.32430583 -0.15293352 0.61567968
0.32664779 -0.15301441 0.61600536
0.32899228 -0.15309541 0.61633146
0.33133921 -0.15317649 0.61665785
0.33368865 -0.15325765 0.61698461
0.33604062 -0.15333892 0.61731178
0.33839503 -0.15342025 0.61763918
0.34075198 -0.15350169 0.61796701
0.34311137 -0.15358318 0.61829513
0.34547341 -0.15366483 0.61862379
0.34783792 -0.15374655 0.61895275
0.35020497 -0.15382835 0.61928213
0.35257453 -0.15391025 0.6196118
0.35494661 -0.15399222 0.61994183
0.25871298 -0.15046488 0.61445713
0.26033291 -0.15015051 0.61317337
0.26194611 -0.14983748 0.61189502
0.2635524 -0.14952564 0.61062157
0.26523829 -0.14926365 0.60955167
0.26752603 -0.14934184 0.60987097
