# .PCD v0.7 - Point Cloud Data file format
VERSION 0.7
FIELDS x y z
SIZE 4 4 4
TYPE F F F
COUNT 1 1 1
WIDTH 692
HEIGHT 1
VIEWPOINT 0 0 0 1 0 0 0
POINTS 692
DATA ascii
-0.099710815 -0.16335601 1.2042472
-0.095367171 -0.16318382 1.2029779
-0.091596164 -0.16402103 1.2091497
-0.087786362 -0.16486707 1.2153866
-0.083937049 -0.16572186 1.2216882
-0.080047622 -0.16658559 1.2280555
-0.10376623 -0.15882586 1.2020741
-0.099325269 -0.15849778 1.1995909
-0.094902635 -0.15817106 1.1971182
-0.090498179 -0.15784566 1.1946554
-0.086111814 -0.15752161 1.1922028
-0.082001075 -0.15769438 1.1935104
-0.078191772 -0.15849683 1.1995838
-0.074343525 -0.15930755 1.2057197
-0.070455849 -0.16012694 1.2119212
-0.066527978 -0.16095479 1.2181869
-0.062559292 -0.16179127 1.2245177
-0.058549121 -0.16263644 1.2309145
-0.054496847 -0.16349055 1.2373787
-0.050401781 -0.16435364 1.243911
-0.046263251 -0.16522589 1.2505127
-0.042080559 -0.16610746 1.2571849
-0.037852984 -0.16699846 1.2639284
-0.10780703 -0.15431203 1.1999086
-0.10336573 -0.15399384 1.1974345
-0.098942704 -0.15367697 1.1949705
-0.094537847 -0.1533614 1.1925167
-0.090151042 -0.15304711 1.1900729
-0.085782185 -0.15273413 1.1876391
-0.08143115 -0.15242241 1.1852152
-0.077097833 -0.15211195 1.1828011
-0.072782151 -0.15180278 1.180397
-0.068843737 -0.15229069 1.184191
-0.064997889 -0.15305954 1.1901695
-0.061113007 -0.15383619 1.1962086
-0.057188515 -0.1546208 1.2023096
-0.053223893 -0.15541376 1.2084756
-0.049218409 -0.15621495 1.2147055
-0.045171406 -0.15702441 1.2209997
-0.041082252 -0.15784232 1.2273598
-0.036950268 -0.15866879 1.2337862
-0.032774784 -0.15950395 1.2402803
-0.028555114 -0.16034795 1.2468431
-0.024290554 -0.16120094 1.2534759
-0.1118333 -0.14981443 1.197751
-0.10739169 -0.14950608 1.1952858
-0.10296831 -0.14919898 1.1928306
-0.098563075 -0.14889316 1.1903856
-0.09417586 -0.14858858 1.1879505
-0.089806549 -0.14828524 1.1855253
-0.085455045 -0.14798313 1.18311
-0.081121244 -0.14768226 1.1807046
-0.076805025 -0.14738262 1.178309
-0.072506286 -0.14708418 1.175923
-0.068224922 -0.14678696 1.1735467
-0.06396082 -0.14649092 1.1711799
-0.05973256 -0.14624178 1.1691881
-0.055890266 -0.14697069 1.1750157
-0.052009486 -0.14770694 1.1809019
-0.048089717 -0.14845087 1.1868495
-0.044130377 -0.1492027 1.1928604
-0.040715247 -0.15214644 1.2163953
-0.036556467 -0.15267701 1.2206371
-0.032368585 -0.15321131 1.2249087
-0.028151285 -0.15374933 1.2292101
-0.023904262 -0.15429115 1.233542
-0.0196272 -0.1548368 1.2379044
-0.015319779 -0.15538633 1.2422978
-0.010981674 -0.15593977 1.2467226
-0.11584513 -0.14533298 1.1956012
-0.11140323 -0.14503439 1.1931448
-0.10697953 -0.14473701 1.1906984
-0.10257394 -0.14444084 1.188262
-0.098186344 -0.14414591 1.1858356
-0.093816631 -0.14385216 1.1834191
-0.089464687 -0.14355962 1.1810124
-0.085130408 -0.14326826 1.1786155
-0.080813706 -0.14297809 1.1762284
-0.07651443 -0.14268908 1.1738508
-0.072232507 -0.14240123 1.1714828
-0.067967825 -0.14211455 1.1691244
-0.063720286 -0.14182903 1.1667755
-0.059489772 -0.14154463 1.1644359
-0.055276193 -0.14126138 1.1621057
-0.051079445 -0.14097926 1.1597848
-0.047011655 -0.14103496 1.160243
-0.043136142 -0.14173304 1.1659858
-0.03922211 -0.14243819 1.1717868
-0.035268936 -0.14315039 1.1776458
-0.032421667 -0.14913966 1.2269174
-0.028197613 -0.14966425 1.231233
-0.023943737 -0.15019254 1.235579
-0.019659728 -0.15072457 1.2399559
-0.015345258 -0.15126039 1.2443639
-0.010999999 -0.15179999 1.2488029
-0.11984258 -0.14086759 1.1934592
-0.11540043 -0.1405787 1.1910115
-0.11097644 -0.14029096 1.1885738
-0.10657053 -0.14000441 1.1861461
-0.10218258 -0.13971904 1.1837283
-0.097812489 -0.13943483 1.1813204
-0.093460143 -0.13915177 1.1789223
-0.089125425 -0.13886985 1.1765338
-0.084808238 -0.13858907 1.174155
-0.080508471 -0.13830943 1.1717858
-0.076226018 -0.1380309 1.1694261
-0.071960784 -0.1377535 1.1670759
-0.067712657 -0.1374772 1.1647351
-0.063481525 -0.13720199 1.1624035
-0.059267294 -0.13692789 1.1600811
-0.055069882 -0.13665488 1.1577682
-0.050889168 -0.13638298 1.1554645
-0.046814017 -0.13637127 1.1553653
-0.042891707 -0.13684496 1.1593786
-0.038942061 -0.13732201 1.1634202
-0.034964781 -0.13780238 1.16749
-0.030959584 -0.13828614 1.1715885
-0.026926162 -0.13877329 1.1757158
-0.023983344 -0.14608037 1.2376229
-0.019692363 -0.14659871 1.2420143
-0.015370823 -0.14712073 1.246437
-0.011018385 -0.14764637 1.2508903
-0.12382573 -0.13641818 1.1913247
-0.11938334 -0.1361389 1.1888858
-0.1149591 -0.13586076 1.1864568
-0.11055288 -0.13558373 1.1840376
-0.1061646 -0.13530782 1.1816281
-0.10179415 -0.13503306 1.1792285
-0.097441398 -0.13475938 1.1768386
-0.093106262 -0.13448682 1.1744584
-0.088788629 -0.13421537 1.1720878
-0.084488384 -0.133945 1.1697267
-0.080205441 -0.13367572 1.1673752
-0.075939663 -0.13340752 1.165033
-0.071690992 -0.1331404 1.1627003
-0.067459285 -0.13287435 1.1603769
-0.063244462 -0.13260935 1.1580627
-0.059046414 -0.13234541 1.1557577
-0.054865047 -0.13208252 1.1534619
-0.050791342 -0.13205749 1.1532433
-0.046890035 -0.13251531 1.1572415
-0.042961601 -0.13297638 1.1612679
-0.039005741 -0.13344069 1.1653227
-0.035022162 -0.13390827 1.1694059
-0.031010566 -0.13437912 1.1735178
-0.02697066 -0.1348533 1.1776588
-0.024023082 -0.14195459 1.2396735
-0.019725107 -0.14245911 1.2440795
-0.015396486 -0.14296737 1.2485181
-0.011036835 -0.14347886 1.2529848
-0.0066458937 -0.14399436 1.2574867
-0.12823276 -0.13243711 1.1932746
-0.12357099 -0.13194869 1.1888739
-0.11894348 -0.13146386 1.1845055
-0.11452095 -0.13117854 1.1819348
-0.1101324 -0.1309121 1.1795341
-0.10576162 -0.13064671 1.1771429
-0.10140853 -0.1303824 1.1747614
-0.097073026 -0.13011916 1.1723896
-0.092754982 -0.12985697 1.1700273
-0.088454314 -0.12959585 1.1676745
-0.084170893 -0.12933576 1.1653311
-0.079904646 -0.12907673 1.1629972
-0.075655453 -0.12881874 1.1606727
-0.071423203 -0.12856176 1.1583573
-0.067207806 -0.12830582 1.1560512
-0.063009158 -0.12805088 1.1537541
-0.058827177 -0.12779696 1.1514664
-0.054754082 -0.12775953 1.151129
-0.050873693 -0.12820171 1.1551131
-0.046966303 -0.12864684 1.1591238
-0.043031726 -0.12909518 1.1631634
-0.03906963 -0.12954667 1.1672314
-0.035079729 -0.13000134 1.1713281
-0.031061718 -0.13045922 1.1754535
-0.027015302 -0.13092032 1.1796081
-0.024062954 -0.13781509 1.2417309
-0.01975796 -0.13830572 1.2461516
-0.015422229 -0.13880005 1.2506056
-0.011055344 -0.13929734 1.2550861
-0.0066570798 -0.13979867 1.2596033
-0.12826326 -0.12826326 1.1935586
-0.1236003 -0.12779014 1.1891558
-0.11897159 -0.12732048 1.1847854
-0.11437678 -0.12685424 1.1804469
-0.1098155 -0.12639143 1.1761401
-0.10536168 -0.12602083 1.1726915
-0.10102583 -0.12576684 1.170328
-0.096707411 -0.12551388 1.167974
-0.09240634 -0.12526193 1.1656295
-0.088122495 -0.12501098 1.1632943
-0.083855785 -0.12476105 1.1609685
-0.079606101 -0.12451211 1.1586519
-0.075373344 -0.12426417 1.1563448
-0.071157403 -0.12401719 1.1540465
-0.066958196 -0.12377121 1.1517576
-0.062775612 -0.1235262 1.1494776
-0.05870232 -0.12347729 1.1490225
-0.054842696 -0.12390387 1.152992
-0.050956283 -0.12433333 1.1569884
-0.047042824 -0.12476575 1.1610123
-0.043102078 -0.12520127 1.1650651
-0.039133731 -0.12563987 1.1691464
-0.035137482 -0.12608156 1.1732565
-0.031113036 -0.12652636 1.1773956
-0.028384451 -0.13318858 1.2393912
-0.024102954 -0.13366184 1.2437952
-0.019791005 -0.13413903 1.2482357
-0.015448043 -0.13461865 1.2526989
-0.011073916 -0.13510178 1.2571945
-0.0066683041 -0.13558884 1.261727
-0.0022308105 -0.13607945 1.2662922
-0.12829383 -0.12408747 1.1938429
-0.12362962 -0.12362962 1.189438
-0.11899971 -0.12317514 1.1850654
-0.11440372 -0.12272399 1.1807249
-0.10984127 -0.12227613 1.176416
-0.105312 -0.12183154 1.1721386
-0.10081554 -0.12139014 1.167892
-0.096351556 -0.12095195 1.1636761
-0.092060313 -0.12070131 1.1612647
-0.087793171 -0.12046039 1.1589469
-0.083543025 -0.12022045 1.1566384
-0.079309791 -0.11998148 1.1543392
-0.075093336 -0.11974343 1.1520489
-0.070893586 -0.11950634 1.1497679
-0.066710435 -0.11927017 1.1474957
-0.062636137 -0.11921071 1.1469237
-0.058797151 -0.11962179 1.1508787
-0.054931596 -0.12003571 1.154861
-0.051039144 -0.12045237 1.1588697
-0.047119591 -0.120872 1.1629069
-0.043172657 -0.12129461 1.1669729
-0.039198041 -0.12172022 1.1710677
-0.035195425 -0.12214883 1.1751913
-0.031164529 -0.12258048 1.1793442
-0.028431548 -0.12903549 1.2414477
-0.02414309 -0.12949476 1.2458663
-0.019824062 -0.12995774 1.2503206
-0.015473978 -0.13042353 1.254802
-0.01109255 -0.1308921 1.25931
-0.0066795656 -0.13136479 1.2638578
-0.0022345914 -0.1318409 1.2684385
-0.12832437 -0.11990967 1.1941272
-0.12365896 -0.11946712 1.1897202
-0.11902785 -0.11902785 1.1853455
-0.11443067 -0.11859178 1.181003
-0.10986705 -0.1181589 1.1766921
-0.10533663 -0.11772917 1.1724126
-0.10083903 -0.11730255 1.1681641
-0.096373931 -0.11687902 1.1639464
-0.091940947 -0.11645854 1.1597589
-0.087539747 -0.11604106 1.1556015
-0.083232597 -0.1157136 1.1523405
-0.079015657 -0.11548442 1.1500582
-0.074815407 -0.11525617 1.1477851
-0.070631713 -0.11502878 1.1455207
-0.066555597 -0.11495966 1.1448324
-0.062737137 -0.11535538 1.1487731
-0.058892291 -0.11575381 1.152741
-0.055020753 -0.11615492 1.1567354
-0.051122274 -0.11655879 1.1607573
-0.047196608 -0.11696551 1.1648077
-0.043243479 -0.11737515 1.1688871
-0.039262559 -0.11778768 1.1729953
-0.035253566 -0.11820313 1.1771326
-0.031216187 -0.11862151 1.1812991
-0.028478801 -0.12486859 1.243511
-0.024183361 -0.12531377 1.2479444
-0.019857125 -0.12576179 1.252406
-0.015500016 -0.12621441 1.2569134
-0.011111248 -0.12666823 1.2614328
-0.0066908654 -0.12712644 1.2659959
-0.0022383856 -0.12758797 1.2705921
0.0022465419 -0.12805289 1.2752219
-0.12835494 -0.11572987 1.1944116
-0.12368831 -0.11530266 1.1900026
-0.11905599 -0.11487858 1.1856258
-0.11445764 -0.11445764 1.1812813
-0.10989285 -0.11403975 1.1769685
-0.10536127 -0.1136249 1.1726869
-0.10086254 -0.11321305 1.1684364
-0.096396305 -0.11280419 1.1642166
-0.091962218 -0.11239827 1.1600273
-0.087559924 -0.11199525 1.1558678
-0.083189085 -0.11159512 1.1517382
-0.078849375 -0.11119784 1.147638
-0.074540451 -0.11080337 1.1435668
-0.070460796 -0.11072411 1.1427488
-0.066662729 -0.11110454 1.1466751
-0.062838458 -0.11148759 1.1506284
-0.058987726 -0.11187328 1.154609
-0.055110201 -0.11226153 1.1586159
-0.051205676 -0.11265249 1.1626509
-0.047273882 -0.11304624 1.1667148
-0.04331452 -0.11344279 1.1708075
-0.039327294 -0.11384217 1.1749293
-0.035311896 -0.11424436 1.1790802
-0.031268019 -0.11464941 1.1832606
-0.028526248 -0.12068798 1.2455827
-0.02479326 -0.1239663 1.2794173
-0.020184804 -0.12335158 1.273073
-0.015607022 -0.1226266 1.2655907
-0.011130065 -0.12243072 1.263569
-0.0067022112 -0.12287387 1.2681427
-0.0022422052 -0.12332129 1.2727603
-0.12838553 -0.11154807 1.1946962
-0.12371767 -0.11113621 1.1902851
-0.11908415 -0.11072737 1.1859063
-0.11448461 -0.11032153 1.1815597
-0.10991865 -0.10991865 1.1772448
-0.10538591 -0.1095187 1.1729612
-0.10088605 -0.10912165 1.1687088
-0.096418694 -0.10872746 1.164487
-0.091983497 -0.10833611 1.1602956
-0.087580122 -0.1079476 1.1561345
-0.083208211 -0.10756183 1.1520029
-0.078867421 -0.1071788 1.1479006
-0.074557431 -0.10679848 1.1438273
-0.070574 -0.10686921 1.1445848
-0.066770203 -0.10723699 1.1485238
-0.062940121 -0.1076073 1.1524899
-0.059083447 -0.10798009 1.1564826
-0.055199943 -0.10835545 1.1605027
-0.051289354 -0.10873343 1.1645509
-0.047351409 -0.10911412 1.1686281
-0.043385804 -0.1094975 1.1727343
-0.03939224 -0.10988362 1.1768696
-0.035370417 -0.11027247 1.1810343
-0.031320024 -0.11066409 1.1852286
-0.029478677 -0.1201823 1.2871699
-0.02485116 -0.11973741 1.2824051
-0.020252656 -0.11926565 1.2773525
-0.015685514 -0.11876174 1.2719556
-0.011152293 -0.1182143 1.2660924
-0.0067136553 -0.11860791 1.270308
-0.0022460269 -0.11903942 1.2749296
-0.13311997 -0.10776378 1.1994272
-0.12841614 -0.10736431 1.1949811
-0.12374705 -0.10696779 1.1905677
-0.11911233 -0.10657419 1.1861869
-0.11451159 -0.10618347 1.1818382
-0.10994446 -0.10579561 1.1775212
-0.10541057 -0.10541057 1.1732357
-0.10090957 -0.10502832 1.1689812
-0.09644109 -0.10464884 1.1647575
-0.092004769 -0.10427207 1.1605639
-0.087600276 -0.103898 1.1564006
-0.083227284 -0.10352662 1.152267
-0.078885436 -0.10315788 1.1481628
-0.074574403 -0.10279174 1.1440877
-0.07068757 -0.10300189 1.1464267
-0.066878013 -0.10335694 1.1503783
-0.063042089 -0.10371441 1.1543571
-0.059179481 -0.10407425 1.1583623
-0.055289976 -0.10443662 1.1623955
-0.05137331 -0.10480155 1.1664572
-0.047429185 -0.10516906 1.1705476
-0.043457318 -0.1055392 1.1746674
-0.039457407 -0.10591199 1.1788164
-0.035429135 -0.1062874 1.182995
-0.03290756 -0.11188571 1.2453049
-0.029480144 -0.11565287 1.2872341
-0.024865529 -0.11528563 1.2831466
-0.020276278 -0.11489891 1.2788423
-0.0157144 -0.11449063 1.2742981
-0.011182363 -0.1140601 1.2695062
-0.0067250687 -0.11432617 1.2724676
-0.0022498621 -0.11474296 1.2771066
-0.13315181 -0.10356252 1.1997142
-0.12844674 -0.10317853 1.1952659
-0.12377644 -0.10279738 1.1908505
-0.11914051 -0.10241903 1.1864675
-0.11453858 -0.10204346 1.1821167
-0.10997029 -0.10167064 1.1777978
-0.10543521 -0.1013005 1.17351
-0.10093306 -0.10093306 1.1692533
-0.096463449 -0.10056827 1.1650275
-0.092026018 -0.10020611 1.160832
-0.087620445 -0.099846549 1.1566668
-0.083246373 -0.099489562 1.1525313
-0.078903459 -0.099135108 1.1484251
-0.074591376 -0.09878318 1.1443481
-0.070801519 -0.099122122 1.1482747
-0.066986181 -0.099464335 1.152239
-0.063144363 -0.099808834 1.1562299
-0.059275828 -0.10015571 1.1602482
-0.055380303 -0.10050499 1.1642945
-0.051457539 -0.10085677 1.1683697
-0.047507223 -0.10121103 1.1724735
-0.043529075 -0.10156783 1.1766069
-0.039522786 -0.10192718 1.1807697
-0.035488047 -0.10228907 1.184962
-0.03296243 -0.10767727 1.2473813
-0.029445123 -0.11098547 1.2857049
-0.024848083 -0.11068692 1.2822464
-0.020271787 -0.11036862 1.2785591
-0.015718712 -0.11003098 1.2746477
-0.011191441 -0.10967612 1.2705368
-0.0067365305 -0.11003 1.2746363
-0.0022537105 -0.11043181 1.2792912
-0.13318369 -0.099359259 1.2000014
-0.12847738 -0.098990761 1.1955509
-0.12380582 -0.098624974 1.1911331
-0.11916868 -0.098261893 1.186748
-0.11456554 -0.097901464 1.182395
-0.10999605 -0.097543664 1.1780738
-0.10545984 -0.09718848 1.173784
-0.10095654 -0.096835867 1.1695254
-0.096485816 -0.096485816 1.1652976
-0.092047274 -0.096138261 1.1611001
-0.087640606 -0.095793225 1.156933
-0.083265461 -0.095450647 1.1527956
-0.078921489 -0.095110513 1.1486876
-0.074710682 -0.094902761 1.1461785
-0.070915818 -0.095229812 1.1501284
-0.067094684 -0.095559098 1.1541053
-0.06324698 -0.095890589 1.1581088
-0.059372485 -0.096224375 1.1621401
-0.055470921 -0.096560493 1.1661996
-0.051542044 -0.09689904 1.1702883
-0.047585513 -0.097239964 1.1744058
-0.043601066 -0.097583339 1.1785529
-0.039588381 -0.09792915 1.1827294
-0.035547156 -0.098277427 1.1869357
-0.033017647 -0.10345529 1.2494708
-0.029371576 -0.10618954 1.2824935
-0.024799751 -0.10596257 1.2797523
-0.020242764 -0.10571221 1.2767285
-0.015703782 -0.10543969 1.2734371
-0.011205863 -0.10533511 1.2721741
-0.0067480314 -0.10571916 1.2768124
-0.0022575723 -0.10610589 1.2814832
-0.13356496 -0.095403545 1.2034367
-0.12850794 -0.094800942 1.1958354
-0.12383516 -0.094450548 1.1914154
-0.11919682 -0.094102748 1.1870283
-0.1145925 -0.093757495 1.1826732
-0.11002184 -0.093414769 1.17835
-0.10548447 -0.093074538 1.1740582
-0.10098004 -0.092736766 1.1697975
-0.096508183 -0.092401445 1.1655678
-0.092068546 -0.092068546 1.1613685
-0.087660789 -0.091738038 1.1571994
-0.083284557 -0.091409884 1.15306
-0.078939527 -0.091084071 1.1489501
-0.074831076 -0.091010772 1.1480255
-0.07103049 -0.091324911 1.1519881
-0.067203514 -0.09164115 1.1559772
-0.063349925 -0.091959566 1.1599938
-0.059469461 -0.092280202 1.1640383
-0.055561848 -0.09260308 1.1681112
-0.051626828 -0.09292829 1.1722134
-0.047664065 -0.093255773 1.1763444
-0.043673288 -0.093585618 1.180505
-0.039654192 -0.093917824 1.1846956
-0.035606463 -0.0942524 1.188916
-0.033072833 -0.099218503 1.2515593
-0.029245201 -0.10123339 1.2769754
-0.0247142 -0.10110354 1.2753375
-0.020186514 -0.10093256 1.2731807
-0.015669305 -0.10073125 1.2706413
-0.011224929 -0.10102437 1.2743387
-0.0067595709 -0.10139357 1.2789959
-0.12942 -0.091230497 1.2043226
-0.12430105 -0.090592287 1.1958977
-0.11925321 -0.089962952 1.1875899
-0.11461947 -0.089611582 1.1829516
-0.11004764 -0.089283936 1.1786263
-0.10550912 -0.088958666 1.1743325
-0.10100355 -0.088635765 1.1700699
-0.096530564 -0.088315196 1.1658381
-0.092089832 -0.087996945 1.1616369
-0.087680973 -0.087680973 1.1574658
-0.083303668 -0.087367259 1.1533245
-0.07895758 -0.087055787 1.1492128
-0.074951857 -0.087106213 1.1498785
-0.071145505 -0.087407336 1.1538535
-0.067312695 -0.087710477 1.1578553
-0.063453205 -0.088015735 1.1618849
-0.059566755 -0.088323116 1.1659427
-0.055653073 -0.088632673 1.170029
-0.051711887 -0.088944443 1.1741447
-0.047742881 -0.089258432 1.1782897
-0.043745756 -0.089574642 1.1824639
-0.039720226 -0.089893147 1.1866684
-0.037411481 -0.094629042 1.2491864
-0.033128332 -0.094967887 1.2536595
-0.028814416 -0.09530922 1.2581654
-0.024557609 -0.095997922 1.2672569
-0.020092847 -0.095999151 1.2672731
-0.015684539 -0.096347891 1.2718767
-0.011244073 -0.096699029 1.276512
-0.0067711505 -0.097053155 1.2811868
-0.1304349 -0.087669365 1.2137668
-0.12526894 -0.087051295 1.2052097
-0.1201753 -0.086441882 1.1967726
-0.11515248 -0.08584094 1.1884526
-0.110199 -0.085248284 1.1802474
-0.10553377 -0.084840879 1.1746069
-0.10102706 -0.084532849 1.1703423
-0.096552961 -0.084227048 1.1661086
-0.092111111 -0.083923459 1.1619054
-0.087701179 -0.083622053 1.1577325
-0.083322786 -0.083322786 1.1535892
-0.07897564 -0.083025672 1.1494757
-0.075073041 -0.08318904 1.1517376
-0.071260884 -0.083477035 1.1557248
-0.067422234 -0.083767019 1.1597395
-0.063556828 -0.08405903 1.1637824
-0.059664369 -0.084353074 1.1678534
-0.055744596 -0.084649198 1.1719532
-0.05179723 -0.084947459 1.1760825
-0.04782195 -0.085247822 1.180241
-0.043818466 -0.085550338 1.1844293
-0.03978648 -0.085855037 1.1886477
-0.037474092 -0.090378694 1.251277
-0.033183958 -0.090702817 1.2557645
-0.02886302 -0.091029525 1.2602876
-0.024510819 -0.091358513 1.2648424
-0.02012695 -0.091689445 1.2694241
-0.015711263 -0.092023112 1.2740437
-0.011263319 -0.092359215 1.278697
-0.0067827613 -0.092697732 1.2833837
-0.12625201 -0.083454721 1.2146679
-0.12111174 -0.082865931 1.2060982
-0.1160435 -0.082285389 1.1976485
-0.11104578 -0.081712931 1.1893165
-0.10611711 -0.081148379 1.1810995
-0.10125608 -0.080591574 1.1729953
-0.096575364 -0.080137007 1.1663792
-0.092132412 -0.079848088 1.1621741
-0.087721378 -0.079561248 1.1579992
-0.083341911 -0.07927645 1.153854
-0.078993708 -0.078993708 1.1497387
-0.075194567 -0.079259135 1.153602
-0.071376629 -0.079533957 1.157602
-0.06753213 -0.079810694 1.1616298
-0.063660778 -0.08008936 1.1656858
-0.059762299 -0.080369987 1.1697702
-0.055836424 -0.080652617 1.1738838
-0.051882859 -0.080937266 1.1780268
-0.047901284 -0.08122392 1.182199
-0.043891415 -0.08151263 1.1864011
-0.039852951 -0.081803426 1.1906337
-0.037536889 -0.086114042 1.2533739
-0.033239774 -0.086423412 1.2578766
-0.028911678 -0.08673504 1.2624123
-0.024552224 -0.087048791 1.266979
-0.020161171 -0.087365076 1.2715824
-0.015738072 -0.087683544 1.2762177
-0.011282609 -0.088004351 1.2808869
-0.1220629 -0.07923381 1.2155703
-0.11694843 -0.078674391 1.206988
-0.11190566 -0.078122817 1.1985259
-0.1069331 -0.077578917 1.1901816
-0.1020293 -0.077042535 1.1819527
-0.097192854 -0.076513521 1.1738368
-0.092422374 -0.075991727 1.1658317
-0.087741598 -0.075498581 1.1582661
-0.083361052 -0.075228266 1.154119
-0.079113826 -0.075056709 1.151487
-0.075316481 -0.075316481 1.1554724
-0.071492754 -0.075578056 1.1594853
-0.067642391 -0.075841464 1.1635264
-0.063765079 -0.076106705 1.1675956
-0.05986055 -0.076373801 1.1716933
-0.055928554 -0.076642834 1.1758207
-0.051968765 -0.076913774 1.1799773
-0.047980882 -0.077186637 1.1841635
-0.04396461 -0.077461459 1.1883796
-0.039919648 -0.077738263 1.1926262
-0.037599903 -0.081835084 1.2554779
-0.033295769 -0.082129568 1.2599957
-0.028960466 -0.082425945 1.2645426
-0.02459392 -0.082725003 1.2691306
-0.020195508 -0.083025977 1.273748
-0.015764974 -0.083329149 1.2783992
-0.12302913 -0.075544201 1.2251925
-0.11786757 -0.075006634 1.2164742
-0.11277895 -0.074476667 1.2078791
-0.10776173 -0.073954135 1.1994045
-0.10281444 -0.073438883 1.191048
-0.097935595 -0.072930761 1.1828072
-0.093123801 -0.07242962 1.1746796
-0.088377692 -0.071935326 1.1666631
-0.083695859 -0.071447685 1.1587543
-0.079241857 -0.071114488 1.1533505
-0.07543879 -0.07136102 1.1573488
-0.071609266 -0.071609266 1.1613749
-0.067752995 -0.071859241 1.165429
-0.063869707 -0.072110966 1.1695116
-0.059959132 -0.072364472 1.173623
-0.056020994 -0.072619803 1.1777641
-0.05205496 -0.072876945 1.1819344
-0.048060745 -0.073135912 1.1861345
-0.044038046 -0.073396742 1.1903646
-0.039986566 -0.073659465 1.1946255
-0.037663128 -0.077541731 1.257589
-0.033351958 -0.07782124 1.262122
-0.029009616 -0.078102812 1.2666887
-0.024635725 -0.078386396 1.2712879
-0.020229962 -0.078672074 1.2759211
-0.11880129 -0.07128077 1.2261108
-0.11366592 -0.070773117 1.2173786
-0.10860316 -0.070272632 1.2087697
-0.10361149 -0.069779165 1.2002815
-0.098689459 -0.069292597 1.1919119
-0.093835577 -0.068812758 1.1836581
-0.08904846 -0.068339512 1.1755178
-0.084326737 -0.06787274 1.1674887
-0.079669081 -0.067412302 1.1595687
-0.075561501 -0.067392685 1.1592313
-0.071726151 -0.067627512 1.1632706
-0.067863978 -0.067863978 1.167338
-0.063974693 -0.068102099 1.1714339
-0.060058042 -0.068341911 1.175559
-0.056113735 -0.068583451 1.1797138
-0.052141439 -0.068826698 1.183898
-0.048140872 -0.069071688 1.188112
-0.044111732 -0.069318436 1.1923563
-0.042013839 -0.072971404 1.2551916
-0.037726566 -0.073233925 1.2597072
-0.03340834 -0.073498346 1.2642556
-0.029058868 -0.073764816 1.2688392
-0.024677673 -0.074033022 1.2734526
-0.1094574 -0.066532925 1.2182775
-0.10442071 -0.066062085 1.2096559
-0.099454805 -0.065597847 1.2011553
-0.094558217 -0.065140106 1.1927736
-0.08972948 -0.06468869 1.1845078
-0.084967211 -0.064243503 1.176356
-0.080270037 -0.063804388 1.1683154
-0.075684614 -0.06341143 1.1611201
-0.071843415 -0.063632734 1.1651723
-0.067975312 -0.063855596 1.1692531
-0.064080022 -0.064080022 1.1733626
-0.06015728 -0.064306058 1.1775014
-0.056206778 -0.06453371 1.18167
-0.052228212 -0.06476298 1.1858681
-0.048221271 -0.064993888 1.1900963
-0.044185665 -0.065226458 1.1943548
-0.042084463 -0.068664126 1.2573016
-0.03779022 -0.068911575 1.2618326
-0.033464909 -0.069160812 1.2663964
-0.02910821 -0.069411881 1.2709937
-0.10023212 -0.061845351 1.2105433
-0.095292047 -0.061410431 1.2020303
-0.090420991 -0.060981598 1.1936364
-0.085617475 -0.060558703 1.1853588
-0.080880128 -0.060141634 1.1771952
-0.076207578 -0.059730265 1.1691432
-0.071961068 -0.059624884 1.1670805
-0.068087019 -0.059834048 1.1711746
-0.064185709 -0.060044695 1.1752977
-0.06025685 -0.06025685 1.1794504
-0.056300141 -0.060470521 1.1836327
-0.052315269 -0.060685713 1.1878449
-0.048301935 -0.060902443 1.1920871
-0.044259842 -0.061120737 1.1963599
-0.042155333 -0.06434235 1.2594188
-0.037854087 -0.064574614 1.2639651
-0.033521675 -0.06480857 1.2685444
-0.029157761 -0.065044239 1.2731574
-0.091123238 -0.057216916 1.2029067
-0.086277775 -0.056817073 1.1945006
-0.081499562 -0.056422774 1.186211
-0.076787218 -0.056033917 1.1780357
-0.072139375 -0.055650372 1.1699723
-0.068199098 -0.055799264 1.1731025
-0.064291731 -0.055996027 1.1772392
-0.06035674 -0.056194209 1.1814057
-0.056393806 -0.056393806 1.1856019
-0.052402619 -0.056594826 1.1898282
-0.048382871 -0.056797285 1.1940845
-0.04433427 -0.057001203 1.1983716
-0.082128562 -0.052646514 1.1953659
-0.077375725 -0.052280895 1.1870644
-0.072688453 -0.051920321 1.1788774
-0.068311542 -0.05175117 1.1750367
-0.06439811 -0.051933963 1.1791871
-0.060456969 -0.052118078 1.1833675
-0.056487784 -0.052303504 1.1875777
-0.05249026 -0.05249026 1.1918181
-0.048464078 -0.052678347 1.1960887
-0.044408951 -0.0528678 1.2003903
-0.068583824 -0.047800846 1.1797202
-0.064504847 -0.047858436 1.1811415
-0.060557533 -0.048028387 1.1853359
-0.056582082 -0.048199549 1.1895602
-0.052578192 -0.048371937 1.1938146
-0.048545558 -0.048545558 1.1980996
