# .PCD v0.7 - Point Cloud Data file format
VERSION 0.7
FIELDS x y z
SIZE 4 4 4
TYPE F F F
COUNT 1 1 1
WIDTH 1378
HEIGHT 1
VIEWPOINT 0 0 0 1 0 0 0
POINTS 1378
DATA ascii
-0.1384003 -0.24121197 0.74820226
-0.13560328 -0.24092621 0.74731588
-0.13294654 -0.24088334 0.74718291
-0.1311322 -0.24239589 0.75187463
-0.12929487 -0.24392743 0.75662524
-0.12743394 -0.245478 0.76143485
-0.12554918 -0.24704838 0.76630592
-0.12364014 -0.24863897 0.7712397
-0.12170637 -0.25025016 0.77623737
-0.11974737 -0.2518824 0.78130031
-0.21984448 -0.24715434 0.77510571
-0.21684693 -0.24685089 0.77415407
-0.21385673 -0.24654819 0.77320474
-0.21087383 -0.2462462 0.77225769
-0.20789824 -0.24594499 0.77131301
-0.20492993 -0.24564448 0.7703706
-0.20196885 -0.2453447 0.76943046
-0.1990153 -0.24504605 0.76849383
-0.19643973 -0.24521098 0.76901108
-0.194819 -0.24658909 0.77333301
-0.19316852 -0.24796811 0.77765775
-0.19149399 -0.24935547 0.78200871
-0.18978605 -0.25073922 0.78634834
-0.18805288 -0.25213015 0.79071045
-0.18629029 -0.25352287 0.79507822
-0.18449764 -0.25491658 0.79944903
-0.1669922 -0.2418047 0.75832862
-0.16412291 -0.24151421 0.75741756
-0.16126062 -0.24122456 0.75650918
-0.15840517 -0.24093559 0.75560296
-0.15555656 -0.24064733 0.75469893
-0.15271476 -0.24035975 0.75379705
-0.14987974 -0.24007286 0.75289732
-0.14705148 -0.23978665 0.75199974
-0.14422995 -0.2395011 0.75110424
-0.14141515 -0.23921628 0.750211
-0.13860703 -0.2389321 0.74931979
-0.13580556 -0.23864859 0.74843067
-0.13301073 -0.23836577 0.74754369
-0.13099083 -0.23948827 0.751064
-0.12915465 -0.24099991 0.75580466
-0.127295 -0.24253047 0.76060468
-0.12541144 -0.24408032 0.7654652
-0.12350363 -0.24565007 0.77038813
-0.12157112 -0.24724014 0.77537477
-0.11961342 -0.24885093 0.78042638
-0.22319469 -0.24510337 0.77726215
-0.22018467 -0.24480158 0.77630514
-0.21718206 -0.24450055 0.77535051
-0.21418683 -0.24420027 0.77439827
-0.21119893 -0.2439007 0.77344829
-0.20821837 -0.24360189 0.77250069
-0.20524538 -0.24330412 0.77155644
-0.20227936 -0.24300675 0.77061343
-0.19932103 -0.24271065 0.76967442
-0.19636905 -0.24241422 0.7687344
-0.19461314 -0.24360666 0.77251583
-0.19292611 -0.24492037 0.77668184
-0.19120504 -0.24622808 0.78082877
-0.18946144 -0.2475445 0.78500336
-0.18768133 -0.24885155 0.78914821
-0.18587595 -0.25016388 0.79330981
-0.18403774 -0.25147143 0.79745626
-0.18216379 -0.25276992 0.80157399
-0.1672449 -0.2394947 0.75947613
-0.16437106 -0.23920667 0.75856274
-0.16150415 -0.23891935 0.75765163
-0.15864411 -0.23863274 0.75674272
-0.15579093 -0.2383468 0.75583595
-0.15294456 -0.23806153 0.75493133
-0.150105 -0.23777694 0.75402886
-0.14727223 -0.23749305 0.75312859
-0.14444621 -0.23720983 0.75223047
-0.14162692 -0.2369273 0.75133449
-0.13881435 -0.23664542 0.7504406
-0.13600846 -0.2363642 0.74954885
-0.13320921 -0.23608366 0.74865919
-0.13084973 -0.23658688 0.75025499
-0.12901467 -0.23807861 0.75498551
-0.1271563 -0.23958926 0.759776
-0.125274 -0.24111877 0.76462632
-0.12336741 -0.24266775 0.7695384
-0.12143616 -0.24423677 0.77451402
-0.11947978 -0.24582623 0.77955443
-0.22354104 -0.24274087 0.77846825
-0.22052591 -0.24244153 0.77750826
-0.21751823 -0.24214293 0.77655065
-0.21451797 -0.24184509 0.77559549
-0.21152522 -0.24154815 0.77464318
-0.20853999 -0.24125215 0.77369392
-0.2055614 -0.24095608 0.77274442
-0.20259057 -0.24066128 0.77179903
-0.19962671 -0.24036686 0.77085483
-0.19667038 -0.2400735 0.76991403
-0.19422394 -0.24040306 0.77097088
-0.19248858 -0.24163461 0.77492046
-0.1907277 -0.24286908 0.7788794
-0.18893003 -0.24409208 0.78280157
-0.18710306 -0.24531291 0.78671676
-0.1852389 -0.24652094 0.79059088
-0.18334006 -0.24771902 0.79443312
-0.18140689 -0.24890712 0.79824334
-0.17943723 -0.25008181 0.8020106
-0.16749862 -0.23717804 0.76062828
-0.16461997 -0.23689215 0.75971144
-0.16174841 -0.23660718 0.75879753
-0.15888375 -0.23632288 0.75788581
-0.15602596 -0.23603928 0.75697631
-0.15317504 -0.23575637 0.756069
-0.15033095 -0.23547412 0.75516385
-0.14749363 -0.23519255 0.75426084
-0.14466311 -0.23491167 0.75336003
-0.14183934 -0.23463143 0.75246131
-0.13902229 -0.23435186 0.75156474
-0.13621196 -0.23407298 0.75067037
-0.13340831 -0.23379475 0.74977809
-0.13070895 -0.23369177 0.74944782
-0.128875 -0.23516364 0.75416815
-0.12701778 -0.23665418 0.75894827
-0.12513684 -0.23816366 0.76378918
-0.12323149 -0.23969202 0.76869059
-0.12130151 -0.24124008 0.77365524
-0.11934643 -0.24280827 0.77868438
-0.11736578 -0.24439698 0.78377938
-0.22388844 -0.24037103 0.77967811
-0.2208682 -0.24007413 0.77871507
-0.21785563 -0.23977821 0.7777552
-0.21485023 -0.23948275 0.77679682
-0.21185219 -0.23918796 0.77584064
-0.20886211 -0.23889457 0.77488899
-0.20587905 -0.23860155 0.77393854
-0.20290317 -0.23830909 0.77298987
-0.19993423 -0.23801695 0.77204227
-0.19697261 -0.23772556 0.77109712
-0.19401848 -0.23743519 0.77015531
-0.19184124 -0.23810084 0.77231443
-0.19001436 -0.23922671 0.77596635
-0.18815516 -0.24034418 0.77959102
-0.18625875 -0.24144652 0.78316665
-0.18431738 -0.24252287 0.78665787
-0.18233146 -0.24357256 0.79006273
-0.1802945 -0.24458556 0.79334855
-0.17064311 -0.23513813 0.76270443
-0.16775389 -0.23485546 0.76178753
-0.16486968 -0.23457068 0.76086384
-0.16199343 -0.23428801 0.75994694
-0.15912412 -0.23400606 0.75903243
-0.15626176 -0.23372485 0.75812024
-0.15340623 -0.23344426 0.75721014
-0.15055756 -0.23316437 0.75630224
-0.1477157 -0.23288512 0.75539649
-0.14488067 -0.23260656 0.75449294
-0.14205238 -0.23232867 0.75359154
-0.13923086 -0.23205145 0.75269234
-0.13641606 -0.23177488 0.75179523
-0.13360797 -0.23149896 0.75090027
-0.13080655 -0.23122369 0.75000739
-0.12873562 -0.23225498 0.75335252
-0.12687954 -0.23372547 0.75812227
-0.12499981 -0.2352147 0.7629528
-0.12309587 -0.23672283 0.76784462
-0.12116715 -0.23825002 0.7727983
-0.11921339 -0.23979704 0.7778163
-0.11723409 -0.2413643 0.78289992
-0.22726977 -0.23828891 0.78185999
-0.22423702 -0.2379939 0.78089201
-0.22121158 -0.23769939 0.7799257
-0.21819367 -0.23740569 0.77896202
-0.21518321 -0.23711272 0.77800071
-0.2121802 -0.23682047 0.77704185
-0.20918454 -0.23652893 0.77608526
-0.20619631 -0.23623815 0.77513117
-0.20321538 -0.23594804 0.77417928
-0.20024177 -0.23565868 0.77322984
-0.19727543 -0.23537 0.7722826
-0.19431637 -0.23508205 0.77133781
-0.19136454 -0.2347948 0.77039528
-0.18898863 -0.23521605 0.77177751
-0.18702726 -0.23617311 0.77491772
-0.18500745 -0.23708363 0.77790529
-0.18292002 -0.23793358 0.78069407
-0.18074022 -0.23868747 0.78316772
-0.17380501 -0.23308735 0.76479292
-0.17090333 -0.23280533 0.76386756
-0.16800812 -0.23252323 0.76294196
-0.16512112 -0.23224352 0.76202422
-0.16223919 -0.23196183 0.76109993
-0.15936524 -0.23168224 0.76018256
-0.15649822 -0.23140337 0.75926751
-0.15363811 -0.23112515 0.75835466
-0.15078485 -0.23084761 0.75744402
-0.14793846 -0.23057075 0.75653559
-0.14509888 -0.23029456 0.75562936
-0.14226608 -0.230019 0.75472522
-0.13944007 -0.22974411 0.75382328
-0.13662079 -0.22946988 0.75292349
-0.13380824 -0.2291963 0.75202584
-0.1310024 -0.22892338 0.75113034
-0.12859654 -0.22935261 0.75253868
-0.1267416 -0.23080312 0.75729805
-0.12486306 -0.23227213 0.7621181
-0.12296044 -0.23375995 0.76699984
-0.12103309 -0.23526657 0.77194327
-0.11908063 -0.23679252 0.77695012
-0.11710269 -0.23833841 0.78202242
-0.22458644 -0.2356091 0.78210884
-0.22155593 -0.23531717 0.78113979
-0.21853292 -0.23502597 0.78017318
-0.21551742 -0.23473552 0.77920902
-0.2125093 -0.23444575 0.77824712
-0.20950864 -0.23415671 0.77728766
-0.20651534 -0.23386836 0.77633047
-0.20352945 -0.23358077 0.77537578
-0.20055084 -0.23329383 0.7744233
-0.19757956 -0.23300762 0.7734732
-0.19461556 -0.2327221 0.77252543
-0.19165882 -0.23243731 0.77158004
-0.1887096 -0.23215353 0.77063805
-0.18576774 -0.23187068 0.7696991
-0.18283278 -0.23158817 0.76876134
-0.17990497 -0.23130637 0.7678259
-0.1769841 -0.23102504 0.76689202
-0.17407027 -0.2307443 0.7659601
-0.1711641 -0.23046504 0.76503307
-0.16826434 -0.23018563 0.76410556
-0.16537146 -0.22990666 0.76317954
-0.16248651 -0.2296297 0.76226014
-0.15960708 -0.22935136 0.76133615
-0.15673544 -0.22907487 0.76041836
-0.15387069 -0.22879903 0.75950271
-0.15101287 -0.2285239 0.75858939
-0.14816187 -0.22824939 0.75767815
-0.14531775 -0.22797553 0.75676912
-0.14248042 -0.22770236 0.7558623
-0.1396499 -0.22742982 0.75495762
-0.13682614 -0.22715795 0.75405514
-0.13400912 -0.22688673 0.75315481
-0.13119882 -0.22661614 0.75225657
-0.12845778 -0.22645649 0.75172663
-0.12660396 -0.22788714 0.75647569
-0.1247266 -0.22933601 0.76128525
-0.1228252 -0.2308034 0.76615626
-0.12089931 -0.23228969 0.77109003
-0.11894818 -0.23379469 0.77608591
-0.11697158 -0.2353193 0.78114688
-0.11496904 -0.23686391 0.78627425
-0.22493708 -0.23321697 0.7833299
-0.22190143 -0.23292759 0.78235793
-0.21887326 -0.23263888 0.78138822
-0.21585263 -0.23235092 0.78042102
-0.21283945 -0.23206367 0.7794562
-0.20983371 -0.23177712 0.7784937
-0.20683539 -0.23149127 0.77753359
-0.20384444 -0.2312061 0.7765758
-0.20086089 -0.2309217 0.77562052
-0.19788462 -0.23063794 0.77466744
-0.1949157 -0.23035491 0.77371681
-0.19195402 -0.23007254 0.77276838
-0.18899989 -0.22979124 0.77182353
-0.18605305 -0.22951071 0.7708813
-0.18311352 -0.229231 0.76994181
-0.18018103 -0.22895184 0.76900417
-0.17725484 -0.22867227 0.76806515
-0.17433733 -0.22839542 0.76713526
-0.17142515 -0.22811693 0.76619989
-0.16852102 -0.22784042 0.76527113
-0.16562372 -0.22756429 0.76434368
-0.16273323 -0.22728856 0.76341754
-0.15985025 -0.22701423 0.76249611
-0.15697335 -0.22673927 0.7615726
-0.15410399 -0.22646587 0.76065427
-0.15124154 -0.2261931 0.75973809
-0.14838597 -0.22592098 0.75882411
-0.14553727 -0.22564952 0.75791234
-0.1426954 -0.22537872 0.75700277
-0.13986036 -0.22510858 0.75609541
-0.13703209 -0.22483908 0.75519019
-0.1342106 -0.2245702 0.75428712
-0.13139583 -0.22430198 0.7533862
-0.12858778 -0.22403438 0.75248742
-0.12646663 -0.22497749 0.75565511
-0.12459043 -0.22640628 0.76045412
-0.12269027 -0.22785336 0.76531458
-0.12076563 -0.22931902 0.77023745
-0.11881603 -0.23080355 0.77522367
-0.11684076 -0.23230693 0.78027326
-0.11483962 -0.23383006 0.78538918
-0.22528884 -0.23081741 0.7845549
-0.22224799 -0.23053052 0.78357977
-0.21921468 -0.23024435 0.78260708
-0.21618889 -0.22995889 0.78163677
-0.2131706 -0.22967415 0.78066891
-0.21015981 -0.22939011 0.7797035
-0.20715642 -0.22910677 0.77874041
-0.20416047 -0.22882414 0.77777976
-0.20117186 -0.22854218 0.77682137
-0.19819064 -0.22826095 0.77586544
-0.19521673 -0.22798038 0.77491176
-0.19225015 -0.22770052 0.77396053
-0.18929119 -0.22742179 0.77301311
-0.18633939 -0.22714363 0.77206767
-0.18339507 -0.2268665 0.77112567
-0.18045792 -0.22659001 0.77018589
-0.17752659 -0.22631253 0.7692427
-0.17460351 -0.2260371 0.76830649
-0.17168726 -0.22576199 0.76737142
-0.16877858 -0.22548819 0.76644075
-0.16587642 -0.22521433 0.7655099
-0.16298142 -0.2249413 0.76458186
-0.16009337 -0.22466885 0.76365578
-0.15721239 -0.22439717 0.76273233
-0.15433799 -0.22412561 0.76180929
-0.15147091 -0.22385524 0.76089031
-0.14861074 -0.22358553 0.75997359
-0.14575747 -0.22331649 0.75905907
-0.14291105 -0.22304808 0.75814676
-0.14007145 -0.22278032 0.7572366
-0.13723867 -0.22251318 0.75632864
-0.13441268 -0.22224669 0.75542283
-0.13159345 -0.22198087 0.75451928
-0.12878095 -0.22171566 0.75361782
-0.1263296 -0.22207412 0.75483626
-0.12445458 -0.22348295 0.7596249
-0.12255561 -0.22490975 0.76447463
-0.12063226 -0.22635491 0.76938677
-0.11868401 -0.22781873 0.77436233
-0.11671025 -0.2293013 0.77940166
-0.11471049 -0.23080304 0.78450608
-0.22259563 -0.22812596 0.78480548
-0.21955714 -0.22784232 0.78382969
-0.21652624 -0.22755942 0.78285646
-0.21350281 -0.22727719 0.7818855
-0.2104869 -0.22699568 0.78091705
-0.20747846 -0.22671488 0.77995104
-0.20447743 -0.22643474 0.77898729
-0.20148382 -0.22615531 0.77802598
-0.19849758 -0.22587655 0.77706701
-0.1955187 -0.22559851 0.77611047
-0.19254714 -0.22532113 0.7751562
-0.18958341 -0.22504506 0.77420646
-0.18662664 -0.22476931 0.77325785
-0.18367738 -0.22449456 0.77231264
-0.18073478 -0.22421984 0.77136755
-0.1777992 -0.22394554 0.77042389
-0.17487115 -0.2236724 0.76948422
-0.17195107 -0.223401 0.76855052
-0.16903651 -0.22312818 0.76761198
-0.16612992 -0.22285721 0.76667976
-0.16323018 -0.22258662 0.76574886
-0.16033749 -0.2223167 0.76482028
-0.15745185 -0.22204749 0.76389414
-0.15457293 -0.22177856 0.76296896
-0.15170099 -0.22151031 0.7620461
-0.14883621 -0.22124301 0.76112658
-0.14597833 -0.22097637 0.76020926
-0.14312734 -0.22071037 0.75929415
-0.14028318 -0.22044501 0.75838125
-0.13744587 -0.22018027 0.75747049
-0.13461538 -0.21991621 0.75656205
-0.13179165 -0.21965276 0.75565571
-0.12897468 -0.21938992 0.7547515
-0.12619284 -0.21917704 0.75401914
-0.124319 -0.22056597 0.75879741
-0.12242126 -0.22197261 0.76363659
-0.12049916 -0.22339731 0.76853788
-0.11855222 -0.22484042 0.77350247
-0.11657996 -0.22630227 0.77853155
-0.11458166 -0.22778282 0.78362501
-0.11255698 -0.22928274 0.78878504
-0.22294435 -0.22571385 0.78603494
-0.2199007 -0.22543278 0.78505617
-0.21686462 -0.22515243 0.78407985
-0.21383607 -0.22487277 0.78310597
-0.21081503 -0.22459379 0.78213441
-0.20780148 -0.22431551 0.7811653
-0.20479542 -0.22403793 0.78019869
-0.20179674 -0.22376102 0.77923435
-0.1988055 -0.2234848 0.77827245
-0.19582161 -0.22320926 0.77731287
-0.19284509 -0.2229344 0.77635568
-0.18987653 -0.22266096 0.77540344
-0.18691482 -0.2223877 0.77445185
-0.18396051 -0.22211529 0.77350318
-0.18101294 -0.22184293 0.7725547
-0.17807277 -0.22157145 0.77160931
-0.17513977 -0.22130065 0.77066624
-0.17221411 -0.2210307 0.76972616
-0.16929546 -0.22076127 0.76878792
-0.16638428 -0.22049299 0.76785362
-0.1634797 -0.22022472 0.76691943
-0.16058229 -0.21995726 0.76598799
-0.1576919 -0.21969043 0.76505876
-0.1548087 -0.2194245 0.76413268
-0.15193187 -0.21915837 0.76320589
-0.14906234 -0.21889335 0.76228297
-0.14619985 -0.21862915 0.76136291
-0.14334427 -0.21836556 0.760445
-0.14049557 -0.21810265 0.75952941
-0.13765371 -0.21784033 0.75861591
-0.13481867 -0.21757865 0.75770462
-0.13199045 -0.21731761 0.75679559
-0.129169 -0.21705718 0.75588864
-0.12635431 -0.2167974 0.75498396
-0.12418372 -0.21765535 0.7579717
-0.12228721 -0.21904193 0.7628004
-0.12036636 -0.22044626 0.7676909
-0.11842074 -0.22186874 0.77264458
-0.11644983 -0.22330967 0.77766252
-0.11445311 -0.22476935 0.78274584
-0.11242987 -0.22624777 0.78789431
-0.2202453 -0.2230157 0.78628647
-0.21720405 -0.22273791 0.78530711
-0.21417035 -0.22246081 0.78433013
-0.21114418 -0.2221844 0.78335559
-0.20812552 -0.22190867 0.78238344
-0.20511435 -0.22163363 0.78141373
-0.20211065 -0.22135928 0.78044647
-0.19911435 -0.22108559 0.77948153
-0.19612548 -0.2208126 0.77851903
-0.19314395 -0.22054024 0.7775588
-0.19017053 -0.22026946 0.77660406
-0.18720385 -0.21999869 0.77564943
-0.18424454 -0.21972866 0.77469742
-0.18129228 -0.21945907 0.77374691
-0.17834736 -0.21919027 0.77279919
-0.17540921 -0.21892157 0.77185184
-0.17247863 -0.21865402 0.77090853
-0.16955589 -0.21838799 0.7699706
-0.16663904 -0.21812104 0.76902938
-0.16373001 -0.21785563 0.76809365
-0.16082786 -0.21759063 0.76715934
-0.15793276 -0.21732628 0.7662273
-0.15504465 -0.2170625 0.76529729
-0.15216391 -0.2167999 0.76437145
-0.14928922 -0.21653661 0.76344317
-0.14642206 -0.21627478 0.76252007
-0.14356187 -0.21601366 0.76159942
-0.14070858 -0.21575317 0.76068097
-0.13786216 -0.21549329 0.75976473
-0.1350226 -0.21523404 0.75885069
-0.13218985 -0.21497543 0.75793892
-0.12936392 -0.21471743 0.75702929
-0.12654474 -0.21446005 0.75612181
-0.12404875 -0.21475108 0.75714791
-0.12215345 -0.21611764 0.76196599
-0.12023386 -0.21750169 0.76684576
-0.11828952 -0.2189036 0.77178848
-0.11631997 -0.2203237 0.77679533
-0.11432467 -0.22176231 0.78186744
-0.11230305 -0.22321965 0.78700554
-0.22059101 -0.22059101 0.78752065
-0.21754453 -0.2203158 0.78653812
-0.21450567 -0.2200413 0.78555816
-0.21147434 -0.21976747 0.78458053
-0.2084506 -0.21949433 0.78360546
-0.20543431 -0.21922185 0.78263265
-0.20242552 -0.21895005 0.78166234
-0.19942418 -0.21867894 0.78069443
-0.19643027 -0.21840848 0.77972889
-0.19344376 -0.21813871 0.7787658
-0.19046545 -0.21787055 0.77780849
-0.18749376 -0.21760224 0.77685058
-0.18452944 -0.21733467 0.77589536
-0.18157241 -0.21706778 0.77494252
-0.1786228 -0.2168017 0.77399266
-0.1756795 -0.2165352 0.77304119
-0.17274408 -0.21627015 0.77209496
-0.16981585 -0.21600576 0.77115107
-0.16689482 -0.21574208 0.77020973
-0.16398114 -0.21547934 0.76927173
-0.16107415 -0.21521671 0.76833415
-0.15817432 -0.21495484 0.76739925
-0.15528154 -0.21469362 0.76646668
-0.15239573 -0.21443291 0.76553595
-0.14951734 -0.2141735 0.76460981
-0.14664496 -0.21391329 0.76368088
-0.14378014 -0.21365459 0.7627573
-0.14092225 -0.21339655 0.76183605
-0.13807125 -0.21313912 0.76091701
-0.13522714 -0.21288234 0.76000029
-0.13238986 -0.21262613 0.75908566
-0.12955941 -0.21237057 0.75817329
-0.12673575 -0.21211562 0.75726306
-0.12391885 -0.21186127 0.75635505
-0.12201998 -0.21319973 0.76113343
-0.12010165 -0.21456362 0.7660026
-0.11815862 -0.21594505 0.77093434
-0.1161904 -0.2173444 0.77593011
-0.1141965 -0.21876198 0.7809909
-0.11217643 -0.22019818 0.78611821
-0.11012947 -0.22165298 0.79131192
-0.2209378 -0.21815871 0.7887587
-0.21788612 -0.21788612 0.78777313
-0.21484205 -0.2176142 0.78679001
-0.21180558 -0.21734297 0.7858094
-0.20877665 -0.21707241 0.78483117
-0.20575528 -0.21680254 0.78385544
-0.20274138 -0.21653332 0.78288203
-0.19973497 -0.21626475 0.78191108
-0.19673601 -0.21599688 0.78094256
-0.19374448 -0.21572967 0.77997643
-0.1907613 -0.21546419 0.77901661
-0.18778449 -0.21519828 0.77805519
-0.18481521 -0.21493326 0.77709699
-0.18185328 -0.2146689 0.77614123
-0.17889856 -0.21440513 0.77518755
-0.1759506 -0.21414143 0.77423412
-0.17301033 -0.21387891 0.77328497
-0.17007725 -0.21361703 0.77233815
-0.16715187 -0.21335645 0.77139598
-0.16423273 -0.21309535 0.77045202
-0.16132122 -0.21283557 0.76951271
-0.15841664 -0.2125762 0.76857495
-0.15551914 -0.21231745 0.76763946
-0.15262869 -0.21205933 0.76670623
-0.14974515 -0.21180171 0.76577479
-0.14686912 -0.21154544 0.76484823
-0.14399906 -0.21128833 0.7639187
-0.14113657 -0.21103278 0.76299471
-0.13828099 -0.2107778 0.76207286
-0.13543229 -0.21052347 0.76115328
-0.13259047 -0.21026973 0.76023591
-0.12975548 -0.21001661 0.75932074
-0.12692733 -0.20976412 0.75840783
-0.12410596 -0.20951222 0.75749707
-0.12188679 -0.2102882 0.76030266
-0.11996972 -0.21163197 0.7651611
-0.11802799 -0.21299306 0.77008212
-0.11606112 -0.21437171 0.77506673
-0.11406862 -0.21576835 0.78011632
-0.11204998 -0.21718329 0.78523207
-0.11000469 -0.21861693 0.79041541
-0.097182289 -0.22772567 0.82334828
-0.094893686 -0.22920474 0.82869595
-0.21822876 -0.21544877 0.78901196
-0.21517949 -0.21517949 0.7880258
-0.21213782 -0.21491086 0.78704202
-0.20910373 -0.21464291 0.78606075
-0.20607722 -0.21437563 0.78508192
-0.20305823 -0.21410902 0.78410554
-0.20004673 -0.21384306 0.78313154
-0.1970427 -0.21357776 0.78215998
-0.19404614 -0.21331313 0.78119087
-0.19105805 -0.21305035 0.7802285
-0.18807611 -0.21278684 0.7792635
-0.18510191 -0.21252441 0.77830243
-0.182135 -0.2122626 0.77734363
-0.17917506 -0.21200104 0.77638572
-0.17622253 -0.21174024 0.77543068
-0.17327741 -0.2114803 0.77447873
-0.17033949 -0.21122096 0.77352899
-0.16740876 -0.21096227 0.77258158
-0.16448525 -0.21070425 0.77163666
-0.1615691 -0.21044716 0.77069515
-0.15865973 -0.21019022 0.76975423
-0.15575747 -0.20993398 0.76881582
-0.15286231 -0.20967838 0.76787978
-0.14997417 -0.20942339 0.76694596
-0.14709292 -0.20916885 0.76601374
-0.14421923 -0.20891573 0.76508677
-0.14135154 -0.20866179 0.76415682
-0.13849135 -0.20840931 0.76323217
-0.13563807 -0.20815744 0.76230979
-0.13279168 -0.20790617 0.76138961
-0.12995218 -0.20765555 0.76047176
-0.1271195 -0.20740548 0.759556
-0.12429363 -0.20715605 0.75864249
-0.12175392 -0.20738304 0.7594738
-0.11983808 -0.20870678 0.76432157
-0.11789766 -0.21004756 0.76923174
-0.11593213 -0.21140565 0.77420533
-0.11394101 -0.2127814 0.77924359
-0.11192382 -0.21417521 0.78434795
-0.10988002 -0.21558738 0.78951955
-0.10539228 -0.22377811 0.81951553
-0.10142735 -0.22142591 0.81090128
-0.099242136 -0.22293523 0.81642872
-0.097026914 -0.22446525 0.82203192
-0.094781078 -0.22601643 0.8277126
-0.2185725 -0.21300377 0.79025477
-0.21551797 -0.2127371 0.78926539
-0.21247111 -0.21247111 0.78827858
-0.20943186 -0.21220578 0.78729421
-0.20640019 -0.21194114 0.78631234
-0.20337607 -0.21167713 0.78533286
-0.20035948 -0.2114138 0.78435588
-0.19735037 -0.21115109 0.78338122
-0.19434874 -0.21088906 0.78240907
-0.19135553 -0.21062875 0.7814433
-0.18836866 -0.21036792 0.78047562
-0.18538946 -0.21010806 0.77951151
-0.1824176 -0.20984882 0.77854973
-0.17945294 -0.20959008 0.7775898
-0.17649549 -0.20933187 0.77663183
-0.17354533 -0.20907429 0.77567619
-0.17060253 -0.2088175 0.77472347
-0.16766696 -0.20856133 0.77377307
-0.16473892 -0.20830624 0.77282667
-0.16181748 -0.20805103 0.77187985
-0.15890352 -0.20779692 0.77093709
-0.15599655 -0.20754322 0.76999587
-0.15309665 -0.20729014 0.76905692
-0.15020379 -0.20703767 0.76812023
-0.14731801 -0.20678583 0.76718587
-0.14443907 -0.20653437 0.76625293
-0.14156754 -0.20628414 0.76532459
-0.13870235 -0.20603359 0.76439506
-0.13584448 -0.20578422 0.76346987
-0.13299353 -0.20553546 0.76254696
-0.13014945 -0.20528728 0.76162618
-0.12731223 -0.20503971 0.76070768
-0.12448186 -0.20479272 0.75979137
-0.1216583 -0.20454636 0.75887734
-0.11970674 -0.205788 0.76348388
-0.1177676 -0.20710854 0.76838315
-0.11580343 -0.20844617 0.77334583
-0.1138137 -0.20980115 0.77837288
-0.11179794 -0.21117389 0.7834658
-0.10975563 -0.21256469 0.78862578
-0.10768624 -0.21397395 0.79385418
-0.1055891 -0.21540175 0.79915142
-0.10346371 -0.2168486 0.80451924
-0.10130957 -0.21831499 0.80995965
-0.099126101 -0.21980135 0.81547415
-0.096912712 -0.22130813 0.82106435
-0.094668746 -0.22283566 0.82673156
-0.21585755 -0.21028703 0.79050899
-0.21280546 -0.21002369 0.78951901
-0.20976102 -0.20976102 0.7885316
-0.20672415 -0.20949897 0.78754652
-0.20369491 -0.20923762 0.78656405
-0.20067318 -0.20897689 0.78558391
-0.197659 -0.20871684 0.78460634
-0.19465227 -0.2084574 0.78363103
-0.19165394 -0.20819961 0.78266191
-0.18866213 -0.20794147 0.78169155
-0.18567792 -0.20768419 0.78072441
-0.1827011 -0.20742755 0.77975965
-0.17973162 -0.20717156 0.77879733
-0.17676945 -0.20691617 0.77783728
-0.17381404 -0.20666079 0.77687722
-0.17086637 -0.20640656 0.77592158
-0.16792594 -0.20615299 0.77496833
-0.16499272 -0.20590001 0.77401733
-0.1620668 -0.2056478 0.7730692
-0.15914813 -0.20539629 0.77212375
-0.15623632 -0.20514508 0.77117938
-0.15333167 -0.20489454 0.77023757
-0.15043411 -0.20464461 0.76929802
-0.14754362 -0.20439531 0.76836085
-0.14466017 -0.20414659 0.76742589
-0.14178352 -0.20389819 0.76649213
-0.13891421 -0.20365092 0.76556259
-0.13605152 -0.20340377 0.76463348
-0.13319598 -0.2031575 0.7637077
-0.13034733 -0.20291181 0.76278412
-0.12750557 -0.20266674 0.76186287
-0.12467067 -0.20242226 0.76094383
-0.12184259 -0.20217836 0.76002693
-0.11957569 -0.20287561 0.76264805
-0.11763785 -0.20417604 0.76753658
-0.115675 -0.20549323 0.77248818
-0.11368667 -0.20682755 0.77750415
-0.11167234 -0.20817931 0.78258562
-0.10963152 -0.20954885 0.78773397
-0.10756365 -0.21093652 0.79295051
-0.10546817 -0.21234259 0.79823619
-0.10334451 -0.21376741 0.80359238
-0.10119206 -0.2152113 0.80902022
-0.099010356 -0.21667483 0.81452197
-0.096798763 -0.21815839 0.82009894
-0.094556667 -0.21966241 0.82575279
-0.09228345 -0.22118731 0.83148521
-0.21619819 -0.20782922 0.79175645
-0.21314086 -0.20756856 0.79076338
-0.21009119 -0.20730852 0.78977275
-0.20704916 -0.20704916 0.78878468
-0.20401473 -0.20679045 0.78779906
-0.20098788 -0.20653237 0.78681588
-0.19796856 -0.20627493 0.78583515
-0.19495678 -0.20601815 0.78485692
-0.19195327 -0.20576286 0.78388435
-0.1889565 -0.20550743 0.78291124
-0.18596727 -0.20525277 0.78194106
-0.18298545 -0.20499875 0.78097332
-0.180011 -0.20474535 0.78000796
-0.17704403 -0.20449272 0.77904552
-0.17408362 -0.20423983 0.77808213
-0.17113104 -0.20398821 0.77712351
-0.16818574 -0.2037372 0.77616727
-0.16524768 -0.2034868 0.77521336
-0.16231699 -0.20323724 0.77426261
-0.15939327 -0.202988 0.77331311
-0.15647684 -0.20273957 0.77236664
-0.15356745 -0.20249158 0.77142191
-0.15066515 -0.20224421 0.7704795
-0.14776994 -0.20199744 0.76953942
-0.14488177 -0.20175126 0.76860154
-0.14200065 -0.20150569 0.76766598
-0.13912633 -0.20126042 0.76673162
-0.13625927 -0.20101616 0.76580107
-0.13339904 -0.20077229 0.76487201
-0.13054582 -0.20052914 0.7639457
-0.12769949 -0.20028657 0.76302159
-0.12486004 -0.20004457 0.76209968
-0.12202745 -0.19980319 0.76118004
-0.11944491 -0.19996957 0.76181394
-0.11750837 -0.20124997 0.7666918
-0.11554687 -0.20254686 0.77163249
-0.11355992 -0.20386058 0.77663732
-0.11154703 -0.20519145 0.78170747
-0.10950767 -0.20653978 0.78684413
-0.10744134 -0.20790596 0.79204881
-0.10534743 -0.20929024 0.79732239
-0.10322548 -0.21069309 0.80266678
-0.10107484 -0.2121148 0.808083
-0.098894864 -0.21355559 0.81357187
-0.096685089 -0.2150161 0.8191359
-0.094444863 -0.21649668 0.82477641
-0.092173576 -0.21799782 0.83049524
-0.21653987 -0.20536363 0.79300779
-0.21347731 -0.20510565 0.79201162
-0.21042243 -0.20484832 0.79101795
-0.20737518 -0.20459163 0.79002672
-0.20433559 -0.20433559 0.789038
-0.20130357 -0.20408016 0.78805172
-0.19827913 -0.2038254 0.78706795
-0.19526222 -0.20357125 0.78608656
-0.19225356 -0.20331851 0.78511059
-0.1892518 -0.2030658 0.78413475
-0.18625754 -0.20281377 0.78316158
-0.18327072 -0.20256238 0.7821908
-0.18029127 -0.20231158 0.78122234
-0.1773189 -0.20206107 0.78025502
-0.17435402 -0.20181133 0.77929068
-0.17139654 -0.20156233 0.77832913
-0.16844635 -0.20131391 0.77736992
-0.1655034 -0.20106612 0.77641302
-0.16256772 -0.20081894 0.77545857
-0.15963939 -0.20057258 0.77450722
-0.15671813 -0.20032667 0.77355766
-0.15380394 -0.20008124 0.77260995
-0.15089689 -0.19983643 0.77166462
-0.14799695 -0.19959222 0.77072161
-0.1451041 -0.19934861 0.76978093
-0.14221828 -0.19910558 0.76884246
-0.13933948 -0.19886315 0.76790631
-0.13646753 -0.19862105 0.76697147
-0.13360274 -0.19837983 0.76603997
-0.1307449 -0.19813918 0.76511073
-0.127894 -0.19789913 0.76418376
-0.12504999 -0.19765966 0.76325905
-0.12221287 -0.19742079 0.76233667
-0.11938259 -0.19718248 0.76141644
-0.11737918 -0.19833034 0.76584888
-0.11541902 -0.19960701 0.77077872
-0.11343344 -0.2009002 0.77577233
-0.11142199 -0.20221029 0.78083122
-0.10938412 -0.20353754 0.78595638
-0.1073193 -0.20488229 0.79114914
-0.10522699 -0.2062449 0.7964108
-0.10310666 -0.20762573 0.80174285
-0.10095773 -0.20902516 0.80714673
-0.098779649 -0.21044359 0.81262398
-0.096571684 -0.21188115 0.81817508
-0.094333321 -0.21333843 0.82380235
-0.092063963 -0.21481593 0.82950765
-0.21381484 -0.20263498 0.79326385
-0.21075469 -0.20238034 0.79226702
-0.20770225 -0.20212634 0.7912727
-0.20465744 -0.20187297 0.79028082
-0.20162024 -0.20162024 0.78929144
-0.19859065 -0.20136814 0.78830451
-0.19556864 -0.20111668 0.78732014
-0.19255474 -0.20086645 0.78634053
-0.189548 -0.20061649 0.78536201
-0.18654871 -0.20036714 0.78438586
-0.18355685 -0.20011838 0.78341204
-0.18057244 -0.19987024 0.78244066
-0.17759527 -0.19962259 0.78147113
-0.17462523 -0.19937526 0.78050292
-0.17166287 -0.19912893 0.77953857
-0.16870776 -0.19888312 0.77857631
-0.16575994 -0.19863795 0.7776165
-0.16281937 -0.19839336 0.77665901
-0.15988617 -0.19814952 0.77570444
-0.15696003 -0.19790612 0.7747516
-0.15404116 -0.19766344 0.77380157
-0.15112935 -0.19742122 0.77285337
-0.14822467 -0.1971796 0.77190745
-0.14532708 -0.19693856 0.77096385
-0.14243656 -0.19669811 0.77002257
-0.1395531 -0.19645825 0.76908356
-0.13667665 -0.19621897 0.76814681
-0.13380708 -0.19598007 0.76721162
-0.13094459 -0.19574191 0.76627928
-0.1280891 -0.19550441 0.76534951
-0.12524053 -0.1952675 0.76442206
-0.12239885 -0.19503115 0.76349682
-0.11956405 -0.19479536 0.76257378
-0.11725027 -0.19541712 0.76500779
-0.11529145 -0.19667365 0.76992679
-0.11330727 -0.19794644 0.77490944
-0.11129723 -0.19923578 0.77995688
-0.10926085 -0.20054206 0.78507066
-0.10719754 -0.20186549 0.79025155
-0.1051068 -0.20320648 0.79550117
-0.10298811 -0.20456542 0.80082107
-0.10084088 -0.20594265 0.80621254
-0.098664537 -0.20733853 0.81167704
-0.096458502 -0.20875348 0.81721622
-0.094222032 -0.21018761 0.8228305
-0.091954604 -0.21164155 0.82852226
-0.089655578 -0.21311572 0.83429331
-0.21415344 -0.20015648 0.79452008
-0.21108802 -0.19990455 0.79352003
-0.20803031 -0.19965325 0.79252255
-0.2049803 -0.1994026 0.79152757
-0.20193791 -0.19915256 0.79053503
-0.19890317 -0.19890317 0.78954506
-0.19587602 -0.1986544 0.78855759
-0.19285689 -0.19840673 0.78757447
-0.18984516 -0.19815955 0.78659326
-0.18684079 -0.19791284 0.78561395
-0.18384388 -0.19766673 0.78463703
-0.18085445 -0.19742127 0.78366268
-0.1778724 -0.1971764 0.78269064
-0.17489758 -0.19693193 0.78172022
-0.17193 -0.19668792 0.78075165
-0.16896997 -0.19644476 0.77978647
-0.16601725 -0.1962022 0.77882361
-0.16307181 -0.19596024 0.77786314
-0.16013364 -0.1957189 0.77690512
-0.15720294 -0.19547844 0.77595061
-0.15427913 -0.19523819 0.77499694
-0.15136252 -0.19499856 0.77404577
-0.14845307 -0.19475953 0.77309692
-0.14555074 -0.19452108 0.7721504
-0.14265551 -0.19428322 0.7712062
-0.13976736 -0.19404596 0.77026439
-0.13688625 -0.19380924 0.76932478
-0.13401215 -0.19357312 0.76838744
-0.13114497 -0.19333743 0.76745188
-0.1282848 -0.19310239 0.76651889
-0.12543166 -0.19286802 0.76558858
-0.12258541 -0.19263421 0.76466048
-0.11974605 -0.19240096 0.76373458
-0.11712165 -0.19251031 0.76416862
-0.11516415 -0.19374676 0.7690767
-0.11318137 -0.19499923 0.77404839
-0.11117276 -0.19626796 0.77908462
-0.10913786 -0.19755334 0.7841869
-0.10707606 -0.19885553 0.78935599
-0.1049869 -0.20017502 0.79459369
-0.10286984 -0.20151216 0.79990143
-0.10072429 -0.20286722 0.80528039
-0.098549701 -0.20424068 0.81073231
-0.096345469 -0.20563287 0.81625855
-0.094110966 -0.20704412 0.82186055
-0.091845512 -0.20847473 0.82753932
-0.089548476 -0.20992513 0.83329666
-0.21449308 -0.1976701 0.79578018
-0.2114224 -0.19742091 0.79477704
-0.20835944 -0.19717236 0.79377639
-0.20530419 -0.19692442 0.79277825
-0.20225662 -0.19667712 0.79178268
-0.19921666 -0.19643041 0.79078948
-0.19618438 -0.19618438 0.78979897
-0.19316 -0.19593929 0.78881228
-0.19014323 -0.19569485 0.78782827
-0.18713377 -0.19545083 0.78684586
-0.18413185 -0.19520743 0.78586602
-0.18113735 -0.19496463 0.78488851
-0.1781503 -0.19472241 0.78391343
-0.17517081 -0.19448099 0.78294146
-0.17219797 -0.19423932 0.78196853
-0.16923301 -0.19399881 0.78100032
-0.16627537 -0.19375889 0.78003448
-0.16332504 -0.19351959 0.77907109
-0.160382 -0.19328088 0.77811009
-0.15744624 -0.19304277 0.77715153
-0.15451771 -0.19280528 0.77619541
-0.15159643 -0.19256844 0.77524191
-0.14868219 -0.19233201 0.77429014
-0.14577511 -0.19209617 0.7733407
-0.14287513 -0.1918609 0.77239352
-0.13998227 -0.19162622 0.77144873
-0.13709648 -0.19139211 0.77050626
-0.13421771 -0.19115856 0.76956606
-0.13134597 -0.1909256 0.76862818
-0.12848122 -0.19069317 0.76769251
-0.12562333 -0.19046119 0.76675856
-0.12277253 -0.19022997 0.76582772
-0.11992864 -0.1899993 0.76489908
-0.11709162 -0.18976916 0.76397264
-0.11503715 -0.19082634 0.76822859
-0.11305573 -0.19205852 0.77318913
-0.11104856 -0.19330676 0.77821428
-0.10901511 -0.19457129 0.78330499
-0.10695485 -0.19585238 0.78846246
-0.10486727 -0.19715047 0.7936883
-0.10275184 -0.19846587 0.79898381
-0.10060798 -0.19979894 0.8043505
-0.098435134 -0.20115004 0.80978978
-0.096232697 -0.20251955 0.81530315
-0.094000071 -0.20390785 0.8208921
-0.091736615 -0.20531528 0.82655817
-0.089441627 -0.20674212 0.83230233
-0.21175784 -0.19492941 0.79603803
-0.20868962 -0.1946836 0.79503423
-0.2056291 -0.1944384 0.79403287
-0.20257629 -0.19419383 0.79303414
-0.19953117 -0.19394988 0.7920379
-0.1964937 -0.19370656 0.79104424
-0.19346415 -0.19346415 0.79005432
-0.19044223 -0.19322242 0.78906715
-0.18742768 -0.19298111 0.78808171
-0.18442066 -0.1927404 0.78709871
-0.18142113 -0.19250028 0.78611815
-0.17842907 -0.19226077 0.7851401
-0.1754442 -0.19202159 0.78416336
-0.1724668 -0.19178307 0.7831893
-0.16949686 -0.19154525 0.78221804
-0.1665343 -0.19130801 0.78124923
-0.16357906 -0.19107135 0.7802828
-0.16063114 -0.19083528 0.77931875
-0.15769048 -0.1905998 0.77835709
-0.15475738 -0.19036527 0.77739936
-0.15183105 -0.19013076 0.77644169
-0.14891203 -0.18989699 0.77548701
-0.14600018 -0.18966377 0.77453464
-0.14309546 -0.18943113 0.7735846
-0.14019786 -0.18919905 0.77263683
-0.13730736 -0.18896754 0.77169144
-0.13442391 -0.18873662 0.77074838
-0.13154753 -0.18850625 0.76980764
-0.12867813 -0.18827643 0.7688691
-0.12581581 -0.18804729 0.76793337
-0.12296022 -0.18781836 0.76699847
-0.12011175 -0.18759026 0.76606697
-0.11727019 -0.18736272 0.76513773
-0.11491042 -0.18791234 0.76738226
-0.11293038 -0.18912438 0.77233189
-0.11092464 -0.19035216 0.77734584
-0.10889267 -0.19159596 0.78242517
-0.10683391 -0.19285601 0.78757089
-0.10474791 -0.19413279 0.79278487
-0.10263412 -0.1954266 0.79806846
-0.10049193 -0.19673774 0.80342275
-0.098320827 -0.19806659 0.80884945
-0.096120186 -0.19941352 0.81434995
-0.093889415 -0.2007789 0.81992579
-0.091627873 -0.20216309 0.82557839
-0.089334942 -0.20356652 0.83130962
-0.087009914 -0.20498946 0.83712053
-0.21209437 -0.19242999 0.79730308
-0.20902082 -0.19218692 0.796296
-0.20595504 -0.19194449 0.79529154
-0.202897 -0.19170268 0.79428959
-0.19984664 -0.19146147 0.7932902
-0.19680399 -0.19122089 0.79229343
-0.19376937 -0.19098133 0.79130077
-0.19074219 -0.19074219 0.79030997
-0.18772255 -0.19050361 0.78932148
-0.18471041 -0.19026561 0.78833532
-0.1817058 -0.19002821 0.78735167
-0.1787087 -0.18979141 0.78637058
-0.17571895 -0.18955508 0.78539139
-0.17273645 -0.18931915 0.78441381
-0.16976155 -0.18908399 0.78343952
-0.16679403 -0.18884943 0.78246766
-0.16383387 -0.18861546 0.78149819
-0.16088103 -0.18838206 0.78053117
-0.1579355 -0.18814924 0.77956653
-0.15499723 -0.18791699 0.77860421
-0.15206629 -0.18768543 0.77764475
-0.14914255 -0.18745439 0.7766875
-0.14622593 -0.18722385 0.77573228
-0.14331645 -0.18699384 0.77477926
-0.1404141 -0.1867644 0.77382863
-0.1375189 -0.18653552 0.77288032
-0.13463075 -0.18630721 0.77193433
-0.13174969 -0.18607946 0.77099067
-0.12887564 -0.18585224 0.77004927
-0.12600861 -0.1856256 0.7691102
-0.12314867 -0.18539965 0.76817399
-0.12029543 -0.18517387 0.7672385
-0.11744931 -0.18494892 0.76630646
-0.11478397 -0.18500474 0.76653779
-0.11280531 -0.18619673 0.77147657
-0.11080099 -0.18740414 0.7764793
-0.10877047 -0.18862727 0.78154713
-0.10671326 -0.18986645 0.78668147
-0.10462883 -0.191122 0.79188365
-0.10251664 -0.19239426 0.79715502
-0.10037616 -0.19368358 0.80249715
-0.098206788 -0.19499029 0.80791128
-0.096007943 -0.19631474 0.81339896
-0.09377902 -0.19765732 0.81896168
-0.0915194 -0.19901839 0.82460105
-0.089228451 -0.20039833 0.83031863
-0.08701326 -0.20204774 0.83715272
-0.2093531 -0.18968233 0.79756188
-0.20628202 -0.18944268 0.79655415
-0.20321871 -0.18920363 0.79554904
-0.20016311 -0.18896519 0.79454643
-0.19711529 -0.18872739 0.79354662
-0.1940755 -0.1884906 0.79255092
-0.19104309 -0.18825415 0.79155672
-0.18801831 -0.18801831 0.79056507
-0.18500108 -0.18778305 0.78957587
-0.1819914 -0.18754838 0.78858918
-0.1789892 -0.18731429 0.78760487
-0.17599452 -0.18708079 0.78662306
-0.17300692 -0.18684748 0.78564209
-0.17002706 -0.18661506 0.78466487
-0.16705458 -0.18638322 0.78368998
-0.16408949 -0.18615194 0.78271753
-0.16113172 -0.18592122 0.7817474
-0.15818129 -0.18569109 0.78077978
-0.15523815 -0.18546152 0.77981448
-0.15230267 -0.18523298 0.77885354
-0.1493738 -0.18500425 0.77789181
-0.14645235 -0.18477634 0.77693349
-0.14353812 -0.184549 0.77597761
-0.14063102 -0.18432221 0.775024
-0.13773106 -0.18409598 0.77407277
-0.13483822 -0.18387032 0.77312392
-0.13195246 -0.18364519 0.77217734
-0.12907377 -0.18342061 0.77123308
-0.12620209 -0.18319659 0.77029109
-0.12333743 -0.18297312 0.76935142
-0.12047973 -0.18275014 0.7684139
-0.11762898 -0.18252772 0.7674787
-0.1147852 -0.1823059 0.76654601
-0.11268053 -0.18327557 0.77062315
-0.11067763 -0.18446271 0.7756148
-0.10864858 -0.18566529 0.7806713
-0.10659288 -0.18688361 0.78579402
-0.10451001 -0.18811801 0.79098433
-0.10239946 -0.18936886 0.79624379
-0.10026065 -0.19063644 0.80157363
-0.098092996 -0.19192109 0.80697519
-0.095895953 -0.19322319 0.81245017
-0.093668893 -0.19454308 0.81799996
-0.091579325 -0.19624141 0.82514095
-0.08960899 -0.19831498 0.83385974
-0.20968641 -0.18716976 0.7988317
-0.20661004 -0.18693289 0.79782081
-0.20354146 -0.18669663 0.79681247
-0.20048061 -0.18646099 0.79580671
-0.19742754 -0.18622598 0.79480374
-0.19438253 -0.18599193 0.79380476
-0.19134496 -0.18575825 0.79280746
-0.188315 -0.18552515 0.7918126
-0.18529263 -0.18529263 0.79082024
-0.18227786 -0.18506072 0.78983045
-0.1792706 -0.18482938 0.7888431
-0.17627087 -0.18459862 0.78785825
-0.17327857 -0.1843684 0.78687567
-0.17029339 -0.18413839 0.78589398
-0.16731595 -0.18390925 0.78491604
-0.16434589 -0.1836807 0.78394055
-0.1613832 -0.1834527 0.78296745
-0.15842785 -0.18322524 0.78199673
-0.15547982 -0.18299837 0.78102845
-0.15253909 -0.18277206 0.78006256
-0.14960571 -0.18254641 0.77909946
-0.14667952 -0.18232127 0.77813858
-0.14376047 -0.1820966 0.77717972
-0.14084861 -0.18187247 0.77622312
-0.13794391 -0.18164891 0.77526897
-0.13504633 -0.18142588 0.77431715
-0.13215588 -0.18120341 0.77336764
-0.12927248 -0.18098147 0.77242041
-0.12639615 -0.18076009 0.77147555
-0.12352686 -0.18053925 0.77053303
-0.12066457 -0.18031895 0.76959282
-0.11780919 -0.18009911 0.76865453
-0.11496084 -0.1798799 0.76771897
-0.112556 -0.18036082 0.76977152
-0.11055454 -0.18152782 0.7747522
-0.10852693 -0.1827099 0.77979726
-0.10647275 -0.18390748 0.78490847
-0.10439147 -0.18512087 0.79008716
-0.10228252 -0.18635035 0.79533452
-0.1001454 -0.18759631 0.80065221
-0.097979493 -0.18885902 0.80604142
-0.096016198 -0.19059932 0.81346893
-0.094120242 -0.1925845 0.82194155
-0.092184372 -0.19461145 0.83059251
-0.090207174 -0.19668122 0.83942616
-0.21002081 -0.18464917 0.80010563
-0.2069391 -0.18441512 0.79909146
-0.20386523 -0.18418169 0.79807997
-0.20079909 -0.18394881 0.79707092
-0.19774081 -0.18371664 0.79606485
-0.19469054 -0.18348533 0.7950626
-0.19164778 -0.18325445 0.79406214
-0.18861264 -0.18302412 0.79306412
-0.18558516 -0.18279441 0.79206872
-0.18256524 -0.18256524 0.79107571
-0.1795529 -0.18233666 0.79008526
-0.17654808 -0.18210864 0.78909725
-0.1735507 -0.18188113 0.78811139
-0.17056057 -0.18165395 0.78712696
-0.1675781 -0.18142754 0.78614593
-0.1646031 -0.18120173 0.78516746
-0.16163546 -0.18097645 0.78419131
-0.15867519 -0.18075174 0.78321761
-0.15572226 -0.18052757 0.78224629
-0.15277664 -0.18030396 0.78127736
-0.14983866 -0.18008131 0.7803126
-0.14690737 -0.17985857 0.77934742
-0.14398351 -0.17963658 0.77838552
-0.14106686 -0.17941514 0.777426
-0.1381574 -0.17919426 0.77646887
-0.1352551 -0.17897391 0.77551413
-0.13235991 -0.17875411 0.77456164
-0.12947182 -0.17853484 0.77361155
-0.12659083 -0.17831612 0.77266377
-0.12371687 -0.1780979 0.77171826
-0.12084994 -0.17788026 0.77077514
-0.11799002 -0.17766313 0.76983434
-0.11513704 -0.1774465 0.76889563
-0.11243176 -0.17745255 0.76892185
-0.1104317 -0.17859942 0.77389139
-0.10840558 -0.17976114 0.77892524
-0.10635291 -0.18093807 0.78402501
-0.10427318 -0.18213049 0.7891919
-0.10216587 -0.18333876 0.79442745
-0.1003293 -0.18511464 0.80212253
-0.09850435 -0.1870155 0.81035924
-0.096641533 -0.18895583 0.81876689
-0.094739646 -0.19093682 0.82735074
-0.092797332 -0.19295953 0.83611536
-0.20726922 -0.18188933 0.80036622
-0.20419002 -0.1816587 0.79935145
-0.2011186 -0.18142867 0.79833925
-0.19805506 -0.18119931 0.79732996
-0.19499953 -0.18097079 0.79632443
-0.19195154 -0.1807427 0.79532075
-0.18891124 -0.18051518 0.79431963
-0.18587857 -0.18028824 0.79332101
-0.18285351 -0.18006186 0.79232484
-0.17983606 -0.17983606 0.79133129
-0.17682615 -0.17961082 0.79034013
-0.1738237 -0.17938605 0.78935111
-0.1708286 -0.1791617 0.78836387
-0.16784112 -0.17893806 0.7873798
-0.16486108 -0.17871496 0.78639811
-0.16188848 -0.17849243 0.78541893
-0.15892328 -0.17827046 0.78444219
-0.15596543 -0.17804903 0.78346783
-0.15301493 -0.17782816 0.78249592
-0.15007173 -0.17760782 0.78152639
-0.14713587 -0.1773881 0.78055954
-0.14420725 -0.17716892 0.77959508
-0.14128582 -0.1769502 0.77863264
-0.13837157 -0.176732 0.77767253
-0.13546449 -0.17651434 0.77671474
-0.13256457 -0.17629722 0.77575934
-0.12967178 -0.17608064 0.77480632
-0.1267861 -0.17586459 0.77385563
-0.12390748 -0.17564906 0.77290726
-0.1210359 -0.17543405 0.77196115
-0.11817135 -0.17521958 0.77101743
-0.1153138 -0.17500564 0.77007604
-0.11246319 -0.1747922 0.76913679
-0.11030915 -0.17567754 0.77303255
-0.10828449 -0.17681897 0.77805519
-0.10624599 -0.17799653 0.7832368
-0.10452374 -0.17978084 0.79108828
-0.10276663 -0.1816013 0.79909885
-0.10097356 -0.183459 0.80727327
-0.099143416 -0.18535508 0.81561661
-0.097275048 -0.18729077 0.82413417
-0.095367141 -0.1892671 0.83283061
-0.093418449 -0.1912854 0.8417117
-0.20760038 -0.17935543 0.80164498
-0.20451586 -0.17912769 0.80062705
-0.20143913 -0.1789005 0.79961157
-0.19837031 -0.17867397 0.79859912
-0.19530949 -0.17844824 0.7975902
-0.19225627 -0.17822297 0.79658335
-0.18921077 -0.17799829 0.79557908
-0.18617292 -0.17777413 0.79457724
-0.18314272 -0.17755058 0.79357803
-0.18012013 -0.17732757 0.79258126
-0.17710511 -0.17710511 0.791587
-0.17409766 -0.17688322 0.79059523
-0.17109744 -0.1766616 0.7896046
-0.16810495 -0.17644073 0.78861743
-0.16511992 -0.1762204 0.7876327
-0.16214232 -0.17600064 0.78665042
-0.15917215 -0.17578141 0.78567058
-0.15620936 -0.17556274 0.78469318
-0.15325397 -0.17534463 0.78371835
-0.15030588 -0.17512703 0.78274578
-0.1473653 -0.17491022 0.78177667
-0.1444317 -0.17469357 0.78080839
-0.14150542 -0.17447756 0.77984291
-0.13858639 -0.17426209 0.77887982
-0.13567454 -0.17404713 0.77791905
-0.13276987 -0.17383271 0.77696073
-0.12987235 -0.17361884 0.77600473
-0.12698197 -0.17340548 0.77505118
-0.12409867 -0.17319264 0.77409983
-0.12122243 -0.17298032 0.77315086
-0.11835324 -0.17276853 0.77220422
-0.11549106 -0.17255723 0.77125984
-0.11263589 -0.17234649 0.77031785
-0.11026349 -0.17288226 0.77271259
-0.10860435 -0.17459179 0.78035349
-0.10691205 -0.17633547 0.78814697
-0.10518563 -0.17811432 0.79609776
-0.10342401 -0.17992945 0.8042106
-0.10162612 -0.18178193 0.81249046
-0.099790826 -0.18367296 0.82094258
-0.097916842 -0.18560356 0.82957155
-0.096002929 -0.18757495 0.83838284
-0.094047934 -0.1895887 0.84738344
-0.20793264 -0.17681347 0.80292797
-0.20484273 -0.17658857 0.80190665
-0.20176069 -0.17636424 0.800888
-0.19868657 -0.17614058 0.79987228
-0.19562045 -0.17591767 0.79886007
-0.19256198 -0.17569524 0.79785001
-0.18951125 -0.17547338 0.79684252
-0.1864682 -0.17525208 0.79583752
-0.18343285 -0.17503133 0.79483515
-0.18040508 -0.17481112 0.79383516
-0.17738497 -0.17459151 0.79283786
-0.1743724 -0.1743724 0.79184288
-0.17136723 -0.17415369 0.79084963
-0.16836961 -0.17393555 0.78985906
-0.16537955 -0.17371802 0.78887123
-0.16239697 -0.17350103 0.78788584
-0.1594218 -0.17328458 0.7869029
-0.15645407 -0.17306867 0.78592247
-0.15349373 -0.17285331 0.78494447
-0.15054074 -0.17263846 0.78396887
-0.14759508 -0.17242417 0.7829957
-0.14465678 -0.17221045 0.78202522
-0.14172573 -0.17199723 0.781057
-0.13880187 -0.17178451 0.78009093
-0.13588525 -0.17157228 0.77912724
-0.13297582 -0.17136058 0.77816588
-0.13007355 -0.1711494 0.7772069
-0.12717843 -0.17093876 0.7762503
-0.12429044 -0.17072862 0.77529609
-0.12140953 -0.17051899 0.77434415
-0.11853568 -0.1703099 0.77339458
-0.11566889 -0.17010131 0.77244741
-0.1128091 -0.16989322 0.77150244
-0.11094541 -0.17121206 0.77749139
-0.10928269 -0.17291564 0.78522754
-0.10758654 -0.17465349 0.79311925
-0.10585596 -0.1764266 0.80117118
-0.10408987 -0.17823608 0.80938822
-0.10228719 -0.18008308 0.81777561
-0.10044665 -0.18196857 0.82633781
-0.098567061 -0.18389377 0.83508033
-0.096647255 -0.18586011 0.8440097
-0.20517066 -0.17404132 0.80319041
-0.20208326 -0.17381987 0.80216843
-0.19900385 -0.17359911 0.80114961
-0.19593239 -0.17337902 0.80013394
-0.19286868 -0.17315947 0.79912072
-0.18981269 -0.17294045 0.79810995
-0.18676445 -0.17272201 0.79710186
-0.18372387 -0.1725041 0.79609621
-0.18069096 -0.17228672 0.79509306
-0.17766571 -0.17206994 0.7940926
-0.17464803 -0.17185366 0.79309452
-0.17163806 -0.17163806 0.79209948
-0.1686351 -0.17142245 0.7911045
-0.16564 -0.17120773 0.79011357
-0.16265239 -0.17099354 0.78912508
-0.15967225 -0.17077987 0.78813905
-0.15669954 -0.17056675 0.78715551
-0.15373425 -0.17035417 0.78617448
-0.15077634 -0.17014211 0.78519583
-0.14782579 -0.16993059 0.78421962
-0.14488263 -0.16971965 0.78324616
-0.14194673 -0.1695092 0.78227496
-0.13901804 -0.16929922 0.78130585
-0.13609661 -0.16908973 0.78033912
-0.13318239 -0.16888078 0.77937478
-0.13027537 -0.16867232 0.77841282
-0.12737551 -0.16846439 0.77745324
-0.12448281 -0.16825698 0.77649605
-0.12159721 -0.16805008 0.77554119
-0.11871871 -0.16784368 0.7745887
-0.11584725 -0.16763778 0.77363849
-0.11326937 -0.16785702 0.77465022
-0.11163582 -0.16952106 0.78232968
-0.10996956 -0.17121843 0.79016292
-0.10826959 -0.17295012 0.79815459
-0.10653488 -0.1747172 0.80630958
-0.10476436 -0.17652078 0.81463295
-0.10295682 -0.17836182 0.82312924
-0.10111105 -0.18024144 0.83180362
-0.099225968 -0.18216111 0.84066278
-0.097300291 -0.18412209 0.84971255
-0.20549962 -0.1714859 0.80447823
-0.20240688 -0.17126736 0.80345303
-0.19932212 -0.17104949 0.80243093
-0.19624533 -0.17083228 0.80141193
-0.19317633 -0.17061558 0.80039543
-0.19011508 -0.17039944 0.79938143
-0.18706161 -0.17018387 0.79837012
-0.18401583 -0.16996881 0.79736125
-0.18097775 -0.16975431 0.79635501
-0.17794731 -0.16954036 0.79535127
-0.17492451 -0.16932693 0.79435003
-0.17190923 -0.16911395 0.79335093
-0.16890144 -0.16890144 0.79235399
-0.16590129 -0.16868953 0.7913599
-0.16290864 -0.16847816 0.79036832
-0.15992348 -0.16826732 0.78937918
-0.15694579 -0.16805701 0.78839254
-0.15397555 -0.16784722 0.78740835
-0.1510127 -0.16763794 0.78642666
-0.14805724 -0.16742921 0.78544742
-0.14510912 -0.16722098 0.78447056
-0.14216836 -0.16701332 0.78349638
-0.13923487 -0.16680615 0.78252447
-0.13630861 -0.16659942 0.7815547
-0.13338962 -0.16639324 0.78058743
-0.13047783 -0.16618754 0.7796225
-0.12757322 -0.16598237 0.77865994
-0.12467578 -0.16577768 0.77769977
-0.12178548 -0.16557351 0.77674192
-0.11890228 -0.16536984 0.77578646
-0.11602618 -0.16516668 0.77483338
-0.11397164 -0.16615143 0.7794531
-0.11233487 -0.16780888 0.78722852
-0.11066511 -0.16949973 0.79516065
-0.10896137 -0.171225 0.80325431
-0.10722257 -0.17298575 0.81151438
-0.10544758 -0.17478296 0.81994551
-0.10363516 -0.17661768 0.82855254
-0.1017843 -0.17849131 0.8373422
-0.099893741 -0.18040511 0.84632027
-0.20273152 -0.16870664 0.80474168
-0.19964139 -0.16849168 0.80371624
-0.19655927 -0.16827737 0.80269396
-0.19348496 -0.16806358 0.80167419
-0.19041847 -0.16785035 0.80065709
-0.18735972 -0.16763765 0.79964244
-0.18430871 -0.16742547 0.79863036
-0.18126544 -0.16721386 0.79762095
-0.17822982 -0.16700275 0.79661399
-0.17520189 -0.1667922 0.79560965
-0.17218156 -0.16658217 0.79460776
-0.16916862 -0.16637243 0.79360735
-0.16616337 -0.16616337 0.79261011
-0.16316567 -0.16595484 0.79161537
-0.1601755 -0.16574682 0.79062313
-0.15719281 -0.16553934 0.78963339
-0.15421757 -0.16533236 0.7886461
-0.15124978 -0.16512591 0.78766131
-0.14828938 -0.16491997 0.78667897
-0.14533636 -0.16471455 0.78569907
-0.14239068 -0.16450962 0.78472161
-0.1394524 -0.1643053 0.78374696
-0.13652131 -0.16410138 0.78277421
-0.13359748 -0.16389795 0.78180385
-0.13068089 -0.16369501 0.78083587
-0.12777153 -0.16349261 0.77987033
-0.12486934 -0.16329066 0.77890712
-0.12197433 -0.16308926 0.77794641
-0.11908643 -0.16288833 0.77698797
-0.11629035 -0.16280648 0.7765975
-0.11468267 -0.16442455 0.78431582
-0.11304272 -0.16607511 0.79218906
-0.11136952 -0.16775915 0.80022204
