# .PCD v0.7 - Point Cloud Data file format
VERSION 0.7
FIELDS x y z
SIZE 4 4 4
TYPE F F F
COUNT 1 1 1
WIDTH 1418
HEIGHT 1
VIEWPOINT 0 0 0 1 0 0 0
POINTS 1418
DATA ascii
0.16848925 -0.25198832 0.84637922
0.17159113 -0.25216436 0.84697044
0.17469704 -0.25234017 0.847561
0.17780654 -0.25251517 0.84814876
0.18092096 -0.25269127 0.84874022
0.18403971 -0.25286758 0.84933239
0.18716283 -0.25304413 0.84992546
0.19029029 -0.25322095 0.8505193
0.19342215 -0.253398 0.85111403
0.19752754 -0.25482559 0.85590905
0.11900682 -0.2581057 0.87730861
0.12120298 -0.2562139 0.87087834
0.12336715 -0.25434956 0.86454135
0.12550005 -0.25251216 0.85829598
0.12760235 -0.2507011 0.85214013
0.1298245 -0.24920335 0.8470493
0.13243636 -0.24850419 0.8446728
0.13503362 -0.24780895 0.84230965
0.13799128 -0.24779078 0.8422479
0.14105643 -0.24796237 0.84283113
0.14412583 -0.24813417 0.84341508
0.14719948 -0.2483062 0.8439998
0.15027742 -0.2484785 0.84458548
0.15335961 -0.24865101 0.84517187
0.1564461 -0.24882379 0.84575915
0.15953687 -0.24899679 0.84634715
0.16263193 -0.24917002 0.84693599
0.16573133 -0.24934353 0.84752572
0.16883457 -0.24951656 0.84811389
0.17194273 -0.24969076 0.84870595
0.17505483 -0.24986461 0.84929687
0.17817137 -0.2500388 0.84988898
0.18129243 -0.25021353 0.85048288
0.18441784 -0.25038844 0.85107744
0.18754767 -0.25056368 0.85167307
0.19068183 -0.2507391 0.85226929
0.1938204 -0.25091478 0.85286647
0.19696338 -0.25109074 0.85346448
0.20011076 -0.2512669 0.85406333
0.20401052 -0.25236857 0.85780793
0.11874061 -0.25444415 0.87534612
0.12093383 -0.25258332 0.86894441
0.12309518 -0.25074944 0.86263543
0.12522537 -0.248942 0.85641742
0.12732507 -0.24716043 0.85028845
0.12939495 -0.24540421 0.84424663
0.13214208 -0.24498253 0.84279591
0.13520521 -0.24515231 0.84338003
0.13827255 -0.24532229 0.84396476
0.14134414 -0.24549247 0.84455025
0.14442003 -0.24566294 0.8451367
0.14750017 -0.24583362 0.84572387
0.15058461 -0.24600455 0.84631193
0.15367332 -0.24617569 0.8469007
0.15676633 -0.24634708 0.84749031
0.15986367 -0.24651873 0.84808081
0.1629653 -0.24669059 0.84867203
0.16607128 -0.24686271 0.8492642
0.16918167 -0.24703519 0.84985757
0.17229578 -0.24720699 0.85044855
0.17541514 -0.24738032 0.85104489
0.1785382 -0.24755298 0.85163885
0.18166544 -0.24772559 0.85223269
0.18479757 -0.24789917 0.85282987
0.18793407 -0.24807297 0.85342777
0.19107498 -0.24824703 0.85402656
0.1942203 -0.24842133 0.85462618
0.19737007 -0.24859588 0.8552267
0.20052455 -0.24877106 0.85582936
0.20368293 -0.24894582 0.85643053
0.11625283 -0.25265616 0.87985992
0.1184756 -0.250799 0.87339252
0.12066588 -0.24896884 0.86701906
0.1228244 -0.24716516 0.86073786
0.12495189 -0.24538745 0.85454708
0.12704898 -0.24363512 0.8484447
0.12934625 -0.24233837 0.84392887
0.13241151 -0.24250647 0.84451425
0.13548103 -0.24267481 0.84510052
0.13855487 -0.24284348 0.84568787
0.14163272 -0.24301194 0.8462745
0.144715 -0.24318089 0.84686285
0.14780192 -0.24335064 0.84745401
0.15089302 -0.24352042 0.84804529
0.15398829 -0.24369021 0.84863657
0.15708786 -0.2438602 0.84922856
0.16019179 -0.24403048 0.84982151
0.16330004 -0.24420096 0.85041523
0.16641219 -0.24437104 0.85100752
0.16952929 -0.24454226 0.85160375
0.17265028 -0.24471299 0.85219836
0.18317758 -0.25519609 0.88870513
0.17890629 -0.24505651 0.85339463
0.18203998 -0.24522741 0.85398978
0.18517883 -0.24539959 0.8545894
0.18832256 -0.24557263 0.85519195
0.19147047 -0.24574557 0.85579425
0.19462262 -0.24591851 0.8563965
0.19777854 -0.24609086 0.85699666
0.20093961 -0.24626434 0.85760081
0.20410512 -0.24643804 0.85820574
0.11599202 -0.24899621 0.877886
0.11821175 -0.24717002 0.87144738
0.1203991 -0.24537031 0.86510217
0.12255482 -0.24359663 0.85884869
0.1246796 -0.24184838 0.85268492
0.12677412 -0.2401251 0.84660912
0.12961033 -0.23985361 0.84565192
0.13268206 -0.24002035 0.84623981
0.13575804 -0.24018729 0.8468284
0.13883832 -0.24035451 0.84741795
0.14192264 -0.24052152 0.84800678
0.14501181 -0.24068969 0.84859973
0.14810486 -0.24085741 0.84919101
0.15120201 -0.24102497 0.84978181
0.15430389 -0.24119346 0.85037583
0.15740991 -0.24136186 0.85096955
0.16052075 -0.24153122 0.85156667
0.16363613 -0.24170108 0.85216558
0.18359381 -0.25263762 0.89072454
0.18487938 -0.25013092 0.88188666
0.18566726 -0.24704486 0.87100613
0.18556291 -0.24289128 0.85636187
0.1887127 -0.24306196 0.85696363
0.19186653 -0.24323237 0.85756445
0.19502579 -0.24340427 0.85817051
0.19818886 -0.24357562 0.8587746
0.2013568 -0.2437477 0.85938132
0.20452903 -0.24391982 0.85998815
0.20770577 -0.24409217 0.86059582
0.11348278 -0.24717481 0.88242614
0.11573238 -0.24535264 0.87592089
0.11794907 -0.24355717 0.86951095
0.1201335 -0.24178767 0.86319375
0.12228642 -0.24004371 0.85696775
0.1244085 -0.23832472 0.85083085
0.12680161 -0.2371936 0.8467927
0.12987551 -0.23735869 0.84738207
0.13295369 -0.23752399 0.84797221
0.13603617 -0.23768958 0.84856337
0.13912295 -0.23785536 0.84915519
0.14221402 -0.23802136 0.84974784
0.14530906 -0.23818702 0.85033923
0.14840902 -0.23835389 0.85093498
0.15151337 -0.23852104 0.85153174
0.15462168 -0.23868781 0.85212713
0.15773422 -0.23885468 0.85272282
0.16085103 -0.23902161 0.85331881
0.1819203 -0.2515246 0.89795506
0.18368219 -0.24961938 0.89115334
0.1852483 -0.24751663 0.88364643
0.18655545 -0.2451431 0.87517279
0.18740515 -0.24225545 0.86486375
0.18910325 -0.24053933 0.85873711
0.19226532 -0.24071012 0.85934687
0.19543059 -0.24087957 0.85995179
0.19860089 -0.24104993 0.86056
0.20177554 -0.24122038 0.8611685
0.2049547 -0.24139109 0.86177796
0.20813835 -0.24156202 0.86238819
0.11322745 -0.24351656 0.88044071
0.11547392 -0.2417254 0.87396473
0.11768755 -0.23996034 0.8675831
0.11986907 -0.2382208 0.86129373
0.12201919 -0.23650633 0.85509503
0.12413858 -0.23481634 0.84898484
0.12706138 -0.23468983 0.84852743
0.13014176 -0.23485354 0.84911931
0.13322644 -0.23501743 0.84971189
0.13631544 -0.23518157 0.85030532
0.13940875 -0.23534596 0.8508997
0.14250641 -0.23551057 0.85149485
0.14560837 -0.23567539 0.85209078
0.14871433 -0.23583992 0.85268557
0.15182486 -0.23600498 0.85328239
0.15494032 -0.23617117 0.85388327
0.15806001 -0.23633735 0.85448408
0.18164967 -0.24799129 0.8966192
0.18356474 -0.24632192 0.89058352
0.18531597 -0.24449249 0.88396919
0.18687847 -0.24247867 0.87668818
0.18818812 -0.2402076 0.86847705
0.18949699 -0.23800823 0.86052519
0.19266474 -0.23817609 0.86113209
0.19583744 -0.23834479 0.86174202
0.1990145 -0.23851356 0.86235219
0.20219606 -0.23868257 0.86296326
0.20538214 -0.23885183 0.86357522
0.20857276 -0.23902133 0.86418808
0.1106965 -0.24166137 0.8850072
0.11297325 -0.23987471 0.8784641
0.11521658 -0.23811427 0.87201709
0.11742719 -0.23637941 0.86566371
0.1196058 -0.23466961 0.85940212
0.12175312 -0.23298436 0.85323042
0.12423964 -0.23201379 0.84967601
0.12732223 -0.23217583 0.85026944
0.13040912 -0.23233809 0.85086364
0.13350032 -0.23250057 0.85145867
0.13659588 -0.2326633 0.85205466
0.13969575 -0.23282623 0.85265136
0.14279997 -0.23298942 0.85324895
0.14590855 -0.23315282 0.85384738
0.14902149 -0.23331648 0.85444671
0.15213867 -0.23348014 0.85504603
0.15525985 -0.23364346 0.85564417
0.15838625 -0.23380826 0.85624772
0.17906566 -0.24562103 0.89950818
0.1812377 -0.2442769 0.89458573
0.18327804 -0.24280424 0.88919258
0.18517679 -0.24119665 0.88330531
0.18691708 -0.23943923 0.87686932
0.18847792 -0.23751283 0.86981446
0.18989126 -0.23546517 0.8623156
0.19306637 -0.2356322 0.86292726
0.19624583 -0.23579927 0.8635391
0.19942984 -0.23596661 0.86415195
0.20261833 -0.23613416 0.86476552
0.20581138 -0.23630196 0.86538005
0.20900896 -0.23646998 0.86599541
0.10813919 -0.23978689 0.8896215
0.11044671 -0.23800488 0.88301015
0.11272021 -0.23624921 0.87649649
0.11496041 -0.23451923 0.87007821
0.11716798 -0.2328143 0.86375284
0.11934369 -0.23113398 0.85751879
0.12148821 -0.22947773 0.85137397
0.12449504 -0.22949085 0.85142267
0.12758413 -0.22965145 0.85201848
0.13067758 -0.22981229 0.85261524
0.13377534 -0.22997333 0.85321271
0.13687745 -0.23013462 0.85381109
0.13998392 -0.23029613 0.85441029
0.14309476 -0.23045789 0.85501039
0.14620997 -0.23061985 0.85561132
0.14932956 -0.23078203 0.85621303
0.15245353 -0.23094444 0.85681558
0.15558188 -0.23110706 0.85741889
0.15871392 -0.23126887 0.85801917
0.17599979 -0.24259432 0.90003717
0.17841612 -0.24157226 0.8962453
0.18070093 -0.2404108 0.89193624
0.1828552 -0.23911835 0.88714117
0.18487647 -0.23769832 0.88187277
0.18676059 -0.23615181 0.87613517
0.18849105 -0.23446448 0.86987507
0.19028729 -0.23291165 0.86411399
0.19346957 -0.23307751 0.86472934
0.19665597 -0.23324312 0.86534381
0.19984691 -0.23340897 0.86595911
0.20304239 -0.23357508 0.86657536
0.2062424 -0.23374139 0.86719239
0.209447 -0.23390797 0.86781037
0.1078939 -0.23611563 0.88760358
0.11019806 -0.23436488 0.88102221
0.1124683 -0.23263991 0.87453771
0.11470535 -0.23094012 0.86814785
0.11690991 -0.2292649 0.86185038
0.11908272 -0.22761381 0.85564363
0.12166016 -0.22679858 0.852579
0.12475149 -0.22695753 0.85317653
0.12784714 -0.22711669 0.85377485
0.13094714 -0.22727607 0.85437399
0.13405149 -0.22743566 0.85497397
0.13716021 -0.22759551 0.85557485
0.14027329 -0.22775556 0.8561765
0.14339076 -0.22791584 0.85677904
0.14651263 -0.22807635 0.85738242
0.14963891 -0.22823711 0.85798675
0.15276957 -0.22839807 0.85859179
0.15590465 -0.22855926 0.85919774
0.15904421 -0.22872071 0.85980469
0.16952825 -0.2392408 0.89935166
0.17241603 -0.23885156 0.89788848
0.17510873 -0.23821098 0.89548039
0.17764631 -0.23738578 0.89237833
0.18004161 -0.23640247 0.88868189
0.18230745 -0.23528568 0.8844837
0.1844428 -0.23404087 0.87980419
0.18644869 -0.23267566 0.87467206
0.18831807 -0.23118722 0.86907679
0.19068523 -0.23034777 0.86592108
0.19387339 -0.23051089 0.86653429
0.19706781 -0.23067628 0.86715603
0.20026572 -0.23084064 0.86777389
0.20346819 -0.23100524 0.86839265
0.20667526 -0.2311701 0.86901242
0.20988688 -0.23133518 0.86963296
0.21310309 -0.23150048 0.87025434
0.10531437 -0.23420659 0.89224494
0.10764972 -0.23246099 0.88559484
0.10995051 -0.2307412 0.87904304
0.11221751 -0.22904669 0.87258756
0.11445142 -0.22737683 0.86622596
0.11665298 -0.22573109 0.85995626
0.11882289 -0.22410901 0.85377669
0.12191112 -0.22425626 0.85433769
0.12500899 -0.22441374 0.85493761
0.12811121 -0.22457142 0.85553837
0.13121782 -0.22472937 0.85614008
0.13432878 -0.22488752 0.85674256
0.13744412 -0.22504586 0.85734582
0.14056385 -0.22520445 0.85794997
0.14368801 -0.22536328 0.85855508
0.14681655 -0.22552232 0.85916096
0.14994951 -0.22568159 0.85976768
0.1530869 -0.22584108 0.86037529
0.15622874 -0.2260008 0.86098379
0.15937518 -0.22616097 0.86159396
0.16806418 -0.23403329 0.89158475
0.17120583 -0.23403367 0.89158618
0.17407523 -0.23366857 0.89019525
0.17674647 -0.23305508 0.88785815
0.17926481 -0.23226485 0.88484758
0.18164106 -0.23132066 0.88125062
0.18388523 -0.23024285 0.87714452
0.1860036 -0.22904575 0.87258399
0.1879957 -0.22773463 0.86758906
0.1910852 -0.22777358 0.86773741
0.19428074 -0.22793567 0.86835498
0.19748068 -0.22809784 0.86897278
0.20068631 -0.22826153 0.86959636
0.20389581 -0.22842462 0.87021768
0.2071099 -0.22858796 0.87083995
0.21032861 -0.22875156 0.87146318
0.21355191 -0.22891536 0.87208724
0.10507479 -0.23053721 0.8902151
0.10740663 -0.22882283 0.88359505
0.10970407 -0.22713378 0.87707281
0.11196783 -0.22546947 0.87064612
0.11419862 -0.22382928 0.86431259
0.11639717 -0.22221279 0.85807049
0.11906301 -0.22154763 0.85550201
0.1221631 -0.22170341 0.85610354
0.12526758 -0.22185944 0.85670608
0.12837639 -0.22201565 0.85730928
0.13148962 -0.22217211 0.85791343
0.13460721 -0.22232877 0.85851836
0.13772923 -0.22248568 0.85912424
0.14085564 -0.22264278 0.8597309
0.14398646 -0.22280011 0.86033845
0.14712171 -0.22295766 0.86094677
0.15026142 -0.22311544 0.86155611
0.15340564 -0.22327356 0.86216664
0.15655437 -0.22343197 0.86277837
0.15970704 -0.22358985 0.863388
0.1660395 -0.22811033 0.88084376
0.16972953 -0.2289013 0.88389808
0.17285344 -0.22891402 0.88394719
0.17570499 -0.22857197 0.88262635
0.17835915 -0.22798951 0.88037723
0.18085536 -0.22722854 0.87743872
0.18321046 -0.22631881 0.87392581
0.18543704 -0.22528301 0.8699261
0.18828802 -0.22502714 0.86893809
0.1914859 -0.22518741 0.86955696
0.19468839 -0.225348 0.87017703
0.19789658 -0.22551006 0.87080288
0.20110847 -0.22567134 0.87142563
0.20432486 -0.22583273 0.87204885
0.2075464 -0.22599496 0.8726753
0.21077219 -0.22615702 0.87330109
0.21400262 -0.22631933 0.87392783
0.10247286 -0.22859329 0.89488399
0.1048363 -0.22688453 0.88819462
0.10716467 -0.22520112 0.88160449
0.10945874 -0.2235425 0.8751114
0.11171927 -0.22190814 0.86871332
0.11394693 -0.2202974 0.86240768
0.11620712 -0.2188316 0.85666949
0.11930944 -0.21898569 0.85727268
0.12241615 -0.21914001 0.85787684
0.1255272 -0.21929452 0.85848171
0.12864266 -0.21944927 0.85908747
0.13176255 -0.21960424 0.85969418
0.13488682 -0.2197594 0.86030161
0.13801549 -0.21991481 0.86090994
0.14114861 -0.22007042 0.86151916
0.14428619 -0.22022627 0.86212927
0.14742818 -0.22038233 0.86274022
0.15057482 -0.22053887 0.86335301
0.1537254 -0.22069487 0.86396372
0.15688118 -0.22085214 0.86457938
0.16004092 -0.2210089 0.86519301
0.16320536 -0.22116613 0.86580861
0.1676798 -0.22306028 0.87322366
0.17136572 -0.22385612 0.8763392
0.17447455 -0.22388327 0.87644547
0.17730586 -0.22355957 0.87517828
0.17994182 -0.2230048 0.87300652
0.18241549 -0.22227097 0.8701337
0.18548314 -0.22227319 0.8701424
0.18868352 -0.22243179 0.8707633
0.19188872 -0.22259091 0.87138623
0.19509859 -0.22275035 0.87201041
0.19831349 -0.22291052 0.87263739
0.20153226 -0.22307006 0.87326193
0.2047563 -0.22323056 0.87389028
0.20798446 -0.22339071 0.87451726
0.21121767 -0.22355154 0.87514687
0.21445525 -0.2237123 0.87577617
0.10223905 -0.22492591 0.89284217
0.10459888 -0.22324835 0.88618314
0.10692377 -0.22159564 0.87962276
0.10921451 -0.21996725 0.87315881
0.11147179 -0.21836255 0.86678898
0.11369634 -0.21678102 0.86051112
0.11644799 -0.21626055 0.85844511
0.1195569 -0.21641313 0.85905075
0.12267022 -0.21656594 0.85965735
0.12578793 -0.21671897 0.86026478
0.12891006 -0.21687222 0.8608731
0.1320366 -0.21702568 0.86148226
0.13516757 -0.21717934 0.86209226
0.13830298 -0.21733326 0.8627032
0.14144284 -0.21748737 0.86331493
0.14458729 -0.21764192 0.86392844
0.14773579 -0.21779606 0.86454028
0.15088937 -0.2179513 0.86515653
0.15404679 -0.21810585 0.86577004
0.15720941 -0.21826161 0.86638832
0.16037601 -0.21841685 0.86700451
0.16354683 -0.21857193 0.86762011
0.16672264 -0.21872787 0.8682391
0.1699028 -0.21888378 0.86885804
0.17308864 -0.21904138 0.86948359
0.17627773 -0.21919751 0.87010336
0.17947136 -0.21935388 0.87072408
0.18266958 -0.2195105 0.87134576
0.18587279 -0.21966785 0.87197036
0.18908061 -0.21982542 0.87259585
0.19229302 -0.21998321 0.87322217
0.19551007 -0.22014126 0.87384957
0.19873209 -0.22029991 0.87447935
0.20195852 -0.22045854 0.87510902
0.20518908 -0.22061682 0.87573731
0.20842469 -0.22077578 0.87636828
0.21166484 -0.22093482 0.87699962
0.21490978 -0.22109424 0.87763238
0.099614479 -0.22294669 0.89753866
0.1020063 -0.22127521 0.89080966
0.10436253 -0.21962862 0.88418078
0.10668396 -0.21800636 0.8776499
0.10897135 -0.2164079 0.87121481
0.11122541 -0.21483265 0.86487317
0.11357868 -0.21352793 0.85962063
0.11668983 -0.21367878 0.86022794
0.11980539 -0.21382987 0.86083621
0.12292536 -0.21398118 0.86144537
0.12604974 -0.2141327 0.8620553
0.12917855 -0.21428442 0.86266613
0.13231181 -0.21443638 0.86327791
0.1354495 -0.21458852 0.86389041
0.13859178 -0.21474111 0.86450469
0.14173816 -0.21489336 0.86511755
0.14488947 -0.21504648 0.86573404
0.14804499 -0.21519943 0.86634976
0.15120517 -0.21535282 0.86696726
0.15436932 -0.21550569 0.86758274
0.15753846 -0.21565945 0.86820173
0.16071209 -0.21581337 0.86882138
0.16389021 -0.21596749 0.86944181
0.16707289 -0.21612182 0.87006313
0.17026007 -0.21627632 0.8706851
0.17345254 -0.21643193 0.87131155
0.17664924 -0.21658732 0.87193716
0.17984928 -0.21674144 0.87255758
0.18305472 -0.21689676 0.87318289
0.18626498 -0.21705258 0.87381017
0.18947984 -0.21720859 0.87443829
0.19269931 -0.21736483 0.87506723
0.19592345 -0.21752131 0.8756972
0.19915223 -0.21767801 0.87632805
0.20238562 -0.2178349 0.87695968
0.20562373 -0.21799207 0.87759238
0.20886651 -0.21814945 0.87822598
0.21211393 -0.21830703 0.87886035
0.21536608 -0.21846488 0.8794958
0.21862294 -0.21862294 0.88013214
0.099386521 -0.21928136 0.89548475
0.10177462 -0.2176411 0.88878638
0.10412726 -0.2160252 0.88218749
0.10644523 -0.21443315 0.87568593
0.10872929 -0.21286438 0.86927956
0.11098011 -0.21131828 0.8629657
0.1138149 -0.21093695 0.86140841
0.1169327 -0.2110863 0.86201835
0.12005492 -0.21123587 0.86262912
0.12318156 -0.21138564 0.86324078
0.12631264 -0.21153563 0.86385328
0.12944818 -0.21168584 0.86446667
0.13258828 -0.21183644 0.86508173
0.13573256 -0.21198681 0.86569577
0.13888155 -0.21213776 0.86631221
0.1420351 -0.21228902 0.86692995
0.14519274 -0.21243989 0.86754608
0.1483551 -0.21259132 0.86816442
0.15152201 -0.21274303 0.86878395
0.15469344 -0.21289493 0.86940432
0.15786941 -0.21304709 0.87002563
0.16104993 -0.21319944 0.87064779
0.164235 -0.21335201 0.8712709
0.16742463 -0.21350481 0.87189484
0.17061882 -0.21365781 0.87251967
0.17381726 -0.21381062 0.87314373
0.17702128 -0.21396485 0.87377357
0.18022922 -0.21411848 0.87440091
0.18344149 -0.21427199 0.87502784
0.1866588 -0.21442622 0.87565768
0.18988076 -0.21458068 0.87628847
0.19310734 -0.21473536 0.8769201
0.19633859 -0.21489027 0.87755269
0.19957452 -0.21504541 0.87818623
0.20281509 -0.21520074 0.8788206
0.20606038 -0.21535634 0.87945598
0.20931035 -0.21551214 0.88009226
0.21256502 -0.21566816 0.88072938
0.21582441 -0.21582441 0.8813675
0.096739091 -0.21726647 0.90020913
0.099159598 -0.21563278 0.89344019
0.10154399 -0.21402347 0.88677227
0.10389305 -0.21243803 0.88020325
0.10620756 -0.2108759 0.87373078
0.10848828 -0.20933655 0.86735272
0.11093207 -0.20818758 0.86259216
0.1140521 -0.20833518 0.8632037
0.11717657 -0.20848298 0.86381614
0.12030548 -0.20863101 0.86442947
0.12343884 -0.20877928 0.86504376
0.12657672 -0.20892785 0.86565936
0.12971894 -0.20907642 0.86627495
0.13286567 -0.20922525 0.86689162
0.13601696 -0.20937443 0.86750966
0.13917251 -0.20952345 0.86812717
0.14233275 -0.20967297 0.86874664
0.14549747 -0.20982268 0.86936694
0.14866674 -0.20997261 0.86998814
0.15184052 -0.21012275 0.87061024
0.15501887 -0.21027312 0.87123328
0.15820175 -0.21042369 0.87185717
0.1613892 -0.21057449 0.87248194
0.16458124 -0.2107255 0.87310767
0.16777785 -0.21087675 0.8737343
0.17097904 -0.21102819 0.87436175
0.1741848 -0.21117979 0.87498993
0.17739528 -0.21133177 0.87561965
0.18061091 -0.21148457 0.87625271
0.18382987 -0.21163608 0.87688047
0.18705429 -0.21178876 0.87751305
0.19028337 -0.21194164 0.87814653
0.19351709 -0.21209474 0.87878084
0.19675551 -0.21224807 0.87941617
0.1999986 -0.21240163 0.88005239
0.20324638 -0.21255538 0.88068944
0.20649888 -0.21270938 0.88132751
0.20975608 -0.21286358 0.88196641
0.21301802 -0.21301802 0.88260633
0.096517049 -0.2136033 0.89814293
0.098933712 -0.2120008 0.89140487
0.10131439 -0.21042219 0.88476723
0.10365988 -0.20886692 0.87822777
0.10597095 -0.20733447 0.87178421
0.10824833 -0.2058243 0.86543435
0.11116358 -0.20557648 0.86439234
0.11429029 -0.20572253 0.86500645
0.11742148 -0.20586883 0.86562157
0.12055717 -0.20601541 0.86623794
0.12369724 -0.20616205 0.86685455
0.12684183 -0.20630899 0.86747235
0.12999071 -0.20645583 0.8680898
0.13314426 -0.20660315 0.86870927
0.13630231 -0.20675069 0.86932957
0.13946486 -0.20689841 0.86995071
0.14263193 -0.20704634 0.87057275
0.14580354 -0.20719449 0.87119567
0.14897969 -0.20734288 0.87181956
0.15216039 -0.20749144 0.87244427
0.15534566 -0.20764025 0.87306994
0.1585355 -0.20778926 0.87369645
0.16172993 -0.20793848 0.8743239
0.16492894 -0.20808792 0.87495226
0.16813256 -0.20823757 0.8755815
0.17134079 -0.20838745 0.8762117
0.17455351 -0.20853738 0.87684214
0.17777185 -0.20868869 0.87747836
0.18099383 -0.20883903 0.87811047
0.18421994 -0.20898901 0.87874109
0.18745148 -0.20914008 0.87937629
0.19068769 -0.20929135 0.88001239
0.1939286 -0.20944288 0.88064951
0.19717419 -0.20959462 0.88128752
0.20042448 -0.20974655 0.88192636
0.2036795 -0.20989873 0.88256621
0.20693925 -0.21005112 0.88320696
0.21020372 -0.21020372 0.88384861
0.21347295 -0.21035656 0.88449126
0.093846537 -0.21155237 0.90289551
0.096296042 -0.20995694 0.89608634
0.098708868 -0.20838539 0.88937902
0.10108583 -0.20683718 0.88277131
0.10342776 -0.20531182 0.87626117
0.10573539 -0.2038088 0.86984634
0.10826708 -0.20281015 0.86558419
0.11139607 -0.20295447 0.86620015
0.1145295 -0.20309898 0.86681688
0.11766736 -0.20324361 0.8674342
0.12080971 -0.2033885 0.86805254
0.12395655 -0.2035336 0.86867183
0.1271079 -0.20367894 0.86929208
0.13026376 -0.20382448 0.86991328
0.13342412 -0.20397021 0.87053525
0.13658901 -0.20411617 0.87115818
0.13975842 -0.20426232 0.87178195
0.14293239 -0.20440868 0.8724066
0.14611089 -0.20455526 0.87303221
0.14929397 -0.20470205 0.87365872
0.15248162 -0.20484903 0.87428606
0.15567385 -0.20499626 0.87491435
0.15887067 -0.20514368 0.87554353
0.16207208 -0.2052913 0.87617362
0.16527811 -0.20543914 0.87680459
0.16848876 -0.20558721 0.87743652
0.17170407 -0.2057355 0.87806946
0.17492399 -0.20588399 0.87870318
0.17814915 -0.20603336 0.87934071
0.18137802 -0.20618185 0.87997442
0.18461165 -0.20633067 0.88060957
0.18785036 -0.20648015 0.88124752
0.19109373 -0.20662981 0.8818863
0.19434184 -0.20677972 0.8825261
0.19759466 -0.20692983 0.88316679
0.20085219 -0.20708016 0.88380837
0.20411447 -0.20723072 0.88445097
0.20738152 -0.20738152 0.88509452
0.21065328 -0.2075325 0.88573891
0.0936305 -0.20789145 0.90081704
0.096076027 -0.2063272 0.89403898
0.09848503 -0.20478633 0.88736224
0.10085832 -0.2032683 0.88078445
0.10319667 -0.2017726 0.8743034
0.10550088 -0.20029879 0.86791718
0.10849382 -0.20017874 0.86739701
0.11162949 -0.20032142 0.86801523
0.11476966 -0.20046434 0.86863452
0.11791431 -0.20060746 0.86925471
0.12106345 -0.20075078 0.86987573
0.1242171 -0.20089433 0.8704977
0.12737527 -0.20103808 0.87112063
0.13053796 -0.20118202 0.87174433
0.13370517 -0.20132618 0.87236899
0.13687693 -0.20147054 0.87299448
0.14005324 -0.20161511 0.87362093
0.14323412 -0.20175987 0.87424827
0.14641955 -0.20190486 0.8748765
0.14960958 -0.20205006 0.87550563
0.1528042 -0.20219545 0.87613565
0.15600342 -0.20234105 0.87676656
0.15920722 -0.20248687 0.87739837
0.16241568 -0.20263289 0.87803113
0.16562876 -0.20277913 0.87866479
0.16884652 -0.20292562 0.87929958
0.17206889 -0.20307229 0.87993509
0.17529592 -0.20321916 0.88057148
0.17852733 -0.20336591 0.88120735
0.18176444 -0.20351402 0.88184917
0.1850051 -0.20366107 0.88248634
0.18825091 -0.20380883 0.88312662
0.1915015 -0.20395689 0.88376814
0.19475685 -0.20410517 0.88441068
0.19801693 -0.20425367 0.88505417
0.20128173 -0.20440237 0.8856985
0.20455131 -0.20455131 0.88634384
0.20782566 -0.20470046 0.88699013
0.21110477 -0.20484981 0.88763726
0.090936668 -0.20580404 0.90559798
0.093415454 -0.20424736 0.8987481
0.095857024 -0.20271403 0.89200103
0.098262206 -0.20120355 0.88535452
0.10063182 -0.19971545 0.87880641
0.10296663 -0.19824918 0.87235439
0.10535766 -0.19697303 0.86673892
0.10872151 -0.19753626 0.86921734
0.11186394 -0.19767737 0.8698383
0.11501088 -0.19781871 0.87046021
0.11816231 -0.19796024 0.87108296
0.12131827 -0.19810198 0.87170666
0.12447875 -0.19824393 0.87233132
0.12764376 -0.19838609 0.87295681
0.13081332 -0.19852844 0.8735832
0.1339874 -0.19867098 0.87421042
0.13716607 -0.19881374 0.87483859
0.1403493 -0.1989567 0.87546766
0.1435371 -0.19909985 0.87609762
0.14672951 -0.19924323 0.87672853
0.14992651 -0.19938681 0.87736028
0.15312813 -0.1995306 0.87799299
0.15633437 -0.19967459 0.87862664
0.15954524 -0.19981879 0.87926114
0.16276075 -0.19996321 0.87989664
0.16598094 -0.20010786 0.8805331
0.16920577 -0.2002527 0.88117045
0.17243525 -0.20039773 0.88180864
0.17566943 -0.20054299 0.88244778
0.17890821 -0.20068833 0.8830874
0.18215226 -0.20083454 0.88373071
0.18540032 -0.20098017 0.88437158
0.18865319 -0.20112613 0.88501382
0.19191103 -0.20127255 0.88565809
0.19517364 -0.20141919 0.88630337
0.198441 -0.20156606 0.8869496
0.20171311 -0.20171311 0.88759673
0.20499001 -0.2018604 0.88824481
0.2082717 -0.20200789 0.88889378
0.090726711 -0.20214549 0.90350711
0.093201399 -0.20061995 0.89668864
0.095639013 -0.19911729 0.88997233
0.098040387 -0.19763696 0.88335592
0.10040642 -0.1961787 0.87683809
0.10273781 -0.19474182 0.87041575
0.10503531 -0.19332585 0.86408699
0.10772257 -0.19268684 0.86123091
0.11158638 -0.19412974 0.86768001
0.11525312 -0.19516195 0.87229359
0.11841138 -0.19530188 0.87291902
0.12157416 -0.19544201 0.87354535
0.1247415 -0.19558235 0.87417263
0.12791339 -0.19572288 0.87480074
0.13108982 -0.19586362 0.87542975
0.13427083 -0.19600454 0.87605965
0.13745643 -0.19614568 0.87669051
0.14064661 -0.19628702 0.8773222
0.14384139 -0.19642857 0.87795484
0.14704078 -0.19657032 0.87858844
0.15024482 -0.19671227 0.87922293
0.15345345 -0.19685443 0.87985831
0.15666676 -0.19699681 0.88049465
0.15988469 -0.19713938 0.88113189
0.16310731 -0.19728218 0.88177013
0.16633457 -0.19742514 0.88240916
0.16956651 -0.19756833 0.88304913
0.17280318 -0.19771174 0.88369012
0.17604452 -0.19785535 0.884332
0.17929059 -0.19799918 0.88497484
0.18254146 -0.19814329 0.88561898
0.18579721 -0.19828779 0.8862648
0.18905719 -0.19843191 0.88690901
0.19232231 -0.1985767 0.88755614
0.19559222 -0.19872169 0.88820422
0.19886687 -0.19886687 0.88885307
0.20214635 -0.19901229 0.88950306
0.20543061 -0.19915792 0.89015394
0.088009335 -0.20002122 0.90831673
0.090517715 -0.19850376 0.90142584
0.09298832 -0.19700916 0.89463866
0.095422104 -0.19553709 0.88795388
0.097819783 -0.19408688 0.88136828
0.10018217 -0.19265801 0.87487966
0.10251001 -0.19125003 0.86848587
0.10480411 -0.1898625 0.862185
0.10706519 -0.18849504 0.85597521
0.1100576 -0.18845479 0.8557924
0.11391421 -0.18985701 0.86216003
0.11782864 -0.19128026 0.86862314
0.12180313 -0.19272648 0.87519056
0.12500535 -0.19290949 0.87602168
0.12818414 -0.1930484 0.87665248
0.1313675 -0.19318751 0.87728417
0.13455546 -0.19332682 0.87791675
0.13774802 -0.19346631 0.87855023
0.14094518 -0.19360602 0.87918466
0.14414696 -0.19374593 0.87981999
0.1473534 -0.19388604 0.88045627
0.15056445 -0.19402635 0.88109344
0.15378016 -0.19416687 0.88173157
0.15700054 -0.1943076 0.88237059
0.16022557 -0.19444852 0.88301051
0.16345531 -0.19458964 0.88365144
0.16668972 -0.19473098 0.88429326
0.16992885 -0.19487253 0.88493603
0.17317268 -0.19501428 0.88557976
0.17642124 -0.19515625 0.88622439
0.17967454 -0.1952984 0.88686997
0.18293302 -0.19544125 0.88751864
0.18619545 -0.19558345 0.8881644
0.18946292 -0.19572616 0.88881242
0.19273536 -0.19586927 0.88946229
0.1960126 -0.1960126 0.89011317
0.1992946 -0.1961561 0.89076483
0.20258145 -0.19629985 0.89141762
0.2058731 -0.1964438 0.89207131
0.087805524 -0.19636507 0.90621322
0.090309791 -0.19487903 0.89935517
0.09277641 -0.19341524 0.89259988
0.095206268 -0.1919733 0.88594544
0.097600169 -0.19055271 0.87938952
0.099958897 -0.18915299 0.87292987
0.10228322 -0.18777367 0.86656445
0.10457392 -0.18641438 0.86029136
0.10683174 -0.1850747 0.85410881
0.10905732 -0.18375412 0.84801441
0.11236332 -0.18427585 0.85042214
0.11621261 -0.18563832 0.8567099
0.12011922 -0.18702106 0.86309117
0.12408455 -0.18842468 0.86956877
0.12811077 -0.1898509 0.87615067
0.13164636 -0.19050005 0.87914646
0.13484129 -0.19063769 0.87978172
0.13804086 -0.19077556 0.88041794
0.14124504 -0.19091362 0.88105506
0.14445385 -0.19105186 0.88169307
0.14766732 -0.19119032 0.88233203
0.15088545 -0.19132897 0.88297188
0.15410826 -0.19146784 0.88361275
0.15733574 -0.19160689 0.88425452
0.16056794 -0.19174618 0.88489729
0.16380481 -0.19188564 0.8855409
0.16704641 -0.1920253 0.88618547
0.17029272 -0.19216518 0.88683099
0.17354378 -0.19230527 0.88747746
0.17679958 -0.19244556 0.88812488
0.18006012 -0.19258603 0.8887732
0.18332525 -0.19272654 0.88942158
0.18659571 -0.19286783 0.89007366
0.1898704 -0.19300875 0.890724
0.19315018 -0.19315018 0.89137667
0.19643478 -0.19329183 0.89203036
0.19972418 -0.19343366 0.89268488
0.20301843 -0.19357571 0.89334047
0.085104808 -0.19429588 0.9114849
0.087602854 -0.19272628 0.90412158
0.090102911 -0.19127108 0.89729494
0.092565477 -0.18983766 0.89057046
0.094991416 -0.1884256 0.88394612
0.09738154 -0.18703438 0.87741965
0.099736623 -0.18566357 0.87098879
0.10205744 -0.18431269 0.86465156
0.10434476 -0.18298139 0.85840613
0.1065993 -0.18166924 0.85225052
0.10882173 -0.18037574 0.84618247
0.11101273 -0.17910054 0.84020025
0.1146403 -0.18014905 0.845119
0.11848211 -0.1814726 0.85132807
0.12238082 -0.18281579 0.8576293
0.12633765 -0.18417899 0.86402434
0.13035412 -0.18556292 0.87051666
0.13443226 -0.18696901 0.87711293
0.13833493 -0.18807332 0.88229352
0.14154615 -0.18820971 0.88293332
0.14476204 -0.1883463 0.88357413
0.1479826 -0.18848309 0.88421583
0.15120782 -0.18862008 0.88485843
0.15443777 -0.18875727 0.88550204
0.15767241 -0.18889466 0.88614661
0.16091175 -0.18903226 0.88679206
0.16415583 -0.18917005 0.88743848
0.16740462 -0.18930803 0.88808578
0.17065816 -0.18944621 0.88873404
0.17391646 -0.18958461 0.88938332
0.17717952 -0.18972321 0.89003348
0.18044735 -0.189862 0.8906846
0.18371993 -0.19000095 0.89133644
0.18699765 -0.19014047 0.89199096
0.19027965 -0.19027965 0.89264387
0.1935668 -0.19041938 0.89329934
0.19685879 -0.19055931 0.89395583
0.20015562 -0.19069944 0.89461321
0.2034573 -0.19083978 0.8952716
0.087401122 -0.18910424 0.90203953
0.089896977 -0.18767965 0.89524412
0.092355497 -0.18627635 0.88855028
0.094777539 -0.18489389 0.88195586
0.097163893 -0.18353179 0.8754586
0.099515349 -0.18218963 0.8690564
0.10183266 -0.18086696 0.86274713
0.10411659 -0.17956339 0.85652906
0.10636786 -0.17827854 0.85040021
0.10858716 -0.17701195 0.8443585
0.11077513 -0.1757632 0.83840191
0.11342798 -0.1752978 0.83618188
0.11688904 -0.17607337 0.83988142
0.12072331 -0.17735894 0.84601367
0.12461396 -0.17866339 0.85223597
0.12856229 -0.17998721 0.85855067
0.13256954 -0.18133076 0.86495948
0.13663736 -0.18269491 0.87146658
0.14076766 -0.18408079 0.87807733
0.14496109 -0.18548784 0.88478905
0.14829922 -0.18576428 0.88610768
0.15153159 -0.18589959 0.88675308
0.15476868 -0.18603507 0.88739938
0.1580105 -0.18617079 0.88804674
0.16125703 -0.18630667 0.88869494
0.16450833 -0.18644278 0.88934416
0.16776435 -0.18657905 0.8899942
0.17102516 -0.18671554 0.89064527
0.17429073 -0.18685223 0.89129728
0.1775611 -0.18698913 0.89195031
0.18083628 -0.18712623 0.89260429
0.18411623 -0.18726352 0.89325917
0.18740129 -0.18740129 0.89391637
0.19069065 -0.18753873 0.89457196
0.19398521 -0.18767674 0.89523029
0.19728461 -0.18781495 0.89588952
0.2005889 -0.18795337 0.89654982
0.087869912 -0.18692328 0.90687782
0.089691982 -0.18410459 0.89320266
0.092146464 -0.18273112 0.88653916
0.094564617 -0.18137804 0.87997448
0.096947208 -0.18004481 0.87350625
0.099295042 -0.17873107 0.86713248
0.10160885 -0.17743635 0.86085099
0.10388943 -0.17616034 0.85466027
0.10613745 -0.17490254 0.84855801
0.10835359 -0.1736626 0.84254229
0.11063693 -0.17259361 0.83735591
0.11366958 -0.17271872 0.83796293
0.11670665 -0.17284404 0.83857089
0.11974812 -0.17296952 0.83917969
0.12293668 -0.17329629 0.84076506
0.12681922 -0.17456293 0.8469103
0.1307589 -0.17584817 0.85314578
0.13475704 -0.17715253 0.859474
0.13881493 -0.17847635 0.86589664
0.14293434 -0.17982063 0.87241858
0.14711702 -0.18118621 0.87904388
0.15136367 -0.18257268 0.88577044
0.15510103 -0.18330121 0.889305
0.15835004 -0.1834352 0.88995504
0.16160381 -0.18356939 0.89060605
0.16486235 -0.18370377 0.891258
0.16812566 -0.18383834 0.89191091
0.17139375 -0.1839731 0.89256477
0.17466664 -0.18410809 0.89321965
0.17794435 -0.18424326 0.89387548
0.18122686 -0.18437862 0.8945322
0.18451419 -0.18451419 0.89518994
0.18780652 -0.18465011 0.89584929
0.19110344 -0.18478596 0.89650846
0.19440545 -0.18492225 0.89716965
0.1977123 -0.18505871 0.89783174
0.088766754 -0.18560322 0.91613382
0.089705445 -0.18098468 0.89333677
0.091938376 -0.17920192 0.88453716
0.09435264 -0.17787793 0.87800199
0.096731491 -0.17657335 0.8715626
0.099075705 -0.1752878 0.86521709
0.10138603 -0.1740208 0.85896325
0.10366324 -0.17277205 0.85279948
0.10590801 -0.17154115 0.84672374
0.10812102 -0.17032763 0.84073389
0.11087292 -0.17000514 0.83914202
0.11391223 -0.17012866 0.83975172
0.11695595 -0.17025234 0.84036219
0.12000412 -0.17037623 0.84097368
0.12305671 -0.17050026 0.84158593
0.12611377 -0.17062451 0.84219921
0.12917526 -0.1707489 0.84281325
0.13292806 -0.17176098 0.84780878
0.13691698 -0.17302695 0.85405761
0.14096515 -0.17431174 0.86039937
0.14507388 -0.17561576 0.86683589
0.1492451 -0.17694007 0.87337267
0.15348035 -0.17828526 0.88001251
0.15778047 -0.17965104 0.88675398
0.16195208 -0.18082029 0.89252537
0.16521789 -0.18095294 0.89318013
0.16848852 -0.1810858 0.8938359
0.17176393 -0.18121883 0.89449257
0.17504416 -0.18135206 0.89515024
0.17832924 -0.18148552 0.89580894
0.18161914 -0.18161914 0.89646852
0.1849139 -0.18175298 0.89712912
0.18821345 -0.18188696 0.89779043
0.19151802 -0.18202126 0.89845335
0.1948275 -0.18215579 0.89911741
0.19814186 -0.18229051 0.89978236
0.090607211 -0.17962483 0.90231705
0.091731235 -0.17568862 0.88254422
0.094141625 -0.17439349 0.87603831
0.096516736 -0.17311732 0.86962765
0.098857336 -0.17185968 0.8633101
0.10116418 -0.1706202 0.85708374
0.10343803 -0.16939852 0.85094678
0.10567956 -0.16819423 0.84489733
0.10806836 -0.16728391 0.8403244
0.11110993 -0.16740562 0.84093583
0.1141559 -0.1675275 0.84154803
0.11720634 -0.16764957 0.84216124
0.12026119 -0.16777179 0.84277523
0.12332053 -0.16789421 0.84339023
0.12638432 -0.16801681 0.844006
0.1294526 -0.16813959 0.84462279
0.13252535 -0.16826254 0.84524041
0.13560264 -0.16838568 0.84585905
0.13904986 -0.16895305 0.84870911
0.14308822 -0.17019966 0.85497129
0.14718664 -0.17146485 0.86132669
0.15134642 -0.17274894 0.86777717
0.15556967 -0.17405319 0.87432885
0.15985774 -0.17537789 0.88098329
0.16421154 -0.1767229 0.88773972
0.16863264 -0.17808868 0.89460051
0.17213571 -0.17845263 0.8964287
0.17542334 -0.17858411 0.89708924
0.1787158 -0.1787158 0.89775074
0.18201314 -0.17884769 0.89841324
0.18531533 -0.17897975 0.8990767
0.1886224 -0.17911203 0.89974111
0.19193439 -0.17924452 0.90040666
0.19525139 -0.17937729 0.90107363
0.091527298 -0.17823736 0.91147977
0.092392966 -0.17382406 0.88891077
0.093931548 -0.17092462 0.87408346
0.096302934 -0.16967659 0.86770123
0.098639935 -0.16844666 0.86141151
0.1009433 -0.16723444 0.85521239
0.10321382 -0.16603963 0.84910232
0.10545212 -0.16486177 0.84307891
0.1082997 -0.16467489 0.84212327
0.11134794 -0.16479494 0.8427372
0.11440063 -0.16491519 0.84335214
0.11745778 -0.16503561 0.84396791
0.12051939 -0.1651562 0.84458464
0.12358548 -0.16527697 0.84520221
0.12665607 -0.16539791 0.84582072
0.12973113 -0.16551903 0.84644008
0.13281073 -0.16564034 0.84706044
0.13589481 -0.1657618 0.84768158
0.13898346 -0.16588348 0.84830379
0.14207661 -0.1660053 0.84892678
0.14518468 -0.16613917 0.8496114
0.1492727 -0.16736636 0.855887
0.15342155 -0.16861179 0.86225605
0.1576326 -0.16987592 0.86872053
0.16190811 -0.17116 0.87528712
0.16624919 -0.1724641 0.88195616
0.17065692 -0.17378823 0.88872761
0.17513286 -0.17513286 0.89560378
0.17910405 -0.17593406 0.899701
0.18240884 -0.17606418 0.90036643
0.18571851 -0.17619447 0.90103275
0.18903306 -0.17632496 0.90170002
0.19235259 -0.17645568 0.90236849
0.1956771 -0.17658666 0.90303826
0.09246625 -0.17682143 0.92083043
0.093317114 -0.17239942 0.89780194
0.094126441 -0.16819315 0.87589705
0.096090071 -0.16625108 0.86578333
0.098423488 -0.16504861 0.85952133
0.10072339 -0.16386344 0.85334927
0.10299056 -0.16269524 0.84726566
0.10548153 -0.16193643 0.84331405
0.10853203 -0.16205467 0.84392977
0.11158698 -0.16217308 0.84454644
0.1146464 -0.16229166 0.84516394
0.11771031 -0.16241042 0.84578246
0.12077869 -0.16252935 0.84640175
0.12385158 -0.16264845 0.84702206
0.12692896 -0.16276772 0.84764314
0.13001087 -0.16288719 0.84826523
0.13309731 -0.16300681 0.84888822
0.13618828 -0.16312662 0.84951216
0.13928379 -0.16324659 0.85013694
0.14238387 -0.16336676 0.85076272
0.1454885 -0.16348708 0.85138929
0.14859772 -0.1636076 0.85201693
0.15171152 -0.16372828 0.8526454
0.15547043 -0.16452695 0.85680467
0.15966994 -0.1657526 0.86318743
0.16393246 -0.16699663 0.86966592
0.16826046 -0.16826046 0.87624753
0.17265476 -0.16954386 0.88293117
0.17711666 -0.17084704 0.8897177
0.18164766 -0.1721704 0.89660931
0.18612343 -0.17339705 0.90299731
0.18944556 -0.17352577 0.90366763
0.19277261 -0.17365466 0.9043389
0.094259925 -0.17094597 0.90687275
0.095054001 -0.16673405 0.88452846
0.095878147 -0.16284066 0.8638739
0.098207988 -0.16166545 0.85763937
0.10050444 -0.16050708 0.85149419
0.10276827 -0.15936528 0.84543693
0.10570814 -0.15930663 0.84512573
0.10876536 -0.1594232 0.84574413
0.11182705 -0.15953994 0.84636343
0.11489324 -0.15965684 0.84698361
0.11796392 -0.15977392 0.84760469
0.12103911 -0.15989116 0.84822673
0.1241188 -0.16000858 0.84884959
0.12720303 -0.16012618 0.84947348
0.1302918 -0.16024394 0.85009825
0.13338514 -0.1603619 0.85072398
0.136483 -0.16048001 0.85135055
0.13958545 -0.16059831 0.85197812
0.14269245 -0.16071676 0.85260653
0.14580405 -0.1608354 0.8532359
0.14892025 -0.16095421 0.85386622
0.15204106 -0.16107321 0.85449749
0.15516649 -0.16119237 0.85512966
0.15829654 -0.16131172 0.85576278
0.16168146 -0.16168146 0.85772425
0.16593182 -0.1628872 0.86412078
0.17024605 -0.16411105 0.87061334
0.17462674 -0.16535452 0.87720996
0.17907454 -0.16661717 0.88390839
0.18359081 -0.1678993 0.89071006
0.18817711 -0.16920127 0.89761704
0.19283511 -0.1705236 0.90463209
0.095221981 -0.16946284 0.91612864
0.096000023 -0.16524594 0.89333171
0.096740283 -0.1612338 0.87164181
0.097993426 -0.15829708 0.85576564
0.10028643 -0.1571653 0.84964722
0.10287622 -0.15655078 0.84632504
0.10593572 -0.1566655 0.84694523
0.10899968 -0.15678038 0.84756625
0.11206816 -0.15689543 0.84818822
0.11514113 -0.15701063 0.84881103
0.11821863 -0.15712604 0.84943491
0.12130065 -0.15724158 0.85005957
0.12438721 -0.15735732 0.85068524
0.1274783 -0.15747321 0.85131174
0.13057397 -0.15758929 0.85193926
0.13367419 -0.15770552 0.85256761
0.13677901 -0.15782192 0.85319698
0.13988839 -0.1579385 0.85382718
0.14300239 -0.15805528 0.85445845
0.14612097 -0.15817219 0.8550905
0.14924419 -0.1582893 0.85572362
0.15237203 -0.15840657 0.85635757
0.15550451 -0.15852402 0.85699254
0.15864164 -0.15864164 0.85762841
0.16178343 -0.15875944 0.85826522
0.16492987 -0.1588774 0.85890293
0.16808102 -0.15899555 0.85954165
0.17220728 -0.16001561 0.86505622
0.1765734 -0.16121919 0.87156284
0.18100704 -0.16244222 0.8781746
0.18550855 -0.16368401 0.88488781
0.19007942 -0.16494495 0.89170456
0.19472125 -0.16622546 0.8986271
0.096203886 -0.16794915 0.92557549
0.09696506 -0.16372789 0.90231192
0.097688928 -0.15971364 0.88018924
0.098378137 -0.15589151 0.85912526
0.10006937 -0.15383799 0.84780824
0.10309803 -0.15389995 0.84814972
0.10616428 -0.15401296 0.84877253
0.10923503 -0.15412615 0.84939629
0.11231031 -0.15423948 0.85002089
0.11539011 -0.15435301 0.8506465
0.11847444 -0.15446667 0.85127294
0.12156333 -0.15458053 0.8519004
0.12465676 -0.15469453 0.85252869
0.12775478 -0.15480873 0.853158
0.13085735 -0.15492308 0.8537882
0.13396452 -0.1550376 0.85441935
0.13707629 -0.15515229 0.8550514
0.14019267 -0.15526715 0.8556844
0.14331365 -0.15538217 0.8563183
0.14643928 -0.15549739 0.85695326
0.14956953 -0.15561275 0.85758901
0.15270445 -0.1557283 0.85822582
0.155844 -0.155844 0.85886347
0.15898825 -0.1559599 0.8595022
0.16213715 -0.15607595 0.86014175
0.16529074 -0.15619217 0.86078227
0.16844906 -0.15630858 0.86142379
0.17161207 -0.15642516 0.86206627
0.1747798 -0.15654191 0.8627097
0.17849633 -0.1571378 0.86599362
0.18291461 -0.15832105 0.87251461
0.18740138 -0.1595235 0.87914133
0.19195682 -0.16074432 0.88586938
0.097206235 -0.16640389 0.93521911
0.097949713 -0.16217904 0.91147465
0.098656349 -0.15816335 0.88890582
0.099328801 -0.15434168 0.86742735
0.10025226 -0.15112653 0.84935766
0.10332077 -0.15123765 0.84998214
0.10639382 -0.15134895 0.85060769
0.10947139 -0.15146041 0.85123414
0.11255349 -0.15157203 0.85186148
0.11564015 -0.15168384 0.85248977
0.11873137 -0.1517958 0.85311908
0.12182714 -0.15190792 0.85374916
0.1249275 -0.1520202 0.85438025
0.12803243 -0.15213266 0.85501224
0.13114198 -0.15224528 0.85564524
0.13425611 -0.15235807 0.85627908
0.13737488 -0.15247102 0.85691392
0.14049827 -0.15258414 0.85754967
0.1436263 -0.15269744 0.85818642
0.14675897 -0.15281089 0.85882401
0.14989631 -0.15292451 0.85946262
0.15303829 -0.15303829 0.86010212
0.156185 -0.15315227 0.86074269
0.15933636 -0.1532664 0.86138409
0.16249242 -0.15338069 0.86202645
0.16565321 -0.15349518 0.86266989
0.16881871 -0.15360981 0.86331415
0.17198896 -0.15372464 0.86395949
0.17516392 -0.15383963 0.86460572
0.17834368 -0.1539548 0.86525303
0.18152817 -0.15407012 0.86590117
0.18479902 -0.15425374 0.86693305
0.18926978 -0.15541665 0.87346888
0.19380984 -0.15659834 0.8801102
0.098954439 -0.16059819 0.92082417
0.099642947 -0.15658177 0.8977952
0.10029786 -0.15276136 0.87589002
0.10092157 -0.14912292 0.85502827
0.10354451 -0.14856386 0.85182279
0.10662435 -0.14867339 0.85245079
0.10970874 -0.14878309 0.85307974
0.11279771 -0.14889297 0.85370982
0.11589125 -0.14900303 0.85434085
0.11898936 -0.14911325 0.85497284
0.12209208 -0.14922364 0.85560578
0.12519936 -0.14933418 0.85623956
0.12831128 -0.14944489 0.85687435
0.13142779 -0.14955577 0.85751009
0.13454895 -0.14966682 0.85814679
0.13767473 -0.14977801 0.85878432
0.14080517 -0.14988938 0.85942292
0.14394028 -0.15000093 0.86006248
0.14708005 -0.15011263 0.86070293
0.15022448 -0.15022448 0.86134428
0.15337363 -0.15033652 0.8619867
0.15652746 -0.15044872 0.86263007
0.15968601 -0.15056111 0.8632744
0.16284928 -0.15067363 0.86391956
0.16601726 -0.15078633 0.86456573
0.16919002 -0.1508992 0.86521298
0.1723675 -0.15101224 0.86586106
0.17554978 -0.15112546 0.86651021
0.17873678 -0.15123881 0.8671602
0.18192862 -0.15135238 0.86781132
0.18512523 -0.15146609 0.86846334
0.18832666 -0.15157999 0.86911643
0.19153288 -0.15169404 0.86977035
0.19563888 -0.1525059 0.87442529
0.10064945 -0.1549682 0.90686393
0.10128601 -0.15114988 0.8845194
0.10189196 -0.14751522 0.8632496
0.10376921 -0.14587846 0.85367131
0.10685594 -0.14598627 0.85430229
0.1099472 -0.14609423 0.85493398
0.11304304 -0.14620234 0.85556662
0.11614347 -0.1463106 0.85620016
0.11924849 -0.14641903 0.85683471
0.12235814 -0.14652766 0.85747039
0.12547243 -0.14663644 0.85810703
0.12859131 -0.14674538 0.8587445
0.13171487 -0.1468545 0.85938305
0.13484305 -0.14696378 0.86002249
0.1379759 -0.14707321 0.86066294
0.1411134 -0.14718279 0.86130422
0.14425561 -0.14729257 0.86194658
0.1474025 -0.1474025 0.8625899
0.15055406 -0.14751257 0.86323404
0.15371037 -0.14762282 0.86387926
0.15687139 -0.14773326 0.86452544
0.16003715 -0.14784384 0.86517262
0.16320764 -0.14795458 0.86582065
0.16638288 -0.14806549 0.86646974
0.16956289 -0.14817658 0.86711979
0.17274769 -0.14828783 0.86777085
0.17593725 -0.14839925 0.86842281
0.17913161 -0.14851083 0.86907578
0.1823308 -0.14862259 0.86972976
0.18553481 -0.14873451 0.87038475
0.18874361 -0.14884658 0.87104058
0.19195728 -0.14895885 0.87169755
0.19517578 -0.14907128 0.87235546
0.19839916 -0.14918387 0.87301433
0.10167649 -0.15332168 0.91611761
0.10229383 -0.14950636 0.89332056
0.10288119 -0.1458763 0.87163049
0.10399489 -0.14318137 0.85552788
0.1070885 -0.14328742 0.85616159
0.1101867 -0.14339365 0.85679632
0.11328946 -0.14349999 0.85743165
0.11639683 -0.14360648 0.85806799
0.11950881 -0.14371313 0.85870522
0.12262542 -0.14381994 0.85934341
0.12574667 -0.1439269 0.85998255
0.12887257 -0.14403406 0.86062282
0.13200317 -0.14414139 0.86126417
0.13513844 -0.14424889 0.86190647
0.13827837 -0.14435653 0.86254966
0.14142299 -0.14446434 0.86319381
0.14457232 -0.14457232 0.86383897
0.14772636 -0.14468046 0.86448509
0.15088512 -0.14478876 0.86513221
0.15404859 -0.14489719 0.86578017
0.15721683 -0.14500582 0.86642921
0.16038983 -0.1451146 0.8670792
0.16356759 -0.14522356 0.8677302
0.16675009 -0.14533265 0.86838204
0.1699374 -0.14544192 0.86903501
0.17312951 -0.14555137 0.86968893
0.17632642 -0.14566095 0.87034374
0.17952816 -0.14577073 0.87099963
0.18273473 -0.14588067 0.87165654
0.18594614 -0.14599076 0.87231439
0.18916237 -0.14610103 0.8729732
0.1923835 -0.14621146 0.87363309
0.1956095 -0.14632206 0.87429392
0.19884038 -0.14643283 0.87495583
0.1033219 -0.1478298 0.90229863
0.10388982 -0.14420527 0.88017583
0.10443055 -0.14075422 0.85911191
0.10732207 -0.14057679 0.85802901
0.11042722 -0.14068124 0.85866648
0.11353697 -0.14078584 0.8593049
0.11665131 -0.14089054 0.85994399
0.11977029 -0.14099541 0.86058402
0.12289391 -0.14110042 0.86122501
0.1260222 -0.14120559 0.86186695
0.12915514 -0.14131093 0.86250985
0.13229278 -0.14141643 0.86315376
0.13543512 -0.14152208 0.86379868
0.13858217 -0.14162794 0.86444473
0.14173394 -0.14173394 0.8650918
0.14489043 -0.1418401 0.8657397
0.14805165 -0.14194642 0.86638868
0.15121761 -0.1420529 0.86703861
0.15438834 -0.14215955 0.86768955
0.15756379 -0.14226633 0.86834133
0.16074406 -0.14237331 0.86899424
0.1639291 -0.14248043 0.8696481
0.16711894 -0.14258771 0.87030286
0.17031357 -0.14269514 0.87095863
0.17351304 -0.14280276 0.87161547
0.17671734 -0.14291054 0.87227333
0.17992646 -0.14301847 0.87293202
0.18314044 -0.14312656 0.87359184
0.1863593 -0.14323483 0.87425268
0.18958302 -0.14334327 0.87491447
0.19281161 -0.14345184 0.87557715
0.19604512 -0.14356059 0.87624097
0.10491841 -0.14250113 0.88889033
0.10543951 -0.1390579 0.86741227
0.10755666 -0.13785432 0.85990453
0.11066877 -0.13795696 0.8605448
0.11378551 -0.13805975 0.86118603
0.11690689 -0.13816269 0.86182809
0.1200329 -0.13826574 0.86247092
0.12316359 -0.13836896 0.86311483
0.12629895 -0.13847235 0.86375964
0.12943898 -0.13857585 0.86440533
0.13258374 -0.13867955 0.8650521
0.13573319 -0.13878337 0.86569977
0.13888735 -0.13888735 0.86634839
0.14204626 -0.1389915 0.86699802
0.14520992 -0.13909583 0.86764878
0.14837837 -0.13920031 0.86830062
0.15155157 -0.13930498 0.86895347
0.15472956 -0.1394098 0.86960727
0.1579123 -0.13951474 0.87026191
0.16109985 -0.13961987 0.87091768
0.16429223 -0.13972516 0.87157446
0.16748941 -0.1398306 0.8722322
0.17069142 -0.13993621 0.87289089
0.17389828 -0.14004198 0.87355065
0.17710997 -0.14014789 0.87421137
0.18032655 -0.14025398 0.8748731
0.18354797 -0.14036022 0.87553579
0.18677431 -0.14046663 0.87619954
0.19000553 -0.14057319 0.87686425
0.19324166 -0.14067993 0.87753004
0.10596758 -0.14076291 0.89777911
0.10646817 -0.13732851 0.87587464
0.10779229 -0.13511992 0.86178833
0.11091139 -0.13522074 0.86243141
0.11403515 -0.13532172 0.86307544
0.11716358 -0.13542284 0.86372042
0.12029667 -0.13552411 0.86436623
0.12343445 -0.1356255 0.86501294
0.1265769 -0.13572703 0.86566055
0.12972407 -0.13582872 0.86630911
0.13287596 -0.13593058 0.86695874
0.13603258 -0.13603258 0.86760932
0.13919394 -0.13613473 0.8682608
0.14236005 -0.13623704 0.86891329
0.14553092 -0.1363395 0.8695668
0.14870656 -0.13644211 0.8702212
0.151887 -0.13654488 0.87087673
0.15507229 -0.13664785 0.87153345
0.15826236 -0.13675097 0.87219113
0.16145724 -0.13685423 0.87284976
0.16465697 -0.13695766 0.87350941
0.16786154 -0.13706125 0.87417012
0.17107095 -0.137165 0.8748318
0.1742852 -0.13726889 0.87549436
0.17750436 -0.13737294 0.87615806
0.18072841 -0.13747716 0.87682277
0.18395732 -0.13758153 0.87748837
0.18719114 -0.13768606 0.87815505
0.19042991 -0.13779075 0.8788228
0.1936736 -0.1378956 0.87949157
0.10751709 -0.13556503 0.88450372
0.10802894 -0.1323735 0.86368036
0.11115508 -0.13247249 0.86432624
0.11428589 -0.13257164 0.86497313
0.1174214 -0.13267092 0.86562097
0.12056161 -0.13277037 0.86626983
0.1237065 -0.13286994 0.86691946
0.12685609 -0.13296963 0.86756992
0.13001041 -0.13306947 0.86822134
0.13316947 -0.13316947 0.86887378
0.13633329 -0.13326962 0.86952722
0.13950188 -0.13336994 0.87018168
0.14267524 -0.13347037 0.87083703
0.14585336 -0.13357097 0.8714934
0.14903629 -0.13367173 0.87215078
