# .PCD v0.7 - Point Cloud Data file format
VERSION 0.7
FIELDS x y z
SIZE 4 4 4
TYPE F F F
COUNT 1 1 1
WIDTH 1418
HEIGHT 1
VIEWPOINT 0 0 0 1 0 0 0
POINTS 1418
DATA ascii
0.30019161 0.0037680955 0.71297109
0.30294678 0.0037711216 0.71354365
0.30570635 0.0037741524 0.71411711
0.3084704 0.0037771885 0.71469158
0.31123871 0.0037802272 0.71526653
0.31401172 0.003783274 0.71584302
0.22559963 0.0065202205 0.74022466
0.22698425 0.0064852638 0.73625612
0.22835411 0.0064506815 0.73233002
0.22970943 0.0064164642 0.72844547
0.23105042 0.0063826083 0.72460186
0.23237738 0.0063491086 0.72079873
0.23369046 0.0063159582 0.71703523
0.23498988 0.0062831519 0.71331084
0.2362759 0.0062506851 0.70962495
0.23754869 0.0062185521 0.70597696
0.23880833 0.0061867447 0.70236593
0.24106085 0.0061810473 0.70171916
0.2437259 0.0061859367 0.7022742
0.24639511 0.0061908318 0.70282996
0.24906851 0.0061957338 0.70338649
0.25174633 0.0062006484 0.70394439
0.25442827 0.0062055672 0.70450282
0.25711444 0.0062104939 0.70506215
0.2598049 0.006215428 0.70562232
0.26249963 0.0062203705 0.70618343
0.26519844 0.0062253154 0.70674479
0.26790163 0.0062302705 0.70730734
0.27060977 0.0062352479 0.70787239
0.27332082 0.0062402012 0.70843476
0.27603725 0.0062451866 0.70900071
0.2787576 0.0062501705 0.70956653
0.28148282 0.0062551741 0.71013457
0.28421205 0.0062601776 0.7107026
0.28694564 0.006265189 0.71127152
0.28968364 0.0062702084 0.7118414
0.29242599 0.0062752357 0.71241212
0.29517275 0.0062802713 0.71298379
0.29792392 0.0062853149 0.71355641
0.30067903 0.0062903562 0.71412873
0.30343959 0.0062954272 0.71470439
0.30620417 0.0063004973 0.71528
0.30897272 0.0063055656 0.71585542
0.31174618 0.0063106515 0.71643281
0.31452417 0.0063157463 0.71701121
0.22379953 0.0091613838 0.74290675
0.22519881 0.0091120908 0.73890948
0.22658314 0.0090633249 0.73495507
0.2279527 0.0090150787 0.73104268
0.22930776 0.0089673428 0.72717172
0.23064858 0.0089201108 0.72334164
0.2319753 0.0088733723 0.71955156
0.23328821 0.0088271219 0.71580106
0.23458752 0.0087813511 0.71208948
0.23587333 0.0087360488 0.70841587
0.23714583 0.0086912084 0.70477968
0.23878129 0.0086604608 0.70228636
0.24144648 0.0086673098 0.7028417
0.24411595 0.0086741708 0.70339811
0.24678996 0.0086810533 0.70395625
0.24946791 0.0086879376 0.70451444
0.2521506 0.008694848 0.70507485
0.25483665 0.0087017389 0.70563364
0.25752771 0.0087086661 0.70619535
0.26022235 0.0087155802 0.70675606
0.27787572 0.0092186257 0.74754852
0.27879727 0.0091623515 0.74298525
0.27954948 0.0091016106 0.7380597
0.28007537 0.0090346895 0.73263294
0.28026626 0.0089582819 0.72643697
0.27965525 0.0088578584 0.71829355
0.27920854 0.0087643936 0.71071434
0.28193849 0.0087714205 0.71128416
0.2846725 0.0087784473 0.71185398
0.28741089 0.0087854862 0.71242476
0.29015371 0.0087925373 0.71299654
0.29290086 0.0087995958 0.71356899
0.29565203 0.0088066561 0.71414149
0.29840854 0.0088137547 0.71471709
0.30116847 0.0088208336 0.71529114
0.30393353 0.0088279452 0.71586782
0.306703 0.0088350661 0.71644527
0.30947694 0.0088421991 0.71702367
0.31225535 0.0088493414 0.71760291
0.31503826 0.0088564977 0.71818316
0.31782568 0.0088636642 0.71876431
0.22340043 0.011757918 0.74158198
0.22479941 0.011694768 0.73759902
0.2261834 0.01163229 0.73365849
0.2275527 0.011570476 0.72975987
0.22890754 0.011509318 0.72590256
0.23024811 0.011448801 0.72208571
0.23157464 0.011388917 0.71830875
0.23288731 0.011329653 0.71457094
0.23418629 0.011270998 0.71087152
0.23547187 0.011212947 0.70721018
0.2367443 0.011155491 0.7035864
0.23916352 0.011152703 0.70341057
0.24183328 0.011161536 0.70396769
0.24450727 0.011170383 0.70452565
0.24718592 0.011179263 0.70508569
0.24986854 0.011188144 0.70564586
0.25255555 0.011197044 0.70620716
0.25524667 0.011205952 0.70676899
0.25794283 0.011214905 0.70733374
0.27648494 0.01190605 0.75092483
0.27769485 0.011844804 0.74706197
0.27878574 0.011779679 0.74295449
0.27974525 0.011710266 0.73857653
0.28054437 0.01163548 0.73385978
0.28115126 0.011554162 0.72873092
0.28147992 0.011462983 0.7229802
0.28128114 0.011352154 0.71599013
0.28239566 0.011295827 0.71243751
0.28513446 0.011304891 0.71300918
0.28787673 0.011313933 0.71357948
0.29062501 0.011323052 0.71415466
0.29337737 0.011332173 0.71472991
0.29613322 0.011341272 0.71530378
0.29889441 0.011350421 0.71588081
0.30165961 0.011359567 0.71645766
0.30442953 0.011368738 0.71703607
0.30720392 0.011377922 0.71761537
0.30998281 0.011387124 0.71819568
0.31276616 0.011396337 0.71877682
0.31555405 0.011405568 0.71935898
0.31834647 0.011414814 0.71994209
0.22158903 0.014422955 0.74427396
0.22300279 0.014345208 0.74026197
0.22440141 0.014268298 0.73629314
0.22578509 0.014192206 0.7323665
0.22715411 0.014116921 0.72848159
0.22850867 0.014042432 0.72463769
0.22984895 0.01396872 0.7208339
0.23117511 0.013895772 0.71706951
0.2324875 0.013823581 0.71334422
0.23378633 0.013752136 0.70965743
0.23507181 0.013681428 0.70600861
0.23687689 0.013642125 0.70398045
0.23954701 0.013652938 0.70453846
0.24222137 0.01366377 0.70509738
0.24489994 0.013674617 0.70565712
0.24758346 0.013685518 0.70621967
0.25027055 0.013696398 0.70678109
0.25296214 0.013707308 0.70734411
0.25565821 0.013718246 0.70790851
0.27454913 0.014589568 0.75287175
0.27599192 0.014525891 0.74958581
0.27732754 0.014457834 0.74607384
0.2785548 0.01438546 0.74233907
0.27967218 0.014308809 0.73838365
0.2806606 0.014227035 0.73416382
0.2815122 0.014139881 0.72966641
0.28218159 0.014045238 0.72478247
0.2826072 0.013940265 0.71936554
0.28285325 0.01382838 0.71359187
0.28559768 0.013839536 0.71416754
0.28834599 0.013850681 0.71474266
0.29109794 0.013861806 0.71531677
0.29385537 0.013873 0.7158944
0.29661623 0.013884163 0.71647048
0.29938197 0.013895365 0.71704853
0.30215231 0.013906592 0.71762782
0.30492714 0.013917837 0.71820813
0.30770648 0.0139291 0.71878934
0.31049034 0.013940383 0.71937156
0.31327865 0.013951682 0.71995461
0.31607154 0.013962999 0.72053868
0.31886894 0.013974336 0.7211237
0.22119316 0.017014859 0.7429443
0.22260657 0.016923307 0.73894674
0.22400482 0.016832732 0.73499185
0.22538817 0.016743122 0.73107904
0.22675686 0.016654458 0.7272076
0.22811098 0.01656672 0.72337657
0.22945091 0.0164799 0.7195856
0.23077686 0.016393986 0.7158342
0.23208907 0.016308961 0.71212173
0.23338775 0.016224816 0.70844758
0.23467308 0.016141534 0.7048111
0.23725702 0.016148383 0.70511013
0.23993172 0.016161203 0.70566994
0.24261068 0.016174044 0.70623064
0.24529387 0.016186906 0.70679218
0.24798135 0.016199788 0.70735466
0.25067407 0.01621275 0.70792067
0.25336981 0.016225653 0.70848405
0.27213734 0.017257489 0.75353867
0.27378896 0.017194474 0.75078714
0.27534333 0.017126618 0.74782419
0.27679628 0.0170538 0.74464464
0.27814725 0.016976124 0.74125296
0.2793965 0.016893743 0.73765582
0.28053349 0.016806154 0.73383129
0.28155807 0.016713493 0.72978532
0.28243893 0.016614055 0.72544342
0.28316262 0.016507238 0.72077936
0.28367609 0.016390175 0.71566778
0.28606248 0.016382432 0.71532977
0.28881466 0.016395591 0.71590436
0.29157251 0.016408842 0.71648294
0.2943342 0.01642208 0.71706098
0.29710051 0.016435347 0.71764028
0.29987136 0.016448639 0.71822065
0.30264661 0.01646195 0.71880186
0.30542642 0.016475284 0.71938407
0.30821067 0.016488638 0.71996713
0.31099951 0.016502015 0.72055125
0.31379285 0.016515413 0.72113627
0.31659073 0.016528832 0.72172225
0.31939316 0.016542275 0.72230917
0.21937039 0.019703927 0.74564618
0.22079875 0.019597521 0.74161953
0.22221172 0.019492257 0.73763603
0.22360963 0.019388117 0.73369515
0.22499247 0.019285068 0.72979552
0.22636072 0.019183112 0.72593725
0.22771457 0.019082226 0.72211945
0.22905423 0.018982396 0.71834159
0.23037998 0.018883605 0.71460313
0.23169202 0.018785838 0.71090341
0.23299052 0.018689079 0.70724177
0.23496331 0.018647881 0.70568275
0.23763835 0.018662699 0.70624346
0.24031766 0.018677538 0.70680505
0.24300124 0.018692402 0.70736754
0.24568908 0.01870729 0.70793092
0.2483812 0.018722201 0.7084952
0.25107861 0.018737208 0.70906311
0.25377914 0.018752154 0.7096287
0.2711105 0.019837355 0.75069541
0.27288243 0.019774089 0.74830127
0.27455074 0.019704599 0.74567157
0.27611795 0.019629238 0.74281973
0.27757987 0.019547878 0.73974091
0.27895382 0.019461894 0.73648703
0.28021309 0.019369569 0.73299319
0.28137851 0.019272501 0.72931993
0.28242183 0.019168902 0.72539949
0.28334042 0.019058773 0.72123194
0.28411654 0.018941103 0.71677899
0.28652996 0.018933697 0.71649873
0.28928676 0.018948914 0.71707457
0.29204857 0.018964194 0.7176528
0.29481533 0.018979529 0.71823311
0.29758656 0.018994886 0.71881431
0.30036232 0.019010274 0.71939659
0.30314255 0.019025683 0.7199797
0.30592731 0.019041119 0.72056383
0.30871657 0.019056577 0.72114885
0.31151038 0.019072063 0.72173488
0.31430867 0.019087572 0.72232175
0.31711161 0.019103108 0.72290969
0.31991905 0.019118669 0.72349852
0.21897776 0.02229115 0.74431163
0.2204057 0.022170987 0.74029934
0.22181812 0.022052092 0.73632944
0.22321546 0.021934466 0.73240185
0.22459801 0.021818092 0.72851604
0.22596595 0.021702943 0.72467119
0.22731951 0.021589004 0.72086668
0.22865894 0.021476256 0.71710193
0.22998448 0.021364678 0.71337634
0.2312963 0.021254255 0.70968926
0.23266588 0.021151444 0.70625633
0.23534127 0.021168262 0.70681792
0.23802093 0.021185108 0.70738041
0.24070485 0.021201981 0.7079438
0.24339306 0.021218883 0.70850813
0.24608554 0.021235809 0.70907331
0.24878234 0.021252763 0.70963943
0.25148344 0.021269742 0.71020639
0.26787555 0.022432927 0.74904567
0.26992041 0.022383643 0.74740005
0.27182528 0.022323817 0.7454024
0.27361503 0.022255767 0.74313021
0.27529216 0.022179937 0.7405982
0.276871 0.022097686 0.7378518
0.27834979 0.022009054 0.73489231
0.27973193 0.021914484 0.73173457
0.28101555 0.021813992 0.72837913
0.2821961 0.021707393 0.72481972
0.28326544 0.021594226 0.72104102
0.28423852 0.021475798 0.71708667
0.28699645 0.021493126 0.71766526
0.28975919 0.021510508 0.71824563
0.29252636 0.021527914 0.71882683
0.29529807 0.021545352 0.71940911
0.29807422 0.021562815 0.71999222
0.30085492 0.021580311 0.72057641
0.3036401 0.021597831 0.72116143
0.30642983 0.021615382 0.72174746
0.30922407 0.02163296 0.72233438
0.31202289 0.021650568 0.72292233
0.31482625 0.021668203 0.72351116
0.31763422 0.02168587 0.72410107
0.3204467 0.021703562 0.72469181
0.32326385 0.021721287 0.72528362
0.21714354 0.025004406 0.7470234
0.21858642 0.024869114 0.74298143
0.22001372 0.02473527 0.7389828
0.22142574 0.02460286 0.73502696
0.22282271 0.024471859 0.7311132
0.22420493 0.02434225 0.72724104
0.22557254 0.024214001 0.72340953
0.22692584 0.024087099 0.71961826
0.22826502 0.023961522 0.71586651
0.22959033 0.023837246 0.71215373
0.23090194 0.023714254 0.70847923
0.23304044 0.023677904 0.70739329
0.23572046 0.023696765 0.70795673
0.23840474 0.023715654 0.70852107
0.24109328 0.023734571 0.70908624
0.24378616 0.023753524 0.70965242
0.24648331 0.023772502 0.71021944
0.24918477 0.023791511 0.71078736
0.25189057 0.023810552 0.71135622
0.26630655 0.024925243 0.74465835
0.26853722 0.024888815 0.74357003
0.27060005 0.024837686 0.74204254
0.27252844 0.024775311 0.74017906
0.27432272 0.024702046 0.7379902
0.27602318 0.024621787 0.73559237
0.27760667 0.024532681 0.7329303
0.27910134 0.024437444 0.73008502
0.28049609 0.024335276 0.72703272
0.28179729 0.024226915 0.72379535
0.28299099 0.02411134 0.72034246
0.28470293 0.02404158 0.71825832
0.28746596 0.024061028 0.71883935
0.29023361 0.024080519 0.71942163
0.29300573 0.024100037 0.7200048
0.29578236 0.024119591 0.72058898
0.29856345 0.024139173 0.721174
0.30134913 0.024158791 0.72176009
0.30413929 0.024178438 0.72234702
0.306934 0.024198117 0.72293496
0.30973327 0.024217829 0.72352386
0.31253713 0.024237573 0.72411376
0.31534553 0.024257349 0.72470456
0.31815854 0.024277158 0.72529638
0.32097611 0.024296997 0.72588909
0.32379836 0.024316872 0.72648287
0.2167539 0.027586861 0.74568301
0.21819626 0.027437853 0.74165529
0.21962313 0.027290449 0.7376709
0.22103475 0.02714462 0.73372906
0.22243139 0.027000342 0.72982919
0.22381322 0.026857587 0.72597045
0.22518054 0.026716335 0.72215235
0.22653352 0.026576556 0.71837413
0.22787248 0.026438242 0.71463543
0.22919752 0.026301354 0.71093529
0.23073587 0.026191639 0.70796967
0.23341623 0.026212517 0.708534
0.23610085 0.026233429 0.70909923
0.23878977 0.026254373 0.70966536
0.24148299 0.026275352 0.71023244
0.24418052 0.026296364 0.71080041
0.24688236 0.02631741 0.71136928
0.24958853 0.026338488 0.71193904
0.25229982 0.026359681 0.7125119
0.264393 0.027351001 0.73930764
0.26691452 0.027342463 0.73907685
0.26917896 0.027308011 0.73814559
0.27126974 0.027256768 0.7367605
0.27320409 0.027190929 0.73498082
0.275022 0.027114844 0.73292422
0.2767275 0.027029198 0.73060918
0.27832878 0.026935043 0.72806412
0.27983409 0.026833408 0.72531688
0.28124514 0.026724651 0.72237718
0.28255451 0.026608273 0.71923143
0.28517047 0.02661591 0.71943784
0.28793707 0.026637351 0.72001743
0.29070961 0.02665896 0.7206015
0.29348665 0.026680605 0.72118658
0.29626822 0.026702287 0.72177267
0.29905432 0.026724003 0.72235966
0.30184495 0.026745757 0.72294766
0.30464014 0.026767543 0.72353655
0.30743986 0.026789367 0.72412646
0.31024417 0.026811223 0.72471726
0.31305304 0.026833119 0.72530907
0.31586653 0.026855048 0.72590184
0.31868461 0.026877016 0.72649562
0.32150728 0.026899016 0.7270903
0.32433462 0.026921056 0.72768605
0.21764934 0.030338999 0.7487635
0.21780752 0.029997442 0.74033391
0.21923395 0.029836571 0.73636365
0.22064516 0.029677419 0.73243576
0.22204138 0.029519953 0.72854954
0.22342287 0.02936415 0.72470433
0.22478986 0.029209981 0.72089946
0.22614256 0.029057423 0.71713436
0.22748123 0.028906455 0.71340847
0.22880605 0.028757045 0.70972103
0.23110825 0.028732376 0.70911223
0.23379321 0.028755315 0.70967835
0.23648249 0.028778292 0.71024543
0.23917606 0.028801305 0.7108134
0.24187395 0.028824355 0.71138227
0.24457614 0.028847441 0.71195203
0.24728313 0.02887062 0.71252406
0.24999468 0.028893858 0.71309757
0.25270957 0.028917016 0.71366912
0.25542963 0.028940303 0.71424383
0.26491365 0.02972202 0.73353654
0.26750517 0.029722795 0.73355567
0.26980355 0.029691299 0.73277837
0.27191028 0.029639509 0.73150015
0.27386865 0.029572669 0.72985059
0.27570117 0.029493611 0.72789943
0.27741787 0.029403735 0.7256813
0.2790347 0.029305013 0.72324485
0.28054941 0.029197449 0.72059017
0.2828691 0.029174842 0.72003222
0.28563723 0.029198473 0.72061545
0.28841111 0.029222272 0.72120279
0.2911872 0.029245874 0.72178531
0.29396918 0.029269658 0.72237229
0.29675573 0.029293483 0.72296029
0.29954678 0.029317345 0.72354919
0.30234244 0.029341249 0.72413915
0.30514261 0.029365188 0.72472996
0.3079474 0.029389171 0.72532183
0.31075674 0.029413188 0.7259146
0.31357068 0.029437248 0.72650838
0.31638923 0.029461347 0.72710311
0.31921241 0.029485485 0.72769886
0.3220402 0.02950966 0.72829551
0.32487267 0.029533878 0.72889322
0.21883075 0.032759093 0.74381191
0.21884614 0.032373689 0.73506111
0.22025691 0.032201301 0.73114699
0.22165276 0.032030746 0.72727442
0.22303388 0.031861983 0.72344255
0.22440054 0.03169499 0.71965092
0.22575298 0.031529747 0.71589893
0.22709134 0.031366207 0.71218574
0.22879647 0.031256348 0.70969129
0.23148181 0.031281326 0.71025842
0.23417142 0.031306341 0.7108264
0.23686536 0.031331398 0.71139532
0.23956358 0.031356491 0.71196508
0.24226631 0.031381648 0.71253628
0.24497387 0.031406906 0.71310979
0.24768542 0.031432159 0.71368319
0.25040036 0.031457335 0.7142548
0.25312027 0.031482622 0.71482897
0.25584507 0.031508014 0.71540552
0.26206344 0.031958956 0.72564441
0.26541001 0.03205435 0.72781032
0.26806241 0.032064881 0.72804946
0.27040318 0.03203829 0.72744572
0.2725372 0.031987935 0.72630239
0.27451795 0.03192069 0.72477555
0.27635956 0.031838659 0.72291297
0.27809581 0.031746097 0.72081131
0.28056419 0.031738032 0.72062814
0.28333285 0.031763773 0.72121269
0.28610656 0.031789616 0.72179943
0.28888428 0.031815451 0.722386
0.2916677 0.031841453 0.72297639
0.29445329 0.03186724 0.72356188
0.29724479 0.03189322 0.72415179
0.30004087 0.031919241 0.72474265
0.30284154 0.031945311 0.72533458
0.30564678 0.031971417 0.72592735
0.3084566 0.031997573 0.72652119
0.31127101 0.032023765 0.72711593
0.31409004 0.032050006 0.72771168
0.31691366 0.032076281 0.72830832
0.31974199 0.032102607 0.7289061
0.32257488 0.032128975 0.7295047
0.32541248 0.032155383 0.73010439
0.32825473 0.032181837 0.73070502
0.22001053 0.035570566 0.74782205
0.21999665 0.035147395 0.73892546
0.21998309 0.034734171 0.73023802
0.22126549 0.034532763 0.72600371
0.22264624 0.034351133 0.72218519
0.2240126 0.034171414 0.7184068
0.22536471 0.033993561 0.71466768
0.22670279 0.033817545 0.71096718
0.2291666 0.033811465 0.71083939
0.23185658 0.033838529 0.71140838
0.23455085 0.033865631 0.71197814
0.23724948 0.033892781 0.71254897
0.23995286 0.033920038 0.71312201
0.24266045 0.033947315 0.71369547
0.24537155 0.033974521 0.71426743
0.24808794 0.034001902 0.71484303
0.25080836 0.034029275 0.71541858
0.25353318 0.034056697 0.71599507
0.25626239 0.034084164 0.71657246
0.25899607 0.034111675 0.71715093
0.26215443 0.034194056 0.71888286
0.26585037 0.034344308 0.72204167
0.26860633 0.034371424 0.72261178
0.27098757 0.034350537 0.72217262
0.273148 0.034302309 0.72115868
0.27549103 0.034277685 0.72064102
0.27825555 0.034305479 0.72122538
0.28102422 0.034333277 0.72180974
0.28379869 0.034361277 0.7223984
0.28657705 0.034389243 0.7229864
0.28935993 0.03441726 0.72357541
0.2921474 0.034445327 0.72416544
0.29494026 0.034473538 0.72475857
0.29773551 0.034501541 0.72534728
0.3005366 0.034529738 0.72594011
0.30334231 0.034557987 0.72653395
0.30615258 0.034586273 0.72712868
0.30896747 0.034614615 0.72772449
0.31178698 0.034642998 0.72832119
0.31461111 0.034671426 0.72891891
0.31743985 0.034699902 0.72951758
0.32027331 0.03472843 0.73011732
0.32311136 0.034756996 0.7307179
0.32595411 0.034785617 0.73131961
0.32880154 0.03481428 0.73192221
0.22120309 0.038412511 0.75187558
0.22117488 0.037953086 0.74288291
0.2211473 0.037504513 0.73410267
0.22112037 0.037066422 0.72552758
0.22225998 0.036831655 0.7209323
0.22362597 0.036639284 0.7171669
0.22497776 0.036448911 0.7134406
0.22684762 0.03634575 0.71142137
0.22953792 0.036374863 0.71199119
0.23223257 0.036404025 0.71256202
0.23493168 0.036433257 0.71313417
0.23763502 0.036462516 0.71370691
0.24034302 0.036491871 0.7142815
0.2430547 0.03652117 0.71485502
0.24577136 0.036550611 0.71543127
0.24849243 0.036580104 0.71600854
0.25121766 0.036609609 0.71658605
0.25394729 0.036639161 0.71716452
0.25668129 0.036668759 0.71774381
0.25941977 0.036698405 0.71832412
0.26216233 0.036728054 0.7189045
0.26491022 0.036757879 0.71948826
0.26766193 0.036787659 0.72007114
0.27041849 0.036817543 0.7206561
0.27317879 0.036847372 0.72123998
0.27594355 0.036877248 0.72182477
0.27871394 0.036907326 0.72241348
0.28148761 0.036937289 0.72299999
0.2842662 0.036967356 0.72358847
0.28704935 0.036997471 0.72417796
0.28983724 0.037027664 0.72476894
0.29262945 0.037057877 0.72536033
0.29542679 0.037088212 0.72595406
0.29822904 0.037118632 0.72654957
0.30103397 0.037148874 0.7271415
0.30384475 0.037179314 0.72773731
0.30666006 0.037209798 0.72833401
0.30948007 0.037240338 0.72893178
0.31230465 0.037270926 0.72953045
0.3151339 0.037301563 0.7301302
0.31796777 0.037332252 0.73073083
0.32080638 0.037362993 0.73133254
0.32364959 0.037393779 0.73193514
0.32649755 0.03742462 0.73253888
0.32935017 0.03745551 0.73314351
0.22240868 0.041285444 0.7559734
0.22236578 0.04078899 0.74688292
0.22232392 0.040304337 0.7380085
0.22228305 0.039831065 0.72934246
0.22224313 0.039368782 0.72087765
0.22324067 0.039098646 0.71593124
0.22459215 0.038895845 0.71221775
0.2272155 0.038915362 0.71257508
0.22991079 0.038946636 0.71314776
0.23261021 0.038977928 0.71372074
0.23531365 0.039009217 0.71429366
0.23802194 0.039040636 0.71486896
0.24073438 0.039072074 0.71544462
0.24345122 0.039103564 0.71602124
0.24617241 0.039135102 0.71659875
0.24889804 0.039166696 0.71717727
0.25162807 0.039198339 0.71775669
0.25436246 0.039230034 0.718337
0.2571013 0.039261773 0.7189182
0.25984457 0.039293569 0.71950042
0.26259184 0.039325349 0.72008234
0.26534456 0.039357327 0.7206679
0.2681013 0.03938929 0.72125316
0.27086246 0.039421298 0.72183925
0.27362788 0.039453324 0.72242564
0.27639759 0.039485369 0.72301245
0.27917233 0.039517544 0.72360158
0.28195113 0.039549705 0.72419047
0.28473464 0.039581943 0.7247808
0.28752324 0.039614312 0.72537351
0.2903161 0.039646693 0.72596639
0.2931135 0.039679118 0.72656018
0.2959154 0.039711591 0.72715473
0.29872242 0.039744183 0.72775155
0.30153409 0.039776836 0.72834945
0.30434883 0.039809342 0.72894466
0.30716926 0.039842036 0.72954333
0.30999434 0.039874788 0.73014307
0.31282404 0.039907593 0.73074377
0.31565845 0.039940454 0.73134547
0.31849748 0.039973367 0.73194814
0.32134125 0.04000634 0.73255187
0.32418966 0.040039361 0.7331565
0.32704279 0.040072434 0.73376215
0.32990065 0.04010557 0.73436886
0.2235696 0.043655604 0.75092632
0.22351313 0.043134112 0.74195606
0.22345799 0.042624936 0.73319763
0.22340418 0.042127647 0.72464371
0.22335157 0.04164182 0.7162869
0.22488929 0.041460037 0.71316004
0.2275847 0.041493345 0.71373296
0.23028444 0.041526701 0.71430677
0.23298854 0.041560117 0.71488154
0.23569702 0.041593589 0.71545732
0.23840983 0.041627113 0.71603394
0.241127 0.041660685 0.71661144
0.24384859 0.041694321 0.71718997
0.24657457 0.041728005 0.71776938
0.24930495 0.041761745 0.71834975
0.25203976 0.041795541 0.71893108
0.25477898 0.041829389 0.7195133
0.25752267 0.041863289 0.72009647
0.26027077 0.041897248 0.72068059
0.26302245 0.041931115 0.72126311
0.26578054 0.041965347 0.72185194
0.26854208 0.04199947 0.72243893
0.27130789 0.042033616 0.72302628
0.27407846 0.042067856 0.72361523
0.27685311 0.042102087 0.72420406
0.27963281 0.042136449 0.7247951
0.2824176 0.042170953 0.72538865
0.28520548 0.042205293 0.72597933
0.28799874 0.042239815 0.72657311
0.29079655 0.042274386 0.72716779
0.29359901 0.042309027 0.72776365
0.29640603 0.042343721 0.72836041
0.29921764 0.042378467 0.72895807
0.30203438 0.042413339 0.72955793
0.30485556 0.042448241 0.73015827
0.30768013 0.042483032 0.7307567
0.31051031 0.042518012 0.73135841
0.31334516 0.042553049 0.73196107
0.31618473 0.042588148 0.73256487
0.31902894 0.0426233 0.7331695
0.3218779 0.042658515 0.73377526
0.3247315 0.042693783 0.73438191
0.32758987 0.042729113 0.73498958
0.33045295 0.0427645 0.73559833
0.22478652 0.046553422 0.7550137
0.22471513 0.045994323 0.74594611
0.22464544 0.045448501 0.73709381
0.22457741 0.044915482 0.72844923
0.22451094 0.044394817 0.72000498
0.22525491 0.044044256 0.71431947
0.227955 0.044079695 0.71489424
0.23065944 0.044115193 0.71546996
0.23336823 0.044150747 0.71604657
0.23608141 0.044186357 0.71662414
0.23879898 0.044222035 0.71720272
0.24152093 0.04425776 0.71778214
0.24424726 0.044293545 0.71836251
0.24697803 0.04432939 0.71894383
0.24971321 0.044365291 0.71952611
0.25245282 0.044401251 0.72010928
0.2551969 0.044437271 0.72069347
0.25794542 0.04447335 0.72127861
0.26069826 0.044509463 0.72186428
0.26345542 0.044545602 0.72245044
0.26621792 0.04458195 0.72303993
0.26898432 0.044618249 0.72362864
0.2717548 0.044654544 0.7242173
0.27453053 0.044691015 0.72480875
0.27731019 0.044727448 0.72539967
0.28009477 0.044764008 0.72599256
0.282884 0.044800632 0.72658658
0.28567737 0.044837255 0.72718054
0.28847575 0.044874005 0.72777653
0.2912786 0.044910796 0.72837323
0.2940861 0.044947654 0.728971
0.29689819 0.044984572 0.72956973
0.29971492 0.045021556 0.73016953
0.30253628 0.045058593 0.73077023
0.30536288 0.045095783 0.73137337
0.30819353 0.045132946 0.73197609
0.31102803 0.045170046 0.7325778
0.31386808 0.045207333 0.73318255
0.3167128 0.045244686 0.73378831
0.3195622 0.045282092 0.73439497
0.32241634 0.045319568 0.73500276
0.32527518 0.045357097 0.73561144
0.32813877 0.045394693 0.73622113
0.33100712 0.045432352 0.7368319
0.33388022 0.04547007 0.73744363
0.22601676 0.049482957 0.7591458
0.22593012 0.048885465 0.74997932
0.22584558 0.048302233 0.74103165
0.22576304 0.047732756 0.73229498
0.22568238 0.047176544 0.7237618
0.22562169 0.046636883 0.71548259
0.22832648 0.046674475 0.71605927
0.23103565 0.046712127 0.7166369
0.23374918 0.046749834 0.71721542
0.23646709 0.046787605 0.7177949
0.23918939 0.046825435 0.71837527
0.24191611 0.046863329 0.71895659
0.24464725 0.046901286 0.71953893
0.24738282 0.046939302 0.72012216
0.25012282 0.046977382 0.72070634
0.25286728 0.047015522 0.72129148
0.25561616 0.047053721 0.72187752
0.25836954 0.047091987 0.72246456
0.26112717 0.047130272 0.72305191
0.26388994 0.047168732 0.72364193
0.26665673 0.047207169 0.72423166
0.26942801 0.04724567 0.72482228
0.27220339 0.047284156 0.72541273
0.27498406 0.047322839 0.72600621
0.27776876 0.047361493 0.72659922
0.28055835 0.047400266 0.72719407
0.28335249 0.047439106 0.72778994
0.28615192 0.047478117 0.72838843
0.28895405 0.04751689 0.72898322
0.29176223 0.047555957 0.72958261
0.29457477 0.04759505 0.73018235
0.29739198 0.047634214 0.73078316
0.30021378 0.047673434 0.73138487
0.30304027 0.047712721 0.7319876
0.30587143 0.047752079 0.73259139
0.30870751 0.047791541 0.73319679
0.3115482 0.047831051 0.73380297
0.31439269 0.047870491 0.73440802
0.31724259 0.047910105 0.73501581
0.32009721 0.047949784 0.73562449
0.32295656 0.047989529 0.73623425
0.32582065 0.048029341 0.73684502
0.32868952 0.048069216 0.7374568
0.33156314 0.048109163 0.73806965
0.33444157 0.048149172 0.73868346
0.22715834 0.051808041 0.75405639
0.22705862 0.051186625 0.74501181
0.22696124 0.050579932 0.7361815
0.22686611 0.04998745 0.72755802
0.22677238 0.04940851 0.71913165
0.22869919 0.049277727 0.71722811
0.23141308 0.049317542 0.71780765
0.23413135 0.049357422 0.71838808
0.23685402 0.049397361 0.7189694
0.23958109 0.049437366 0.71955168
0.24231261 0.049477443 0.72013497
0.24504854 0.049517579 0.72071916
0.24778894 0.049557786 0.72130436
0.25053376 0.049598053 0.72189045
0.25328305 0.049638387 0.7224775
0.25603682 0.049678788 0.7230655
0.25879508 0.049719252 0.72365445
0.26155746 0.049759712 0.72424334
0.26432511 0.049800381 0.72483528
0.26709694 0.049841054 0.72542727
0.26987317 0.049881771 0.72601992
0.27265364 0.0499225 0.72661269
0.27543911 0.049963374 0.7272076
0.27822882 0.050004255 0.72780263
0.28102341 0.050045267 0.72839952
0.2838226 0.050086338 0.72899735
0.28662637 0.050127484 0.7295962
0.28943458 0.05016866 0.73019552
0.29224765 0.050209947 0.73079646
0.29506513 0.050251264 0.73139781
0.29788741 0.050292678 0.73200059
0.30071434 0.050334159 0.73260432
0.30354598 0.050375715 0.73320913
0.30638224 0.05041733 0.73381484
0.3092232 0.050459016 0.73442161
0.31206891 0.050500777 0.7350294
0.31491965 0.050542664 0.73563904
0.31777418 0.050584462 0.73624742
0.32063404 0.050626423 0.73685819
0.32349861 0.050668459 0.73746997
0.326368 0.050710566 0.73808283
0.32924211 0.050752737 0.73869663
0.33212107 0.050794985 0.73931158
0.33500475 0.050837297 0.73992741
0.2380724 0.058448911 0.80921483
0.24040213 0.058322411 0.80746347
0.22839998 0.054762568 0.75817806
0.22828475 0.054102164 0.74903488
0.22817221 0.053457491 0.7401095
0.22806221 0.052827969 0.73139387
0.22795406 0.052212942 0.72287893
0.22907311 0.051889487 0.71840078
0.23179173 0.051931482 0.71898216
0.23451479 0.051973548 0.71956456
0.23724222 0.052015673 0.72014779
0.2399741 0.052057873 0.72073203
0.2427104 0.052100137 0.72131717
0.24545117 0.052142475 0.72190332
0.24819636 0.052184876 0.72249037
0.25094604 0.052227352 0.72307843
0.2537002 0.052269891 0.72366738
0.25645885 0.052312505 0.72425735
0.25922203 0.052355185 0.72484827
0.26198891 0.05239778 0.725438
0.26476198 0.052440777 0.72603327
0.26753861 0.052483652 0.72662687
0.27031979 0.052526597 0.72722143
0.27310541 0.052569583 0.72781658
0.27589566 0.052612662 0.72841299
0.27869043 0.052655797 0.72901016
0.28149003 0.052699044 0.72960895
0.28429425 0.052742373 0.73020881
0.28710306 0.052785765 0.73080957
0.28991708 0.052829333 0.73141277
0.29273385 0.052872632 0.73201221
0.29555711 0.052916337 0.73261732
0.29838449 0.05296002 0.73322207
0.30121657 0.053003777 0.73382789
0.30405334 0.053047601 0.73443466
0.30689475 0.0530915 0.73504239
0.30974093 0.053135477 0.73565125
0.31259179 0.053179517 0.73626101
0.3154473 0.053223617 0.73687154
0.31830803 0.053267874 0.73748428
0.32117265 0.053312059 0.738096
0.3240425 0.053356398 0.73870987
0.32691714 0.053400811 0.73932475
0.32979658 0.053445294 0.73994064
0.33268082 0.053489856 0.74055761
0.33556986 0.053534489 0.74117553
0.23222655 0.061262216 0.80871505
0.23456755 0.061129723 0.80696601
0.23689847 0.060997806 0.8052246
0.23921931 0.060866453 0.80349058
0.22965527 0.057749569 0.76234502
0.22952418 0.05704936 0.75310165
0.22939621 0.056365926 0.74407971
0.22927098 0.0556986 0.73527038
0.22914812 0.055046756 0.7266655
0.22944826 0.054509807 0.71957731
0.23217165 0.054553993 0.7201606
0.23489946 0.054598253 0.72074485
0.23763172 0.054642588 0.72133011
0.2403684 0.05468699 0.72191626
0.24310951 0.054731458 0.7225033
0.24585509 0.054776005 0.72309136
0.24860515 0.054820623 0.72368032
0.2513597 0.054865312 0.72427028
0.25411874 0.054910082 0.72486126
0.25688231 0.05495492 0.7254532
0.25965035 0.054999828 0.72604603
0.26242262 0.055044748 0.72663897
0.26520017 0.055089891 0.7272349
0.26798174 0.055135 0.72783041
0.27076793 0.055180196 0.72842699
0.27355865 0.055225454 0.72902447
0.27635375 0.05527075 0.72962242
0.27915356 0.055316143 0.73022163
0.28195819 0.055361655 0.73082244
0.28476748 0.055407245 0.73142427
0.28758135 0.055452909 0.73202705
0.29039991 0.055498652 0.73263091
0.29322305 0.055544455 0.73323554
0.29605076 0.05559032 0.733841
0.29888326 0.055636276 0.73444766
0.30172047 0.055682316 0.73505545
0.30456239 0.055728436 0.73566425
0.30740902 0.055774633 0.73627412
0.31026036 0.055820901 0.73688489
0.31311646 0.055867251 0.73749673
0.31597728 0.055913676 0.73810959
0.31884286 0.055960178 0.73872346
0.32171345 0.056006797 0.73933887
0.32458821 0.056053385 0.73995388
0.32746819 0.056100126 0.7405709
0.3303529 0.056146935 0.74118882
0.33324251 0.056193836 0.74180794
0.33613688 0.056240801 0.74242795
0.23155229 0.063925475 0.80636698
0.23341419 0.063658416 0.80299819
0.23573612 0.063521706 0.80127376
0.23804811 0.063385591 0.79955673
0.23092443 0.060769584 0.76655799
0.23077714 0.060028739 0.75721282
0.23063341 0.059305731 0.74809271
0.23049265 0.05859983 0.73918831
0.23035476 0.057910416 0.73049194
0.23022009 0.05723704 0.72199786
0.23255281 0.057185117 0.72134292
0.23528542 0.057231586 0.72192907
0.23802245 0.05727813 0.72251618
0.24076396 0.057324752 0.7231043
0.24350992 0.057371449 0.72369331
0.24626036 0.05741822 0.72428328
0.2490153 0.057465069 0.72487426
0.25177473 0.057511996 0.72546619
0.25453869 0.057558995 0.72605908
0.25730714 0.057606079 0.72665298
0.26007995 0.057653192 0.7272473
0.26285776 0.057700485 0.72784382
0.26563981 0.057747789 0.72844052
0.26842639 0.057795152 0.729038
0.27121753 0.057842597 0.72963649
0.27401325 0.057890121 0.73023593
0.27681345 0.0579377 0.73083609
0.2796182 0.057985343 0.73143709
0.28242794 0.058033139 0.73203999
0.28524226 0.058081005 0.73264378
0.28806126 0.058128957 0.73324865
0.29088491 0.058176983 0.73385447
0.29371363 0.05822517 0.73446232
0.29654574 0.058273185 0.73506796
0.29938367 0.058321495 0.73567736
0.30222604 0.058369838 0.73628718
0.30507314 0.058418263 0.73689801
0.30792499 0.05846677 0.73750991
0.31078157 0.058515355 0.73812276
0.31364289 0.058564026 0.73873669
0.31650895 0.058612771 0.73935157
0.31937981 0.058661595 0.73996747
0.32225546 0.058710512 0.74058449
0.32513601 0.058759522 0.74120271
0.32802105 0.058808554 0.74182123
0.33091113 0.058857713 0.7424413
0.33380607 0.058906954 0.74306244
0.33670583 0.058956277 0.74368459
0.33961049 0.059005681 0.74430782
0.2329057 0.067156859 0.81108016
0.23272488 0.066291332 0.80062681
0.23458514 0.066020966 0.79736155
0.23688833 0.065880187 0.79566127
0.23918171 0.065740004 0.7939682
0.23204386 0.063040823 0.76136911
0.231884 0.062277418 0.75214922
0.23172739 0.061532132 0.74314809
0.23157418 0.060804393 0.73435891
0.23142456 0.060093667 0.72577518
0.23293523 0.059824895 0.72252911
0.23567265 0.059873592 0.72311723
0.2384145 0.05992236 0.72370625
0.24116084 0.059971213 0.72429627
0.24391167 0.060020149 0.72488725
0.246667 0.060069162 0.72547925
0.2494268 0.060118254 0.72607213
0.25219113 0.060167424 0.72666597
0.25495997 0.060216676 0.72726083
0.25773337 0.06026601 0.72785664
0.26051107 0.060315367 0.72845274
0.26329386 0.060364932 0.72905135
0.26608092 0.060414508 0.72965008
0.26887247 0.060464144 0.73024958
0.27166864 0.060513869 0.7308501
0.27446938 0.060563665 0.73145151
0.27727479 0.060613558 0.73205411
0.28008446 0.060663454 0.73265672
0.28289923 0.060713537 0.73326159
0.28571868 0.060763698 0.73386741
0.28854278 0.060813949 0.7344743
0.29137155 0.060864277 0.73508215
0.29420501 0.060914692 0.73569101
0.2970432 0.060965199 0.736301
0.29988575 0.061015714 0.73691112
0.30273333 0.061066382 0.73752302
0.30558565 0.061117128 0.73813593
0.30844271 0.061167963 0.73874986
0.31130451 0.06121888 0.7393648
0.31417108 0.061269879 0.73998076
0.31704241 0.061320957 0.74059767
0.31991857 0.061372139 0.74121577
0.32279953 0.061423395 0.74183482
0.32568529 0.061474737 0.74245489
0.32857597 0.061526176 0.74307615
0.33147123 0.061577659 0.74369794
0.33437157 0.061629266 0.74432123
0.3372767 0.061680954 0.74494547
0.34018674 0.061732728 0.74557078
0.23407541 0.069513306 0.80527294
0.23388089 0.068623737 0.79496777
0.23573977 0.068350583 0.79180348
0.23802447 0.068205841 0.79012674
0.23332457 0.066086151 0.7655713
0.23314825 0.06528151 0.75624996
0.23297542 0.064496025 0.74715054
0.23280656 0.063729174 0.738267
0.23264167 0.062980339 0.7295922
0.23331891 0.062473372 0.72371924
0.23606114 0.062524304 0.72430927
0.23880784 0.062575318 0.72490025
0.24155904 0.062626421 0.72549224
0.24431473 0.062677599 0.72608513
0.24707493 0.062728867 0.72667903
0.24983966 0.062780224 0.72727394
0.25260893 0.062831655 0.72786981
0.25538269 0.062883176 0.72846657
0.25816104 0.062934779 0.7290644
0.26094335 0.062986329 0.72966158
0.26373151 0.06303826 0.73026317
0.26652348 0.063090101 0.73086369
0.26932004 0.063142017 0.73146516
0.27212122 0.063194029 0.73206764
0.27492702 0.063246123 0.73267114
0.27773765 0.063298345 0.73327613
0.28055227 0.063350506 0.7338804
0.2833721 0.063402891 0.73448724
0.28619665 0.063455366 0.73509514
0.28902587 0.063507929 0.735704
0.29185981 0.063560575 0.73631394
0.29469839 0.06361331 0.73692477
0.29754198 0.063666187 0.73753732
0.30038968 0.063719019 0.7381494
0.30324233 0.063771993 0.73876303
0.30609986 0.063825078 0.73937804
0.30896214 0.063878253 0.73999399
0.31182921 0.063931517 0.74061102
0.31470108 0.063984863 0.74122906
0.31757769 0.064038299 0.74184805
0.32045916 0.064091831 0.74246824
0.32334545 0.064145453 0.74308938
0.32623658 0.064199165 0.74371159
0.32913253 0.064252965 0.74433482
0.33203351 0.064306885 0.74495947
0.33493894 0.06436082 0.74558425
0.3378495 0.064414889 0.74621063
0.340765 0.064469054 0.74683809
0.23544171 0.072772898 0.80997336
0.23522848 0.071836241 0.79954827
0.23502068 0.070923403 0.78938824
0.23687841 0.070647947 0.78632236
0.23461951 0.069165289 0.76982015
0.23442636 0.068318538 0.76039571
0.23423699 0.067492008 0.75119632
0.23405214 0.066685244 0.74221689
0.23387165 0.065897539 0.73344958
0.23370385 0.065130576 0.72491324
0.23645093 0.065183766 0.72550523
0.23920248 0.065237045 0.72609818
0.24195857 0.065290406 0.72669214
0.24471913 0.065343849 0.72728699
0.24748424 0.065397389 0.72788286
0.25025386 0.065451011 0.72847968
0.25302806 0.06550473 0.72907758
0.2558068 0.06555853 0.72967637
0.2585901 0.065612413 0.73027611
0.26137781 0.065666348 0.73087639
0.26417053 0.065720469 0.73147881
0.26696751 0.065774605 0.73208129
0.2697691 0.065828823 0.73268479
0.27257535 0.065883145 0.73328936
0.27538618 0.065937541 0.73389482
0.27820209 0.065992124 0.73450238
0.28102165 0.066046566 0.73510832
0.28384659 0.06610126 0.73571706
0.28667626 0.06615606 0.73632699
0.28951061 0.066210948 0.73693788
0.2923497 0.066265926 0.73754984
0.29519346 0.066320993 0.73816276
0.298042 0.066376165 0.7387768
0.30089507 0.066431381 0.73939133
0.30375302 0.066486716 0.74000722
0.3066158 0.066542149 0.74062425
0.30948335 0.066597685 0.74124235
0.3123557 0.066653311 0.74186146
0.31523284 0.066709027 0.74248159
0.31811479 0.066764832 0.74310273
0.32100159 0.066820741 0.74372494
0.32389319 0.066876732 0.74434817
0.32678968 0.066932827 0.74497253
0.32969099 0.066989012 0.74559784
0.33259723 0.067045294 0.74622428
0.33550835 0.067101665 0.74685174
0.33842427 0.067158125 0.74748009
0.34134519 0.06721469 0.7481097
0.23682404 0.076070748 0.81472886
0.23659171 0.07508599 0.80418193
0.23636529 0.074126393 0.79390448
0.2361446 0.073191017 0.78388649
0.23800141 0.072913721 0.78091663
0.2357184 0.071389005 0.76458663
0.23551229 0.070520625 0.75528622
0.23531109 0.069673121 0.74620926
0.23511471 0.068845741 0.73734796
0.23492292 0.068037786 0.72869462
0.23684199 0.067852028 0.72670513
0.23959845 0.067907579 0.72730011
0.2423594 0.06796322 0.72789598
0.24512489 0.068018951 0.72849286
0.2478949 0.06807477 0.72909069
0.25066948 0.068130672 0.72968948
0.25344861 0.068186678 0.73028928
0.25623232 0.068242781 0.73089015
0.25902057 0.068298958 0.7314918
0.26181355 0.068355262 0.73209482
0.26461101 0.068411626 0.7326985
0.26741305 0.068468072 0.73330307
0.27021968 0.068524614 0.73390859
0.27303097 0.068581238 0.73451507
0.27584693 0.068637967 0.73512262
0.27866772 0.068694837 0.73573172
0.28149265 0.068751663 0.73634034
0.28432262 0.068808675 0.73695093
0.28715745 0.068865813 0.73756289
0.28999695 0.068923041 0.73817587
0.2928412 0.068980373 0.73878986
0.29569021 0.069037803 0.73940492
0.29854393 0.069095314 0.74002093
0.30140251 0.069152959 0.74063826
0.30426553 0.069210611 0.74125576
0.3071335 0.069268405 0.74187475
0.31000635 0.069326311 0.74249494
0.31288397 0.069384307 0.74311608
0.31576642 0.069442414 0.74373835
0.3186537 0.069500603 0.74436158
0.32154581 0.069558889 0.74498588
0.32444283 0.069617286 0.74561131
0.32734466 0.069675773 0.7462377
0.3302514 0.069734357 0.74686515
0.33316305 0.069793046 0.74749374
0.33607957 0.069851838 0.74812335
0.339001 0.069910713 0.74875396
0.34192738 0.069969699 0.74938565
0.34485868 0.070028774 0.75001842
0.23822272 0.079407573 0.81954062
0.23797081 0.078373618 0.80886954
0.23772536 0.07736624 0.7984727
0.23748614 0.076384433 0.78833973
0.23725294 0.075427234 0.7784608
0.23702477 0.074493498 0.76882404
0.23680153 0.073582396 0.75942081
0.23658368 0.072693311 0.75024486
0.23637106 0.07182546 0.74128801
0.23616344 0.070978083 0.73254251
0.23723437 0.070529141 0.72790909
0.23999567 0.070586964 0.72850591
0.24276157 0.0706449 0.72910386
0.24553198 0.070702925 0.72970271
0.24830693 0.07076104 0.73030251
0.25108644 0.070819259 0.73090333
0.25387055 0.070877567 0.7315051
0.25665924 0.070935972 0.73210788
0.25945237 0.070994429 0.73271126
0.26225051 0.071053095 0.73331672
0.26505297 0.071111776 0.7339223
0.26786005 0.071170546 0.73452884
0.27067176 0.071229413 0.73513639
0.2734881 0.07128837 0.73574489
0.27630916 0.071347438 0.73635453
0.27913484 0.071406581 0.73696494
0.28196523 0.071465835 0.73757648
0.28480029 0.071525194 0.73818904
0.28764027 0.071584679 0.73880303
0.29048496 0.071644276 0.73941809
0.29333439 0.071703963 0.7400341
0.29618862 0.071763761 0.74065125
0.29904756 0.071823649 0.74126935
0.30191129 0.071883641 0.74188852
0.30477938 0.071943633 0.74250764
0.30765292 0.072003879 0.74312943
0.31053108 0.072064169 0.7437517
0.31341404 0.072124571 0.74437505
0.31630182 0.072185062 0.74499935
0.31919441 0.07224565 0.74562466
0.32209194 0.07230635 0.74625117
0.3249943 0.072367154 0.74687868
0.32790154 0.072428055 0.74750721
0.33081374 0.07248906 0.74813688
0.33373076 0.072550163 0.7487675
0.33665276 0.072611377 0.74939924
0.33957967 0.072672695 0.75003207
0.34251153 0.07273411 0.7506659
0.3454484 0.072795637 0.75130093
0.23936608 0.081699803 0.8136121
0.23910119 0.080643594 0.80309385
0.23884304 0.079614349 0.792844
0.2385913 0.078611009 0.78285217
0.23834568 0.077632591 0.7731086
0.23810498 0.076677881 0.76360101
0.23787011 0.07574635 0.75432432
0.23764089 0.074837185 0.74527037
0.23741712 0.073949598 0.73643124
0.23762804 0.073215127 0.72911698
0.24039426 0.073275261 0.72971582
0.24316506 0.073335491 0.73031569
0.2459404 0.073395826 0.7309165
0.24872033 0.073456265 0.73151839
0.25150481 0.073516794 0.73212117
0.25429392 0.073577434 0.73272502
0.25708762 0.073638164 0.73332983
0.25988555 0.073698886 0.73393452
0.26268893 0.073759943 0.73454261
0.2654964 0.073820956 0.73515016
0.26830858 0.073882066 0.73575878
0.27112535 0.07394328 0.73636836
0.27394679 0.074004591 0.73697889
0.27677295 0.074066006 0.73759049
0.27960348 0.074127436 0.73820227
0.28243938 0.074189141 0.7388168
0.28527954 0.07425084 0.7394312
0.28812468 0.074312702 0.74004728
0.29097459 0.074374668 0.74066436
0.29382926 0.074436747 0.74128258
0.29668871 0.074498922 0.74190176
0.29955292 0.074561208 0.742522
0.3024219 0.074623585 0.7431432
0.30529565 0.074686058 0.74376535
0.30817413 0.07474862 0.7443884
0.31105757 0.07481131 0.7450127
0.31394589 0.074874118 0.74563819
0.31683901 0.074937023 0.74626464
0.31973702 0.07500004 0.74689215
0.32263991 0.075063162 0.74752074
0.32554767 0.07512638 0.74815035
0.32846034 0.075189717 0.74878109
0.33137792 0.075253159 0.74941283
0.33430046 0.075316705 0.75004566
0.33722794 0.075380363 0.75067961
0.34016031 0.075444117 0.75131452
0.34309769 0.075507984 0.75195056
0.34604007 0.075571969 0.75258774
0.24077782 0.085065216 0.81841063
0.24049284 0.083959036 0.80776811
0.24021521 0.082881272 0.79739892
0.23994458 0.081830807 0.78729248
0.23968074 0.08080665 0.77743906
0.23942286 0.079807617 0.76782739
0.23917061 0.078832775 0.75844842
0.23892447 0.077881455 0.74929583
0.23868418 0.076952823 0.74036145
0.23844956 0.076046072 0.73163766
0.24079417 0.07597249 0.73092973
0.2435699 0.076035045 0.73153156
0.2463502 0.076097704 0.7321344
0.24913509 0.076160468 0.73273826
0.2519246 0.076223344 0.73334312
0.25471872 0.076286316 0.73394901
0.25751743 0.076349393 0.73455584
0.26032069 0.076412544 0.73516345
0.26312882 0.076475859 0.73577261
0.26594135 0.076539218 0.73638219
0.26875857 0.076602682 0.73699278
0.27158046 0.076666251 0.73760438
0.27440703 0.076729931 0.738217
0.27723834 0.076793723 0.73883075
0.28007409 0.076857544 0.73944479
0.28291515 0.076921627 0.74006134
0.2857604 0.07698568 0.7406776
0.28861079 0.077049941 0.74129581
0.29146591 0.077114299 0.74191499
0.29432583 0.077178769 0.74253529
0.29719046 0.077243336 0.74315649
0.30005997 0.077308029 0.74377888
0.30293423 0.077372812 0.74440217
0.30581337 0.077437721 0.74502665
0.30869696 0.077502638 0.74565125
0.3115859 0.077567793 0.74627811
0.31447956 0.077633023 0.74690568
0.31737804 0.077698365 0.74753428
0.32028142 0.077763803 0.74816388
0.32318971 0.077829354 0.74879456
0.32610291 0.07789503 0.74942642
0.32902104 0.077960804 0.75005925
0.33194408 0.078026697 0.7506932
0.3348721 0.078092702 0.75132823
0.33780503 0.078158811 0.75196427
0.34074292 0.078225031 0.75260133
0.34368587 0.078291371 0.75323963
0.24190058 0.087313227 0.81249642
0.24160317 0.086185925 0.8020063
0.24131331 0.085087352 0.79178345
0.24103077 0.084016435 0.78181803
0.24075526 0.082972147 0.77210039
0.2404854 0.081953123 0.76261783
0.24022196 0.080958784 0.75336492
0.23996484 0.079988278 0.74433386
0.23971382 0.079040773 0.73551679
0.24119541 0.07867872 0.73214769
0.2439761 0.078743607 0.73275155
0.24676138 0.078808613 0.73335642
0.24955128 0.078873724 0.7339623
0.25234577 0.078938931 0.73456913
0.25514489 0.079004258 0.73517704
0.25794867 0.079069689 0.7357859
0.26075709 0.079135232 0.73639584
0.2635701 0.079200871 0.7370066
0.26638776 0.0792666 0.73761827
0.2692101 0.079332449 0.738231
0.27203712 0.079398394 0.73884463
0.27486882 0.07946445 0.73945934
0.27770525 0.079530612 0.74007505
0.28054637 0.079596877 0.74069166
0.28339246 0.079663321 0.74130994
0.2862429 0.079729758 0.74192822
0.28909847 0.079796411 0.74254847
0.29195887 0.079863191 0.74316984
0.294824 0.07993006 0.74379212
0.29769397 0.079997055 0.74441552
0.30056873 0.080064155 0.74503994
0.30344832 0.080131374 0.74566543
0.30633274 0.080198698 0.74629194
0.3092218 0.080266088 0.74691904
0.312116 0.08033365 0.74754775
0.31501502 0.080401324 0.74817747
0.31791893 0.080469102 0.74880821
0.32082769 0.080536991 0.74943995
0.32374141 0.080605008 0.75007284
0.32666007 0.080673136 0.75070679
0.32958364 0.080741376 0.75134182
0.3325122 0.080809735 0.75197798
0.33544567 0.080878206 0.75261509
0.33838412 0.080946788 0.75325334
0.34132758 0.081015497 0.75389266
0.34427601 0.081084311 0.75453305
0.24300726 0.089528993 0.80666721
0.24269773 0.088381261 0.79632598
0.24239607 0.087262586 0.7862466
0.24210195 0.08617188 0.77641922
0.24181475 0.085107982 0.76683336
0.24153365 0.084069721 0.75747854
0.24125934 0.083056495 0.74834919
0.24099155 0.082067393 0.73943728
0.24159801 0.081393979 0.73336977
0.24438368 0.081461228 0.73397565
0.24717394 0.081528574 0.73458248
0.24996884 0.081596047 0.73519039
0.25276834 0.081663623 0.73579925
0.2555725 0.081731312 0.73640913
0.25838122 0.081799082 0.73701978
0.26119488 0.081867054 0.73763222
0.26401296 0.081935056 0.73824489
0.26683569 0.082003161 0.73885858
0.26966313 0.082071386 0.73947328
0.27249527 0.082139723 0.740089
0.27533215 0.082208179 0.74070579
0.27817377 0.082276754 0.74132365
0.28102013 0.082345434 0.74194247
0.28387132 0.082414262 0.74256259
0.28672707 0.082483128 0.74318314
0.28958789 0.082552202 0.74380547
0.2924535 0.082621388 0.74442887
0.29532391 0.082690693 0.74505329
0.29819915 0.082760118 0.74567884
0.30107921 0.082829654 0.74630535
0.30396414 0.08289931 0.74693298
0.30685392 0.082969084 0.74756163
0.30974859 0.083038978 0.74819142
0.31264797 0.083108954 0.74882191
0.31555232 0.083179064 0.7494536
0.31846163 0.083249308 0.75008649
0.32137585 0.083319664 0.75072038
0.32429501 0.083390146 0.75135547
0.3272191 0.083460748 0.75199157
0.33014816 0.083531462 0.75262874
0.3330822 0.083602309 0.75326705
0.33602121 0.083673269 0.75390643
0.33896524 0.083744347 0.75454688
0.34191421 0.083815545 0.75518835
0.24409816 0.091713183 0.80092096
0.24377692 0.090545714 0.79072559
0.24346378 0.089407608 0.78078663
0.24315841 0.088297747 0.77109438
0.24285972 0.08721482 0.76163727
0.24256785 0.086157985 0.75240803
0.24228296 0.085126445 0.74339974
0.24200483 0.084119327 0.73460466
0.2447926 0.084187932 0.7352038
0.24758787 0.084257655 0.73581266
0.25038779 0.084327497 0.7364226
0.25319234 0.08439745 0.73703349
0.25600156 0.084467523 0.73764545
0.25881529 0.084537655 0.73825788
0.26163408 0.084608033 0.73887253
0.26445723 0.084678426 0.73948723
0.26728511 0.084748939 0.74010301
0.27011773 0.08481957 0.74071985
0.27295503 0.084890321 0.74133766
0.27579707 0.084961183 0.74195653
0.27864388 0.085032165 0.74257642
0.28149542 0.085103266 0.74319732
0.2843518 0.085174501 0.74381942
0.28721282 0.08524581 0.74444216
0.29007891 0.085317321 0.74506664
0.29294977 0.085388944 0.74569213
0.29582551 0.0854607 0.74631876
0.29870605 0.085532568 0.74694639
0.30159146 0.085604563 0.7475751
0.30448171 0.085676678 0.74820483
0.30737686 0.085748903 0.74883562
0.31027684 0.085821256 0.74946743
0.3131817 0.085893713 0.7501002
0.31609148 0.085966296 0.75073409
0.3190062 0.086039014 0.75136912
0.32192588 0.086111866 0.75200528
0.3248505 0.086184822 0.75264245
0.3277801 0.08625792 0.75328076
0.33071464 0.086331129 0.75392014
0.3336542 0.086404473 0.75456059
0.33659875 0.086477935 0.75520217
0.33954832 0.086551532 0.75584483
0.2451736 0.093866467 0.79525596
0.24484105 0.092679948 0.78520352
0.24451679 0.091523044 0.77540201
0.24420047 0.090394653 0.76584202
0.24389066 0.089293301 0.75651115
0.24358831 0.088218473 0.74740499
0.24329315 0.087169208 0.73851538
0.24520285 0.086923763 0.73643595
0.24800318 0.086995885 0.73704696
0.25080815 0.087068111 0.73765892
0.25361776 0.087140463 0.73827189
0.25643209 0.087212943 0.73888594
0.25925112 0.087285556 0.73950112
0.26207474 0.087358251 0.74011701
