# .PCD v0.7 - Point Cloud Data file format
VERSION 0.7
FIELDS x y z
SIZE 4 4 4
TYPE F F F
COUNT 1 1 1
WIDTH 809
HEIGHT 1
VIEWPOINT 0 0 0 1 0 0 0
POINTS 809
DATA ascii
0.13450843 -0.11443254 1.139583
0.13112152 -0.11094898 1.1450696
0.13402669 -0.11002191 1.1355016
0.13688405 -0.10911047 1.1260949
0.13969445 -0.10821401 1.1168429
0.12470379 -0.1083492 1.1604357
0.12770194 -0.10743179 1.1506102
0.13064976 -0.1065298 1.1409497
0.13354848 -0.10564283 1.1314502
0.1363996 -0.10477071 1.1221095
0.1392041 -0.10391292 1.1129225
0.14220405 -0.10324404 1.1057587
0.14645654 -0.10349595 1.1084567
0.12120661 -0.10477182 1.1661263
0.1242491 -0.1038804 1.1562046
0.12724027 -0.10300402 1.1464504
0.13018137 -0.10214231 1.1368594
0.13307366 -0.10129488 1.1274273
0.13591854 -0.10046154 1.1181521
0.13871717 -0.099641919 1.1090297
0.14186251 -0.099109426 1.1031029
0.1461039 -0.099350654 1.1057879
0.15036601 -0.099593066 1.1084859
0.15464894 -0.099836662 1.1111972
0.11767498 -0.10115919 1.171873
0.12076253 -0.10029431 1.1618538
0.12379772 -0.099444069 1.1520042
0.1267819 -0.098608144 1.1423205
0.12971631 -0.097786143 1.1327981
0.13260224 -0.096977755 1.1234334
0.1354409 -0.096182667 1.1142226
0.13823365 -0.095400684 1.1051638
0.1415226 -0.094994619 1.1004598
0.14575298 -0.095225282 1.1031319
0.15000397 -0.09545707 1.1058171
0.15427572 -0.095689997 1.1085154
0.15856834 -0.095924057 1.1112268
0.162882 -0.09615925 1.1139514
0.11410834 -0.097510763 1.1776763
0.11724172 -0.096672997 1.1675583
0.12032168 -0.095849477 1.1576123
0.12334962 -0.095039874 1.1478344
0.12632683 -0.094243817 1.1382202
0.12925459 -0.093461014 1.1287659
0.13213411 -0.092691094 1.1194673
0.13496657 -0.09193375 1.1103206
0.13775346 -0.091188908 1.1013248
0.14118432 -0.09089949 1.0978293
0.14540374 -0.091119677 1.1004887
0.14964367 -0.091340944 1.103161
0.15390423 -0.091563277 1.1058462
0.15818562 -0.091786712 1.1085447
0.16248791 -0.092011221 1.1112562
0.16681132 -0.092236847 1.1139811
0.17115596 -0.092463568 1.1167194
0.17552204 -0.092691414 1.1194712
0.11368584 -0.093015686 1.1733159
0.11681146 -0.092219576 1.1632736
0.11988404 -0.091436975 1.1534017
0.12290475 -0.090667434 1.1436946
0.12587503 -0.089910731 1.1341494
0.12879615 -0.089166559 1.1247623
0.13166928 -0.088434592 1.1155292
0.13449566 -0.08771456 1.1064465
0.13727662 -0.087006301 1.0975125
0.14084764 -0.086823881 1.0952114
0.14505617 -0.087033704 1.0978581
0.14928509 -0.087244533 1.1005175
0.15353455 -0.08745639 1.1031899
0.15780473 -0.087669291 1.1058755
0.16209571 -0.087883219 1.108574
0.16640769 -0.088098191 1.1112857
0.17074081 -0.088314213 1.1140107
0.17509526 -0.088531308 1.1167492
0.17947114 -0.088749461 1.119501
0.18386868 -0.088968717 1.1222667
0.11009462 -0.089322053 1.1791295
0.11326649 -0.088553801 1.1689879
0.11638425 -0.08779864 1.1590191
0.11944929 -0.087056257 1.149219
0.12246294 -0.086326331 1.1395833
0.12542644 -0.08560852 1.1301076
0.12834091 -0.08490245 1.1207869
0.13120772 -0.084207945 1.1116188
0.13402802 -0.083524704 1.1025994
0.13680305 -0.08285255 1.0937264
0.14051259 -0.08276768 1.0926061
0.14471026 -0.082967214 1.09524
0.14892823 -0.083167709 1.0978868
0.15316665 -0.083369188 1.1005465
0.15742566 -0.083571643 1.103219
0.16170539 -0.083775081 1.1059046
0.16600603 -0.083979517 1.1086034
0.17032769 -0.084184952 1.1113153
0.17467055 -0.084391385 1.1140404
0.17903474 -0.084598832 1.1167789
0.18342048 -0.084807321 1.119531
0.18782787 -0.085016824 1.1222967
0.19225709 -0.08522737 1.1250761
0.10968649 -0.084851809 1.1747583
0.1128502 -0.084124692 1.1646914
0.11596015 -0.083409935 1.1547958
0.11901768 -0.082707204 1.1450666
0.12202413 -0.082016222 1.1355001
0.12498077 -0.081336692 1.1260921
0.12788881 -0.08066833 1.1168387
0.13074937 -0.080010809 1.1077355
0.13356361 -0.079363875 1.0987788
0.13633275 -0.078727365 1.0899664
0.1401791 -0.078730725 1.0900129
0.14436598 -0.078920074 1.0926344
0.14857309 -0.079110347 1.0952687
0.1528005 -0.079301521 1.0979155
0.15704842 -0.079493649 1.1005754
0.16131696 -0.079686694 1.1032481
0.16560628 -0.079880677 1.1059338
0.16991654 -0.080075614 1.1086327
0.17424789 -0.080271497 1.1113447
0.17860046 -0.080468342 1.1140699
0.18297446 -0.080666155 1.1168087
0.18736999 -0.080864944 1.1195608
0.19178727 -0.081064723 1.1223267
0.19622643 -0.081265494 1.1251063
0.20068759 -0.081467241 1.1278995
0.10607098 -0.0811131 1.1805861
0.10928138 -0.080414601 1.1704196
0.11243697 -0.07972803 1.1604266
0.11553911 -0.079053074 1.1506028
0.11858919 -0.078389458 1.140944
0.12158848 -0.077736892 1.131446
0.12453824 -0.077095106 1.1221049
0.12743968 -0.076463804 1.1129165
0.13029401 -0.075842783 1.1038775
0.13310233 -0.075231753 1.0949842
0.13586567 -0.074630439 1.0862322
0.13984717 -0.07471288 1.087432
0.14402336 -0.074892148 1.0900413
0.14821962 -0.075072274 1.0926629
0.15243611 -0.075253271 1.0952973
0.15667298 -0.075435139 1.0979444
0.16093038 -0.075617887 1.1006043
0.16520846 -0.075801529 1.1032771
0.16950737 -0.075986065 1.105963
0.17382728 -0.076171502 1.108662
0.1781683 -0.076357841 1.1113741
0.18253061 -0.076545097 1.1140996
0.18691437 -0.076733269 1.1168385
0.19131976 -0.076922379 1.1195909
0.19574688 -0.077112406 1.1223568
0.20019597 -0.077303395 1.1251365
0.20466712 -0.077495322 1.1279299
0.20916054 -0.077688202 1.1307373
0.10567729 -0.076667838 1.1762043
0.10887925 -0.076010041 1.1661127
0.11202674 -0.075363442 1.1561928
0.11512113 -0.074727759 1.1464404
0.11816376 -0.074102692 1.136851
0.1211559 -0.073488005 1.1274207
0.12409882 -0.072883435 1.1181456
0.12699372 -0.072288729 1.1090219
0.12984182 -0.071703695 1.1000465
0.13264419 -0.071128048 1.0912153
0.13563448 -0.070682764 1.0843838
0.13957015 -0.070741028 1.0852778
0.14368221 -0.070883229 1.0874593
0.14786771 -0.071053311 1.0900687
0.15207331 -0.071224205 1.0926905
0.15629919 -0.071395926 1.0953249
0.16054551 -0.071568482 1.0979722
0.1648124 -0.071741864 1.1006322
0.1691 -0.071916096 1.1033051
0.17340851 -0.072091177 1.1059911
0.17773803 -0.072267108 1.1086903
0.18208873 -0.072443902 1.1114025
0.18646078 -0.072621562 1.1141281
0.19085431 -0.072800092 1.1168671
0.19526951 -0.07297951 1.1196196
0.19970651 -0.073159806 1.1223856
0.2041655 -0.073341005 1.1251655
0.20864664 -0.073523104 1.1279591
0.10203739 -0.072883852 1.1820464
0.10528651 -0.072255448 1.1718549
0.10848007 -0.071637787 1.1618375
0.11161955 -0.071030624 1.1519904
0.1147063 -0.070433691 1.1423092
0.11774159 -0.069846712 1.1327894
0.1207267 -0.069269419 1.1234268
0.1236629 -0.06870161 1.1142179
0.12655133 -0.068143018 1.1051586
0.12939316 -0.06759344 1.0962454
0.13218954 -0.067052662 1.0874749
0.13576329 -0.066925563 1.0854136
0.13970277 -0.066980779 1.0863091
0.14364879 -0.067036107 1.0872064
0.14760132 -0.06709151 1.088105
0.15171219 -0.067214258 1.0900958
0.15592714 -0.067375928 1.0927176
0.16016243 -0.067538373 1.0953523
0.16441818 -0.0677016 1.0979996
0.16869456 -0.067865625 1.1006597
0.17299171 -0.068030447 1.1033329
0.17730978 -0.068196066 1.1060189
0.18164895 -0.068362512 1.1087183
0.18600932 -0.068529747 1.1114306
0.19039109 -0.068697818 1.1141564
0.19479439 -0.068866707 1.1168954
0.19921942 -0.069036432 1.1196481
0.2036663 -0.069206998 1.1224144
0.20813523 -0.069378413 1.1251944
0.10489894 -0.067875788 1.1675411
0.10808423 -0.067297727 1.1575979
0.11121573 -0.066729434 1.1478226
0.11429476 -0.066170655 1.1382109
0.11732268 -0.06562116 1.128759
0.12030072 -0.065080717 1.1194627
0.1232301 -0.064549096 1.1103183
0.12611201 -0.064026102 1.1013222
0.1289476 -0.063511506 1.0924705
0.13195547 -0.063109137 1.0855494
0.13589232 -0.063161217 1.0864452
0.13983567 -0.063213386 1.0873425
0.14378554 -0.063265637 1.0882413
0.14774196 -0.063317984 1.0891417
0.15170492 -0.063370414 1.0900435
0.15567446 -0.063422926 1.0909469
0.15978117 -0.06352745 1.0927448
0.16402586 -0.063680626 1.0953796
0.16829105 -0.063834533 1.098027
0.17257693 -0.0639892 1.1006874
0.17688362 -0.064144611 1.1033607
0.18121126 -0.064300768 1.1060468
0.18556005 -0.0644577 1.1087462
0.1899301 -0.064615391 1.1114587
0.1943216 -0.064773865 1.1141846
0.19873469 -0.064933114 1.1169238
0.20316954 -0.065093152 1.1196767
0.2076263 -0.06525398 1.1224431
0.11081479 -0.062459249 1.1436847
0.11388618 -0.0619381 1.134142
0.11690675 -0.061425578 1.1247573
0.11987773 -0.060921468 1.1155266
0.12280033 -0.060425557 1.106446
0.12567575 -0.059937663 1.0975122
0.1285051 -0.059457581 1.0887215
0.1320809 -0.059340697 1.0865812
0.1360216 -0.05938971 1.0874788
0.1399688 -0.059438806 1.0883777
0.14392254 -0.059487984 1.0892782
0.14788286 -0.059537254 1.0901804
0.15184973 -0.059586603 1.091084
0.15582317 -0.059636027 1.091989
0.15980321 -0.059685539 1.0928956
0.16378987 -0.059735127 1.0938036
0.16788949 -0.05982269 1.095407
0.17216413 -0.059967279 1.0980545
0.17645949 -0.060112577 1.100715
0.1807757 -0.060258567 1.1033883
0.18511295 -0.060405277 1.1060747
0.18947136 -0.060552705 1.1087742
0.19385108 -0.060700845 1.1114868
0.19825232 -0.060849722 1.1142129
0.20267519 -0.06099933 1.1169523
0.20711988 -0.061149679 1.1197053
0.11348052 -0.0577357 1.1301022
0.11649374 -0.057259638 1.1207838
0.11945769 -0.056791361 1.1116179
0.12237354 -0.056330681 1.1026007
0.12524247 -0.055877414 1.0937285
0.12826851 -0.055519205 1.0867171
0.13220654 -0.05556507 1.0876149
0.13615111 -0.055611018 1.0885142
0.14010221 -0.05565704 1.0894151
0.14405982 -0.055703133 1.0903172
0.14802401 -0.055749305 1.091221
0.15199479 -0.055795558 1.0921264
0.15597217 -0.055841886 1.0930332
0.15995613 -0.055888284 1.0939413
0.16394673 -0.055934772 1.0948513
0.16794398 -0.055981331 1.0957626
0.17194791 -0.056027971 1.0966755
0.17603737 -0.056099821 1.0980819
0.18034224 -0.056235753 1.1007426
0.184668 -0.056372337 1.1034161
0.18901484 -0.056509588 1.1061026
0.19338287 -0.056647509 1.1088022
0.19777229 -0.056786105 1.111515
0.20218323 -0.056925379 1.1142411
0.2066159 -0.057065345 1.1169808
0.11904058 -0.052690092 1.1077365
0.12194972 -0.052264165 1.0987819
0.12481219 -0.051845066 1.0899709
0.12839058 -0.051739484 1.0877513
0.13233246 -0.051782265 1.0886507
0.13628088 -0.051825121 1.0895517
0.14023584 -0.051868051 1.0904542
0.14419736 -0.051911049 1.0913582
0.14816543 -0.051954117 1.0922636
0.15214013 -0.051997259 1.0931706
0.15612142 -0.052040473 1.0940791
0.16010934 -0.05208376 1.0949892
0.1641039 -0.052127119 1.0959008
0.16810513 -0.052170556 1.0968139
0.172113 -0.052214056 1.0977285
0.1761276 -0.052257638 1.0986447
0.18014888 -0.052301288 1.0995624
0.18422517 -0.052358735 1.1007701
0.18856047 -0.052485906 1.1034437
0.19291691 -0.052613702 1.1061305
0.19729458 -0.052742116 1.1088302
0.20169368 -0.05287116 1.1115432
0.20611437 -0.053000838 1.1142695
0.12152881 -0.048225719 1.0949895
0.12457363 -0.047912933 1.0878875
0.12851284 -0.047952555 1.0887872
0.13245861 -0.047992252 1.0896885
0.13641091 -0.048032008 1.0905912
0.14036974 -0.048071831 1.0914954
0.14433515 -0.048111714 1.092401
0.14830714 -0.048151672 1.0933082
0.15228575 -0.048191693 1.0942169
0.15627098 -0.048231784 1.0951272
0.16026285 -0.048271943 1.0960391
0.16426137 -0.048312169 1.0969524
0.16826656 -0.048352461 1.0978673
0.17227843 -0.048392817 1.0987836
0.17629704 -0.048433252 1.0997016
0.18032232 -0.048473742 1.100621
0.18435435 -0.048514303 1.101542
0.18839315 -0.048554935 1.1024646
0.19245316 -0.048599284 1.1034715
0.19681916 -0.048717614 1.1061583
0.20120649 -0.048836526 1.1088582
0.2056153 -0.048956022 1.1115714
0.13265698 -0.048430324 1.1952556
0.13577823 -0.048044607 1.1857362
0.12863538 -0.044158414 1.0898253
0.13258499 -0.044194996 1.0907282
0.13654116 -0.044231642 1.0916326
0.1405039 -0.044268351 1.0925386
0.14447322 -0.04430512 1.093446
0.14844912 -0.044341944 1.0943549
0.15243165 -0.044378836 1.0952653
0.15642083 -0.044415791 1.0961773
0.16041666 -0.044452809 1.097091
0.16441914 -0.044489887 1.098006
0.16842832 -0.044527024 1.0989226
0.17244418 -0.044564229 1.0998408
0.17646678 -0.044601493 1.1007605
0.1804961 -0.04463882 1.1016817
0.18453218 -0.044676211 1.1026045
0.18857503 -0.044713665 1.1035289
0.19262464 -0.044751182 1.1044548
0.19668108 -0.044788759 1.1053822
0.20074432 -0.044826403 1.1063112
0.2051186 -0.044930741 1.1088862
0.13220197 -0.044067323 1.191156
0.13531625 -0.043717559 1.1817018
0.13838147 -0.043373298 1.1723962
0.1413988 -0.043034416 1.1632361
0.13667168 -0.040424015 1.092676
0.14063831 -0.040457595 1.0935837
0.14461154 -0.040491231 1.0944929
0.14859138 -0.040524922 1.0954036
0.15257785 -0.04055867 1.0963157
0.15657097 -0.040592473 1.0972295
0.16057074 -0.040626332 1.0981448
0.16457722 -0.040660251 1.0990616
0.16859038 -0.040694229 1.09998
0.17261027 -0.040728267 1.1009001
0.17663687 -0.040762357 1.1018215
0.18067022 -0.0407965 1.1027445
0.18471034 -0.040830705 1.103669
0.18875724 -0.040864971 1.1045952
0.19281094 -0.040899288 1.1055229
0.19687144 -0.040933669 1.1064521
0.20093881 -0.040968105 1.107383
0.20501302 -0.041002601 1.1083155
0.12859292 -0.040053535 1.1966262
0.13175009 -0.039734155 1.1870846
0.1348574 -0.039419856 1.1776947
0.13791591 -0.039110482 1.1684519
0.14092679 -0.038805928 1.1593531
0.14389113 -0.038506076 1.1503948
0.14681001 -0.038210824 1.141574
0.14475012 -0.036670029 1.0955417
0.14873388 -0.036700569 1.0964541
0.15272431 -0.036731161 1.0973681
0.15672138 -0.036761809 1.0982836
0.16072516 -0.036792509 1.0992008
0.16473562 -0.036823258 1.1001195
0.16875279 -0.036854055 1.1010396
0.17277665 -0.036884904 1.1019613
0.1768073 -0.036915809 1.1028845
0.18084466 -0.036946759 1.1038092
0.18488888 -0.036977775 1.1047359
0.18893984 -0.037008837 1.1056638
0.19299763 -0.03703995 1.1065934
0.19706224 -0.037071113 1.1075244
0.2011337 -0.037102334 1.1084571
0.12815134 -0.03571431 1.192517
0.13130099 -0.035430424 1.183038
0.13440165 -0.035151202 1.1737146
0.13745348 -0.034876257 1.1645341
0.14045791 -0.034605574 1.1554959
0.14341609 -0.034339067 1.146597
0.14632903 -0.034076624 1.137834
0.1491978 -0.033818167 1.129204
0.15202339 -0.033563606 1.1207041
0.15480673 -0.033312842 1.1123309
0.15687211 -0.032923777 1.0993398
0.16087985 -0.032951295 1.1002587
0.1648943 -0.032978859 1.1011791
0.16891548 -0.033006474 1.1021012
0.1729434 -0.033034131 1.1030247
0.17697808 -0.03306184 1.1039499
0.18101953 -0.033089593 1.1048765
0.18506776 -0.033117387 1.1058047
0.18912281 -0.033145238 1.1067345
0.19318467 -0.033173125 1.1076658
0.19725339 -0.033201065 1.1085987
0.20132896 -0.033229053 1.1095332
0.12451951 -0.031657506 1.1979996
0.12771282 -0.03140479 1.1884363
0.13085523 -0.031156007 1.1790217
0.13394898 -0.030911304 1.1697615
0.13699414 -0.030670328 1.1606424
0.13999216 -0.030433079 1.1516643
0.14294417 -0.030199474 1.1428241
0.14585121 -0.029969428 1.1341186
0.14871429 -0.029742857 1.1255445
0.15153441 -0.029519688 1.1170993
0.15431252 -0.029299846 1.1087799
0.15704948 -0.029083237 1.1005828
0.16103488 -0.029102689 1.101319
0.16505335 -0.029127061 1.1022413
0.16907853 -0.029151471 1.103165
0.17311047 -0.029175922 1.1040903
0.17714919 -0.029200416 1.1050172
0.18119471 -0.029224953 1.1059457
0.185247 -0.029249527 1.1068757
0.18930614 -0.029274145 1.1078073
0.1933721 -0.029298805 1.1087404
0.19744493 -0.029323503 1.1096752
0.12409146 -0.027342185 1.1938813
0.12727727 -0.027124664 1.1843833
0.13041165 -0.02691034 1.175025
0.13349935 -0.026699869 1.1658349
0.13653785 -0.026492419 1.1567767
0.1395295 -0.026288165 1.147858
0.14247535 -0.026087036 1.1390759
0.14537649 -0.025888963 1.1304271
0.14823391 -0.025693877 1.1219088
0.15104857 -0.025501706 1.1135178
0.15382114 -0.02531234 1.1052492
0.15717451 -0.025225539 1.101459
0.16119023 -0.025246661 1.1023813
0.16521268 -0.025267823 1.1033053
0.16924189 -0.02528902 1.1042309
0.17327787 -0.025310252 1.105158
0.17732064 -0.025331521 1.1060867
0.1813702 -0.025352824 1.1070169
0.18542659 -0.025374167 1.1079488
0.18948981 -0.025395542 1.1088822
0.19355989 -0.025416955 1.1098171
0.12043677 -0.023242185 1.1993765
0.12366632 -0.023056434 1.1897911
0.12684466 -0.022873629 1.1803577
0.12997206 -0.022693533 1.1710641
0.13305272 -0.022516616 1.1619346
0.13608459 -0.022342244 1.1529365
0.13906986 -0.022170557 1.1440768
0.1420096 -0.022001488 1.1353523
0.14490484 -0.021834975 1.1267596
0.14775614 -0.0216709 1.1182928
0.15056531 -0.021509329 1.1099552
0.15333316 -0.021350186 1.1017429
0.15732612 -0.021365276 1.1025215
0.16134585 -0.021383187 1.1034458
0.16537233 -0.021401124 1.1043714
0.16940558 -0.021419097 1.1052989
0.1734456 -0.021437097 1.1062278
0.17749242 -0.021455128 1.1071582
0.18154606 -0.02147319 1.1080903
0.18560654 -0.021491284 1.1090239
0.18967386 -0.021509405 1.1099591
0.19374803 -0.021527559 1.1108959
0.12002226 -0.018950883 1.1952485
0.12324409 -0.018799946 1.1857288
0.12641501 -0.018651396 1.1763595
0.12953679 -0.018505257 1.1671424
0.13260907 -0.018361256 1.1580602
0.13563433 -0.018219538 1.1491219
0.13861324 -0.018079989 1.1403204
0.14154688 -0.017942563 1.1316528
0.1444357 -0.017807141 1.1231117
0.14728162 -0.017673794 1.1147014
0.15008563 -0.017542476 1.1064191
0.15346108 -0.017482908 1.1026621
0.15747806 -0.017497562 1.1035863
0.16150178 -0.017512241 1.1045121
0.16553231 -0.017526949 1.1054398
0.16956958 -0.01754168 1.1063689
0.17361367 -0.017556438 1.1072997
0.17766455 -0.017571218 1.1082319
0.18172225 -0.017586024 1.1091657
0.18578681 -0.017600855 1.1101011
0.18985824 -0.017615713 1.1110382
0.11634462 -0.014807497 1.2007563
0.11961061 -0.014689022 1.191149
0.12282475 -0.014572428 1.1816943
0.12598826 -0.014457668 1.1723883
0.12910135 -0.014344595 1.1632191
0.13216835 -0.014233516 1.1542115
0.13518704 -0.014124019 1.1453323
0.13815963 -0.014016194 1.1365887
0.1410864 -0.013909927 1.1279713
0.14396974 -0.013805318 1.1194885
0.14681041 -0.013702306 1.1111351
0.149609 -0.013600818 1.1029054
0.15360929 -0.01361095 1.103727
0.15763028 -0.01362237 1.104653
0.16165803 -0.01363381 1.1055807
0.16569257 -0.01364527 1.10651
0.1697339 -0.01365675 1.1074409
0.17378204 -0.01366825 1.1083735
0.177837 -0.01367977 1.1093076
0.1818988 -0.013691308 1.1102433
0.18596745 -0.013702865 1.1111804
0.19004299 -0.013714443 1.1121193
0.11594374 -0.010540341 1.196619
0.11920176 -0.010456295 1.1870775
0.12240823 -0.010373578 1.1776869
0.12556432 -0.010292158 1.1684434
0.12867062 -0.010211954 1.1593381
0.13173059 -0.010133122 1.1503885
0.13474269 -0.010055425 1.1415677
0.13770869 -0.0099788914 1.132879
0.14062929 -0.009903471 1.1243168
0.14350714 -0.0098292558 1.1158913
0.1463422 -0.0097561469 1.1075914
0.14973956 -0.0097233485 1.1038679
0.1537578 -0.009731506 1.104794
0.15778279 -0.0097396784 1.1057218
0.16181456 -0.0097478647 1.1066512
0.16585316 -0.0097560678 1.1075824
0.16989852 -0.009764283 1.1085151
0.17395075 -0.009772514 1.1094495
0.17800979 -0.0097807571 1.1103854
0.18207568 -0.0097890152 1.1113229
0.18614846 -0.0097972872 1.112262
0.11554562 -0.0063024885 1.1925101
0.1187957 -0.0062524052 1.1830337
0.12199453 -0.0062031117 1.1737068
0.12514348 -0.0061545977 1.1645273
0.12824339 -0.0061068274 1.1554886
0.1312952 -0.0060597784 1.1465863
0.13430044 -0.0060134525 1.1378208
0.13725989 -0.0059678215 1.1291869
0.14017549 -0.005922908 1.1206887
0.14304753 -0.0058786655 1.1123174
0.14587697 -0.0058350787 1.1040703
0.14988434 -0.0058396496 1.1049352
0.15390658 -0.0058445539 1.1058631
0.1579356 -0.0058494667 1.1067927
0.16197141 -0.0058543878 1.1077238
0.16601405 -0.0058593191 1.1086569
0.17006348 -0.0058642579 1.1095914
0.17411977 -0.0058692056 1.1105275
0.17818291 -0.0058741621 1.1114653
0.1822529 -0.005879126 1.1124046
0.1863298 -0.0058840988 1.1133455
0.11185583 -0.0021104875 1.1979923
0.11515044 -0.0020936443 1.1884315
0.11839247 -0.002077061 1.1790181
0.12158363 -0.0020607393 1.1697534
0.12515585 -0.0020517353 1.1646423
0.12907346 -0.0020487851 1.1629677
0.13086142 -0.0020132526 1.1427982
0.1338612 -0.0019979284 1.1340995
0.13681506 -0.001982827 1.1255274
0.13972461 -0.0019679524 1.117084
0.14259084 -0.0019532992 1.1087663
0.14600989 -0.0019467985 1.1050763
0.15002939 -0.0019484337 1.1060045
0.15405567 -0.0019500718 1.1069343
0.1580887 -0.0019517123 1.1078656
0.16212854 -0.001953356 1.1087985
0.16617523 -0.0019550028 1.1097333
0.17022876 -0.0019566524 1.1106697
0.17428912 -0.0019583048 1.1116077
0.17835636 -0.00195996 1.1125473
0.18243048 -0.001961618 1.1134884
0.11147099 0.0021032263 1.1938705
0.11475717 0.0020864941 1.1843728
0.11799166 0.002070029 1.1750267
0.12149776 0.0020592839 1.1689273
0.12563069 0.0020595195 1.1690611
0.12972769 0.0020591698 1.1688625
0.13043277 0.0020066579 1.1390548
0.13342549 0.0019914252 1.130408
0.1363731 0.0019764218 1.1218916
0.13927662 0.0019616426 1.1135024
0.14213705 0.0019470829 1.1052377
0.14615121 0.0019486829 1.106146
0.15017474 0.0019503213 1.1070759
0.15420502 0.0019519622 1.1080074
0.15824211 0.0019536063 1.1089406
0.16228598 0.0019552528 1.1098753
0.16633675 0.0019569029 1.1108119
0.17039435 0.0019585558 1.1117501
0.17445882 0.0019602114 1.11269
0.17853016 0.0019618699 1.1136314
0.18260838 0.0019635311 1.1145743
0.11108889 0.0062880502 1.1897782
0.11436652 0.0062381732 1.1803409
0.11759362 0.0061891377 1.1710627
0.12171309 0.006188801 1.1709991
0.1259145 0.0061925165 1.171702
0.13009492 0.0061949957 1.1721711
0.13000639 0.0060002948 1.1353313
0.1329926 0.0059548924 1.1267406
0.13593398 0.0059101731 1.1182791
0.1388315 0.0058661196 1.1099436
0.14227204 0.0058467961 1.1062874
0.14629281 0.0058517121 1.1072176
0.15032035 0.0058566369 1.1081494
0.15435468 0.0058615701 1.1090828
0.15839581 0.0058665117 1.1100178
0.16244374 0.0058714603 1.1109542
0.16649859 0.0058764205 1.1118927
0.17056026 0.0058813882 1.1128327
0.17462882 0.0058863652 1.1137743
0.17870429 0.0058913506 1.1147176
0.11070941 0.010444283 1.1857139
0.11397906 0.010361733 1.1763421
0.11755312 0.010311677 1.1706594
0.1218185 0.010323602 1.1720132
0.12607159 0.010333736 1.1731638
0.12655874 0.010044344 1.1403097
0.12958281 0.0099679083 1.1316322
0.13256253 0.0098927263 1.1230969
0.13549769 0.0098186722 1.1146898
0.13839187 0.0097459061 1.1064289
0.14240991 0.0097541027 1.1073594
0.14643468 0.0097623123 1.1082914
0.15046626 0.0097705368 1.109225
0.15450461 0.0097787725 1.1101601
0.15854982 0.0097870249 1.111097
0.16260181 0.0097952904 1.1120353
0.16666073 0.0098035717 1.1129755
0.17072651 0.009811868 1.1139174
0.17479917 0.0098201782 1.1148608
0.17887875 0.0098285032 1.1158059
0.1103325 0.014572217 1.1816772
0.11359409 0.014457431 1.172369
0.11750489 0.014430425 1.1701791
0.12181788 0.014452969 1.1720072
0.12612101 0.014472903 1.1736237
0.12614444 0.014016049 1.1365769
0.12916262 0.013909821 1.1279628
0.13213523 0.013805173 1.1194768
0.13506418 0.013702163 1.1111236
0.13852599 0.013657493 1.1075011
0.14254802 0.013668988 1.1084334
0.14657684 0.013680505 1.1093673
0.15061244 0.01369204 1.1103027
0.15465486 0.013703595 1.1112397
0.1587041 0.013715168 1.1121782
0.1627602 0.013726763 1.1131184
0.16682318 0.01373838 1.1140604
0.17089309 0.013750019 1.1150042
0.17496987 0.013761674 1.1159494
0.10665271 0.018821066 1.1870608
0.10995816 0.01867214 1.177668
0.11321341 0.01852583 1.16844
0.11732537 0.018525058 1.1683913
0.12169701 0.01856395 1.1708443
0.12267348 0.018099366 1.1415426
0.125732 0.017961714 1.1328608
0.12874424 0.017826125 1.1243091
0.13171066 0.017692478 1.1158798
0.13464108 0.017561881 1.1076429
0.13866037 0.017576667 1.1085755
0.14268641 0.017591475 1.1095095
0.14671925 0.017606311 1.1104451
0.15075891 0.017621171 1.1113824
0.15480536 0.017636055 1.1123211
0.1588587 0.017650967 1.1132617
0.16291888 0.017665902 1.1142037
0.16698596 0.017680867 1.1151475
0.17105997 0.017695859 1.116093
0.17514089 0.017710876 1.1170402
0.10628922 0.022925125 1.1830151
0.10958689 0.022744449 1.1736916
0.11283312 0.022566624 1.1645153
0.11690746 0.022561088 1.1642295
0.12140044 0.022633981 1.167991
0.12227229 0.022049101 1.1378093
0.12532344 0.021881871 1.1291796
0.12832865 0.021717155 1.1206797
0.13128877 0.021554872 1.1123054
0.13477172 0.021485345 1.1087176
0.138795 0.02150345 1.1096518
0.14282508 0.021521587 1.1105877
0.14686196 0.021539753 1.1115252
0.15090567 0.021557953 1.1124643
0.15495621 0.021576181 1.113405
0.15901358 0.021594439 1.1143471
0.16307788 0.02161273 1.115291
0.16714907 0.021631056 1.1162367
0.17122719 0.021649415 1.117184
0.10592818 0.027001301 1.1789967
0.10921788 0.026789293 1.1697395
0.11245436 0.026580121 1.1606061
0.1156429 0.026374696 1.1516364
0.11878143 0.026172178 1.1427935
0.12187284 0.025972901 1.1340922
0.12491712 0.025776548 1.1255186
0.1279157 0.025583141 1.1170735
0.1313455 0.025484946 1.1127859
0.13514063 0.025461279 1.1117525
0.13892989 0.025437867 1.1107303
0.14296401 0.025459344 1.111668
0.14700495 0.025480857 1.1126074
0.15105271 0.025502406 1.1135483
0.15510732 0.02552399 1.1144907
0.15916879 0.02554561 1.1154348
0.16323717 0.025567267 1.1163805
0.16731247 0.025588967 1.1173279
0.17139475 0.02561071 1.1182773
0.10556957 0.031049874 1.1750053
0.10885023 0.03080667 1.1658019
0.1120799 0.030567246 1.1567415
0.11526083 0.030331798 1.1478316
0.11839209 0.030099683 1.1390477
0.12147599 0.029871143 1.1303992
0.12451341 0.02964605 1.1218811
0.12818611 0.029581409 1.119435
0.13200685 0.029553773 1.1183891
0.13582048 0.029526191 1.1173453
0.13962698 0.029498659 1.1163034
0.1434264 0.029471179 1.1152636
0.14721873 0.029443748 1.1142255
0.15120003 0.02945455 1.1146343
0.15525873 0.029479505 1.1155787
0.1593243 0.029504502 1.1165246
0.16339678 0.02952954 1.1174721
0.16747622 0.029554626 1.1184214
0.10848615 0.034797445 1.1619025
0.11170792 0.034527902 1.1529024
0.11488095 0.034262739 1.1440485
0.11800488 0.034001406 1.1353225
0.1211348 0.033758879 1.1272243
0.12498875 0.033727121 1.126164
0.12883545 0.033695426 1.1251056
0.13267493 0.033663787 1.1240492
0.1365072 0.033632208 1.1229948
0.14033228 0.033600688 1.1219423
0.14415021 0.033569228 1.1208918
0.14796101 0.033537827 1.1198434
0.15176468 0.033506487 1.1187968
0.15556122 0.033475202 1.1177522
0.15948012 0.033471137 1.1176165
0.16355672 0.033499572 1.1185659
0.16764027 0.033528052 1.119517
0.11133841 0.038462359 1.1490887
0.11450342 0.038167808 1.1402888
0.11787236 0.037958898 1.1340475
0.1217527 0.037922975 1.1329743
0.12562571 0.037887122 1.1319032
0.1294914 0.037851334 1.130834
0.13334978 0.037815612 1.1297667
0.13720089 0.037779957 1.1287016
0.14104475 0.037744369 1.1276383
0.14488138 0.037708852 1.1265773
0.14871079 0.037673399 1.1255181
0.15253301 0.037638016 1.1244609
0.15634805 0.037602693 1.1234057
0.16015594 0.03756744 1.1223525
0.1639567 0.037532255 1.1213013
0.11457024 0.042210087 1.1409543
0.11847736 0.042169906 1.1398681
0.12237704 0.0421298 1.1387841
0.12626931 0.042089771 1.137702
0.13015419 0.042049818 1.1366221
0.13403171 0.042009942 1.1355442
0.13790189 0.041970138 1.1344683
0.14176472 0.041930407 1.1333944
0.14562026 0.041890759 1.1323227
0.14946851 0.041851182 1.1312529
0.15330949 0.041811679 1.1301851
0.15714324 0.041772254 1.1291194
0.16096975 0.041732896 1.1280556
0.12691979 0.046335798 1.1435629
0.13082406 0.04629159 1.1424719
0.13472086 0.046247464 1.1413828
0.13861026 0.04620342 1.1402959
0.14249225 0.046159461 1.1392109
0.14636685 0.046115581 1.138128
0.15023412 0.046071798 1.1370474
0.15409404 0.046028089 1.1359687
0.15794663 0.045984462 1.134892
0.13541715 0.050528787 1.1472819
0.13932595 0.050480418 1.1461836
0.14322728 0.050432142 1.1450875
0.14712116 0.050383959 1.1439935
0.15100761 0.050335869 1.1429015
0.14396995 0.054749139 1.1510251
0.14788328 0.054696556 1.1499196
