# .PCD v0.7 - Point Cloud Data file format
VERSION 0.7
FIELDS x y z
SIZE 4 4 4
TYPE F F F
COUNT 1 1 1
WIDTH 551
HEIGHT 1
VIEWPOINT 0 0 0 1 0 0 0
POINTS 551
DATA ascii
-0.13412325 -0.31457999 1.384244
-0.12938009 -0.31490624 1.3856796
-0.12462709 -0.31523323 1.3871185
-0.11986421 -0.31556088 1.3885602
-0.11509141 -0.31588921 1.3900049
-0.11030837 -0.31621733 1.3914487
-0.10551545 -0.31654635 1.3928965
-0.14752191 -0.30713579 1.3727705
-0.14283147 -0.3074508 1.3741785
-0.13813207 -0.30776793 1.375596
-0.13342348 -0.30808693 1.3770218
-0.12870435 -0.30840477 1.3784424
-0.12397557 -0.30872348 1.379867
-0.1192357 -0.30903947 1.3812792
-0.11448693 -0.30935833 1.3827044
-0.10972866 -0.30967867 1.3841362
-0.10496069 -0.31000015 1.3855731
-0.10018272 -0.31032208 1.387012
-0.095394813 -0.31064466 1.3884537
-0.090596937 -0.31096786 1.3898984
-0.085789077 -0.31129178 1.3913462
-0.048845243 -0.2953974 1.3203049
-0.044239715 -0.29570758 1.3216912
-0.039624505 -0.29601836 1.3230803
-0.15141498 -0.30042654 1.3642676
-0.14675757 -0.30073273 1.365658
-0.14209069 -0.30103961 1.3670515
-0.13741426 -0.30134705 1.3684477
-0.13272934 -0.30165759 1.3698578
-0.12846759 -0.3029896 1.3759067
-0.1240266 -0.30398676 1.3804349
-0.11932672 -0.30440488 1.3823336
-0.11446656 -0.30443236 1.3824583
-0.10946434 -0.30406761 1.380802
-0.10441242 -0.30352449 1.3783356
-0.099659003 -0.30383843 1.3797612
-0.089393638 -0.28651807 1.3011078
-0.084897101 -0.28681454 1.302454
-0.080391243 -0.28711158 1.303803
-0.07587605 -0.28740928 1.3051548
-0.071351483 -0.2877076 1.3065095
-0.066817515 -0.28800651 1.3078669
-0.06227411 -0.28830606 1.3092272
-0.057721239 -0.2886062 1.3105901
-0.053158883 -0.28890699 1.311956
-0.048587017 -0.28920841 1.3133249
-0.044005595 -0.28951049 1.3146967
-0.039414592 -0.28981316 1.3160712
-0.034813982 -0.29011652 1.3174486
-0.15526012 -0.29379991 1.3558693
-0.15063533 -0.29409754 1.3572428
-0.14600115 -0.29439574 1.358619
-0.14135838 -0.29469627 1.3600059
-0.13670596 -0.29499707 1.361394
-0.12438794 -0.27817667 1.2837689
-0.11998711 -0.27846065 1.2850795
-0.11557728 -0.2787452 1.2863927
-0.11115844 -0.27903035 1.2877086
-0.10673054 -0.27931607 1.2890272
-0.10229357 -0.27960241 1.2903486
-0.097847484 -0.27988932 1.2916727
-0.093392268 -0.28017679 1.2929994
-0.088927895 -0.28046489 1.2943289
-0.08445432 -0.28075355 1.2956611
-0.079971537 -0.28104284 1.2969961
-0.075479507 -0.28133273 1.2983339
-0.070978194 -0.28162315 1.2996743
-0.066467583 -0.28191423 1.3010175
-0.06194764 -0.28220591 1.3023636
-0.057418328 -0.28249818 1.3037124
-0.052879632 -0.28279108 1.3050641
-0.04833151 -0.28308457 1.3064185
-0.043773942 -0.28337866 1.3077759
-0.039206889 -0.28367338 1.3091359
-0.034630332 -0.28396872 1.3104988
-0.1590583 -0.28725454 1.3475746
-0.154466 -0.28754443 1.3489344
-0.14986423 -0.28783447 1.3502951
-0.14525333 -0.28812549 1.3516603
-0.14063299 -0.2884168 1.353027
-0.13600329 -0.28870875 1.3543965
-0.12374846 -0.2722466 1.277169
-0.11936963 -0.27252311 1.2784661
-0.11498189 -0.27280015 1.2797658
-0.11058521 -0.27307779 1.2810682
-0.10617959 -0.27335599 1.2823733
-0.10176498 -0.27363473 1.283681
-0.097341366 -0.2739141 1.2849915
-0.09290871 -0.274194 1.2863046
-0.088466972 -0.27447444 1.2876203
-0.084016137 -0.27475548 1.2889386
-0.079556189 -0.27503711 1.2902598
-0.075087078 -0.27531931 1.2915837
-0.070608795 -0.27560207 1.2929102
-0.066121303 -0.27588543 1.2942395
-0.061624572 -0.27616939 1.2955716
-0.057118576 -0.27645391 1.2969064
-0.052603286 -0.27673903 1.2982439
-0.048078675 -0.27702475 1.2995843
-0.043544706 -0.27731103 1.3009273
-0.039001364 -0.27759793 1.3022733
-0.034448609 -0.27788544 1.303622
-0.029886412 -0.27817354 1.3049735
-0.15897831 -0.28236446 1.3468969
-0.15367952 -0.28135172 1.342066
-0.14910062 -0.28163451 1.3434149
-0.14451249 -0.28191781 1.3447663
-0.13991512 -0.28220171 1.3461205
-0.12954059 -0.27044439 1.2900374
-0.12394968 -0.26818204 1.2792457
-0.11875847 -0.26664639 1.2719206
-0.11439261 -0.2669161 1.2732071
-0.1100179 -0.26718631 1.2744961
-0.10563432 -0.26745713 1.2757878
-0.10124186 -0.26772848 1.2770822
-0.096840456 -0.26800033 1.278379
-0.092430115 -0.26827279 1.2796786
-0.088010803 -0.26854578 1.2809808
-0.083582483 -0.26881933 1.2822857
-0.079145126 -0.26909342 1.2835932
-0.074698716 -0.26936811 1.2849034
-0.070243232 -0.26964337 1.2862164
-0.065778606 -0.26991913 1.2875317
-0.061304837 -0.27019539 1.2888496
-0.056821901 -0.27047226 1.2901702
-0.052329767 -0.27074966 1.2914935
-0.047828414 -0.27102768 1.2928196
-0.043317799 -0.27130622 1.2941483
-0.038797908 -0.27158535 1.2954798
-0.034268703 -0.27186504 1.296814
-0.029754767 -0.27237058 1.2992253
-0.15928391 -0.2781525 1.3494859
-0.15317668 -0.27571803 1.3376749
-0.14834452 -0.27549696 1.3366023
-0.14377894 -0.27577272 1.3379402
-0.1392042 -0.27604899 1.3392806
-0.12977943 -0.26638934 1.2924157
-0.12417628 -0.26415682 1.2815844
-0.11866628 -0.2619614 1.2709332
-0.1138093 -0.26109192 1.2667148
-0.10945635 -0.26135495 1.2679908
-0.1050946 -0.26161847 1.2692693
-0.10072402 -0.26188245 1.2705501
-0.096344613 -0.26214695 1.2718334
-0.091956347 -0.26241201 1.2731193
-0.087559201 -0.26267761 1.2744079
-0.083153144 -0.26294374 1.275699
-0.078738153 -0.26321042 1.2769928
-0.074314199 -0.26347762 1.2782892
-0.069881245 -0.26374534 1.2795881
-0.065439276 -0.26401362 1.2808897
-0.060988262 -0.26428246 1.282194
-0.056528177 -0.26455185 1.283501
-0.052058991 -0.26482183 1.2848108
-0.047580674 -0.26509231 1.2861232
-0.043093193 -0.26536334 1.287438
-0.038596533 -0.26563495 1.2887558
-0.034090653 -0.26590711 1.2900761
-0.029895032 -0.26905528 1.3053498
-0.15959068 -0.27392432 1.352085
-0.15346909 -0.27152225 1.3402284
-0.14759608 -0.2694214 1.3298588
-0.14305279 -0.26968968 1.331183
-0.13850047 -0.26995853 1.33251
-0.13001911 -0.26231927 1.2948028
-0.12440369 -0.26011682 1.2839315
-0.1188818 -0.25795108 1.2732414
-0.11377611 -0.25655398 1.2663454
-0.10916747 -0.25620937 1.2646444
-0.10457119 -0.25586566 1.2629479
-0.10021131 -0.25609559 1.2640828
-0.095853694 -0.2563529 1.2653528
-0.091487296 -0.25661072 1.2666254
-0.087112106 -0.25686902 1.2679005
-0.08272811 -0.25712791 1.2691783
-0.078335278 -0.25738734 1.2704588
-0.073933572 -0.25764731 1.271742
-0.069522962 -0.25790778 1.2730277
-0.065103434 -0.25816879 1.2743161
-0.060674947 -0.25843033 1.275607
-0.056237482 -0.25869241 1.2769006
-0.051791001 -0.258955 1.2781968
-0.047335483 -0.25921813 1.2794956
-0.042870905 -0.25948179 1.280797
-0.038397234 -0.25974602 1.2821012
-0.034178395 -0.26203436 1.2933965
-0.030036623 -0.2657086 1.3115324
-0.15989864 -0.26967978 1.354694
-0.15376264 -0.26731044 1.3427919
-0.14773352 -0.26498237 1.3310972
-0.14233395 -0.26366782 1.3244939
-0.13780381 -0.26392931 1.3258075
-0.13025969 -0.25823411 1.2971985
-0.12463196 -0.25606203 1.2862873
-0.11909808 -0.2539261 1.2755579
-0.1140606 -0.2527225 1.2695118
-0.10944007 -0.25238219 1.2678022
-0.10483196 -0.25204277 1.2660973
-0.10023623 -0.25170431 1.264397
-0.095652826 -0.25136673 1.2627013
-0.091081701 -0.25103006 1.2610101
-0.086669736 -0.25112 1.2614619
-0.08230757 -0.25137177 1.2627265
-0.077936649 -0.25162405 1.2639939
-0.073556952 -0.25187683 1.2652637
-0.069168448 -0.25213015 1.2665361
-0.064771101 -0.25238395 1.2678111
-0.060364891 -0.25263825 1.2690885
-0.055949792 -0.25289306 1.2703686
-0.051525783 -0.25314841 1.2716513
-0.047092833 -0.25340429 1.2729366
-0.042650905 -0.25366065 1.2742244
-0.038384024 -0.25514087 1.2816601
-0.034338783 -0.2586855 1.299466
-0.030179558 -0.26233003 1.3177736
-0.16020776 -0.26541883 1.357313
-0.15405731 -0.26308247 1.3453653
-0.14801417 -0.26078689 1.3336259
-0.14207558 -0.25853097 1.3220896
-0.13711412 -0.25796047 1.319172
-0.13050117 -0.25413385 1.2996033
-0.12486105 -0.25199229 1.2886517
-0.11931515 -0.24988645 1.2778827
-0.11434652 -0.24887183 1.2726941
-0.10971402 -0.24853583 1.2709758
-0.10509402 -0.24820076 1.2692623
-0.10048646 -0.24786662 1.2675536
-0.095891304 -0.24753337 1.2658494
-0.091308482 -0.24720101 1.2641498
-0.086737946 -0.24686953 1.2624546
-0.082179651 -0.24653897 1.2607641
-0.077633552 -0.24620928 1.2590781
-0.073222592 -0.24629417 1.2595123
-0.068920761 -0.24678078 1.2620008
-0.064601913 -0.24726939 1.2644994
-0.060265921 -0.24775989 1.2670078
-0.055912696 -0.24825236 1.2695262
-0.051542129 -0.2487468 1.2720547
-0.047154114 -0.24924318 1.2745931
-0.042748556 -0.24974157 1.2771418
-0.038562506 -0.25179046 1.2876196
-0.034500685 -0.25530505 1.3055927
-0.16051812 -0.26114142 1.3599424
-0.1543531 -0.25883827 1.3479483
-0.14829588 -0.25657541 1.3361641
-0.14234366 -0.25435179 1.3245841
-0.1364937 -0.25216633 1.313203
-0.13074355 -0.25001836 1.3020171
-0.12509096 -0.24790752 1.2910244
-0.11953299 -0.24583201 1.2802159
-0.11463387 -0.24500181 1.2758924
-0.10998936 -0.2446702 1.2741655
-0.1053574 -0.2443395 1.2724433
-0.10073796 -0.24400973 1.270726
-0.096130982 -0.24368085 1.2690133
-0.09153638 -0.24335283 1.267305
-0.086954154 -0.24302571 1.2656015
-0.082384221 -0.24269947 1.2639025
-0.077826552 -0.24237412 1.2622082
-0.073434725 -0.24255714 1.2631613
-0.069120839 -0.2430378 1.2656645
-0.064789824 -0.24352036 1.2681775
-0.060441565 -0.24400483 1.2707005
-0.056075979 -0.24449126 1.2732337
-0.051692948 -0.24497962 1.2757769
-0.047292374 -0.24546994 1.2783303
-0.04287415 -0.24596222 1.2808939
-0.038742654 -0.24840879 1.2936349
-0.034664121 -0.2518926 1.3117775
-0.16082966 -0.25684735 1.3625818
-0.15465003 -0.25457776 1.3505415
-0.14857872 -0.25234798 1.3387125
-0.14261283 -0.25015694 1.327089
-0.13674967 -0.24800363 1.3156656
-0.13098681 -0.24588752 1.3044395
-0.12532172 -0.2438077 1.2934061
-0.11975165 -0.24176277 1.2825577
-0.11492267 -0.24111226 1.2791067
-0.11026607 -0.24078511 1.2773712
-0.10562211 -0.24045883 1.2756402
-0.10099071 -0.24013348 1.2739142
-0.096371837 -0.23980899 1.2721928
-0.091765426 -0.23948538 1.2704761
-0.087171443 -0.23916268 1.2687641
-0.08258982 -0.23884083 1.2670567
-0.078020513 -0.23851985 1.2653539
-0.07364808 -0.23879831 1.2668312
-0.069322072 -0.23927297 1.2693492
-0.064978823 -0.23974945 1.2718769
-0.060618237 -0.24022783 1.2744148
-0.056240216 -0.24070813 1.2769628
-0.051844656 -0.24119034 1.279521
-0.047431443 -0.24167448 1.2820894
-0.043000478 -0.24216059 1.2846681
-0.038924497 -0.24499537 1.2997067
-0.034829114 -0.24844769 1.3180213
-0.16114286 -0.25253731 1.3652353
-0.15494859 -0.25030157 1.3531487
-0.14886303 -0.24810506 1.3412743
-0.14288336 -0.24594678 1.3296064
-0.13700683 -0.24382572 1.3181398
-0.13123095 -0.24174121 1.3068708
-0.12555332 -0.2396927 1.2957964
-0.11997112 -0.23767863 1.2849082
-0.11521292 -0.23720308 1.2823373
-0.11054419 -0.23688041 1.2805929
-0.10588814 -0.23655862 1.2788533
-0.10124474 -0.23623772 1.2771186
-0.096613914 -0.2359177 1.2753885
-0.091995634 -0.23559858 1.2736633
-0.087389819 -0.23528028 1.2719425
-0.082796432 -0.23496285 1.2702265
-0.078215428 -0.23464629 1.2685151
-0.073862679 -0.23501763 1.2705226
-0.069524489 -0.23548618 1.2730557
-0.065168932 -0.23595649 1.2755982
-0.060795944 -0.23642866 1.2781508
-0.056405421 -0.23690276 1.2807138
-0.051997252 -0.23737876 1.283287
-0.047571335 -0.23785667 1.2858707
-0.043127555 -0.2383365 1.2884647
-0.039108053 -0.24154975 1.3058357
-0.034995683 -0.24496977 1.3243246
-0.15524831 -0.24600887 1.3557662
-0.14914846 -0.24384589 1.343846
-0.14315492 -0.24172062 1.3321334
-0.13726498 -0.23963207 1.3206234
-0.131476 -0.23757945 1.3093113
-0.12578578 -0.23556247 1.2981956
-0.12019839 -0.23359309 1.2873423
-0.11550465 -0.2332741 1.2855843
-0.11082372 -0.23295598 1.2838311
-0.10615553 -0.23263872 1.2820827
-0.10150004 -0.23232232 1.280339
-0.09685722 -0.23200683 1.2786003
-0.09222699 -0.23169219 1.2768663
-0.087609291 -0.23137839 1.2751369
-0.083004087 -0.23106544 1.2734122
-0.078411683 -0.23075438 1.271698
-0.074078538 -0.23121484 1.2742356
-0.069728076 -0.23167716 1.2767835
-0.065360166 -0.23214127 1.2793412
-0.060974699 -0.23260719 1.2819089
-0.056571599 -0.23307499 1.284487
-0.052150752 -0.23354466 1.2870754
-0.04771205 -0.23401624 1.2896743
-0.043308597 -0.2347782 1.2938734
-0.039293353 -0.23807149 1.3120229
-0.03516385 -0.24145845 1.3306886
-0.14943497 -0.23957035 1.3464274
-0.14342754 -0.23747838 1.3346702
-0.13752408 -0.2354226 1.3231163
-0.13172199 -0.23340212 1.3117609
-0.12601912 -0.23141693 1.3006037
-0.12050393 -0.22963957 1.2906147
-0.11579785 -0.22932516 1.2888477
-0.11110466 -0.22901164 1.2870857
-0.10642427 -0.22869897 1.2853284
-0.10175664 -0.22838713 1.2835758
-0.097101748 -0.22807619 1.2818283
-0.0924595 -0.2277661 1.2800854
-0.087829866 -0.22745684 1.2783474
-0.083212793 -0.22714843 1.2766141
-0.07864105 -0.2269356 1.2754179
-0.07429567 -0.22738977 1.2779704
-0.069932856 -0.22784576 1.2805332
-0.06555251 -0.22830358 1.2831062
-0.061154507 -0.22876316 1.2856891
-0.056738757 -0.22922458 1.2882824
-0.052305158 -0.22968787 1.2908862
-0.0478536 -0.23015302 1.2935004
-0.043511912 -0.23130016 1.2999475
-0.039480414 -0.23456012 1.318269
-0.035333648 -0.23791322 1.3371141
-0.14972258 -0.23527834 1.3490188
-0.14370115 -0.23321991 1.3372164
-0.13778418 -0.23119719 1.3256187
-0.13196898 -0.22920927 1.3142205
-0.12625332 -0.22725597 1.3030208
-0.12081104 -0.2256659 1.2939038
-0.11609256 -0.22535615 1.2921278
-0.11138703 -0.22504726 1.2903568
-0.10669437 -0.22473921 1.2885904
-0.10201456 -0.22443202 1.2868291
-0.097347513 -0.22412567 1.2850726
-0.092693195 -0.22382016 1.2833209
-0.088051558 -0.2235155 1.281574
-0.083422542 -0.22321168 1.279832
-0.078871749 -0.22309437 1.2791594
-0.074514061 -0.22354218 1.2817271
-0.070138849 -0.22399181 1.2843051
-0.065745994 -0.22444323 1.2868934
-0.061335377 -0.22489639 1.2894917
-0.056906905 -0.22535135 1.2921003
-0.05246048 -0.22580814 1.2947195
-0.047995992 -0.22626682 1.2973493
-0.043717138 -0.2277893 1.3060788
-0.03966926 -0.23101512 1.3245747
-0.03550509 -0.23433359 1.3436019
-0.14397584 -0.22894518 1.3397725
-0.13804527 -0.22695579 1.3281306
-0.13221689 -0.22500066 1.3166894
-0.12648837 -0.2230795 1.3054469
-0.12111969 -0.22167189 1.2972096
-0.11638878 -0.22136688 1.2954247
-0.11167083 -0.22106266 1.2936444
-0.10696585 -0.22075932 1.2918693
-0.10227377 -0.22045679 1.2900989
-0.097594529 -0.22015509 1.2883334
-0.092928082 -0.21985424 1.2865728
-0.088274375 -0.21955422 1.2848171
-0.083633356 -0.21925502 1.2830662
-0.079103813 -0.21923056 1.2829231
-0.074733749 -0.21967193 1.285506
-0.07034605 -0.22011507 1.2880992
-0.065940619 -0.22055998 1.2907028
-0.061517317 -0.22100666 1.2933167
-0.057076052 -0.22145508 1.2959409
-0.05261673 -0.22190535 1.2985758
-0.048139241 -0.22235744 1.3012214
-0.043924309 -0.22424515 1.3122681
-0.039859924 -0.22743605 1.3309411
-0.13830735 -0.22269827 1.330652
-0.13246572 -0.2207762 1.3191674
-0.12672433 -0.21888748 1.3078821
-0.12142996 -0.21765748 1.3005326
-0.11668648 -0.21735717 1.2987382
-0.11195609 -0.21705773 1.296949
-0.10723872 -0.2167591 1.2951647
-0.1025343 -0.2164613 1.2933853
-0.09784279 -0.21616431 1.2916107
-0.093164161 -0.21586818 1.2898413
-0.088498317 -0.21557282 1.2880765
-0.083845243 -0.21527833 1.2863169
-0.079337254 -0.21534397 1.2867091
-0.074954733 -0.21577877 1.2893071
-0.070554487 -0.21621536 1.2919158
-0.06613639 -0.21665367 1.2945348
-0.061700344 -0.2170938 1.2971646
-0.057246212 -0.21753561 1.2998044
-0.052773915 -0.21797922 1.3024551
-0.048283342 -0.21842465 1.3051165
-0.044133458 -0.22066729 1.3185166
-0.040052433 -0.22382241 1.337369
-0.13857041 -0.21842454 1.3331829
-0.13271551 -0.21653582 1.3216549
-0.12696116 -0.21467976 1.3103262
-0.1217418 -0.21362241 1.3038725
-0.11698573 -0.21332692 1.3020689
-0.11224282 -0.21303228 1.3002706
-0.10751297 -0.21273844 1.2984771
-0.10279616 -0.21244539 1.2966884
-0.09809234 -0.2121532 1.2949049
-0.093401425 -0.21186177 1.2931262
-0.088723406 -0.2115712 1.2913526
-0.084058195 -0.21128142 1.2895839
-0.079572074 -0.21143436 1.2905174
-0.075177029 -0.21186253 1.2931309
-0.070764154 -0.21229248 1.295755
-0.066333331 -0.21272412 1.2983897
-0.061884444 -0.21315753 1.301035
-0.057417385 -0.21359268 1.303691
-0.052932043 -0.21402957 1.3063576
-0.048428308 -0.21446823 1.3090351
-0.0443446 -0.21705516 1.3248247
-0.040246811 -0.22017373 1.3438593
-0.13296624 -0.21227942 1.3241518
-0.12719886 -0.2104563 1.3127795
-0.12205525 -0.20956656 1.3072295
-0.11728651 -0.20927593 1.3054167
-0.11253101 -0.20898616 1.3036091
-0.10778864 -0.20869714 1.3018063
-0.10305938 -0.20840897 1.3000088
-0.098343149 -0.20812155 1.2982159
-0.093639918 -0.20783494 1.2964281
-0.088949636 -0.20754915 1.2946454
-0.084272228 -0.20726414 1.2928675
-0.07980828 -0.20750153 1.2943484
-0.075400651 -0.20792301 1.2969774
-0.07097508 -0.20834619 1.2996172
-0.066531442 -0.20877108 1.3022676
-0.062069658 -0.20919773 1.3049289
-0.057589594 -0.20962612 1.3076011
-0.053091116 -0.21005616 1.3102835
-0.048574146 -0.21048796 1.3129771
-0.04455778 -0.21340832 1.3311936
-0.040443081 -0.21648943 1.3504128
-0.12743749 -0.20621702 1.3152423
-0.12237031 -0.20548975 1.3106039
-0.11758886 -0.20520408 1.3087819
-0.11282068 -0.2049192 1.3069649
-0.10806572 -0.20463508 1.3051528
-0.10332394 -0.20435178 1.3033459
-0.098595262 -0.20406926 1.301544
-0.093879633 -0.20378749 1.2997469
-0.08917702 -0.20350653 1.2979549
-0.084487371 -0.20322637 1.2961681
-0.080045901 -0.2035453 1.2982022
-0.075625598 -0.20395996 1.3008468
-0.071187258 -0.20437631 1.3035023
-0.066730753 -0.20479439 1.3061688
-0.062255979 -0.20521414 1.308846
-0.05776282 -0.20563564 1.3115343
-0.053251151 -0.2060588 1.3142332
-0.048788253 -0.20676926 1.3187644
-0.044773016 -0.20972623 1.3376238
-0.12767704 -0.20196185 1.3177146
-0.122687 -0.20139188 1.3139957
-0.11789276 -0.20111118 1.3121643
-0.11311185 -0.20083125 1.3103379
-0.10834424 -0.20055211 1.3085166
-0.10358986 -0.20027372 1.3067002
-0.098848656 -0.19999611 1.304889
-0.094120584 -0.19971929 1.3030828
-0.089405574 -0.19944319 1.3012815
-0.084703602 -0.19916794 1.2994854
-0.080284946 -0.19956543 1.302079
-0.075851902 -0.1999732 1.3047395
-0.071400717 -0.20038265 1.307411
-0.066931255 -0.20079376 1.3100933
-0.06244342 -0.20120656 1.3127867
-0.057937093 -0.20162109 1.3154912
-0.053412158 -0.20203729 1.3182068
-0.049021706 -0.20308992 1.3250748
-0.11340453 -0.19672213 1.3137283
-0.10862419 -0.196448 1.3118976
-0.10385715 -0.19617462 1.3100719
-0.099103361 -0.195902 1.3082514
-0.094362766 -0.19563013 1.3064358
-0.089635313 -0.19535901 1.3046253
-0.084953114 -0.19516256 1.3033134
-0.080525413 -0.19556172 1.305979
-0.076079562 -0.19596252 1.3086555
-0.071615443 -0.19636492 1.3113428
-0.067132957 -0.19676901 1.3140414
-0.062631994 -0.1971748 1.3167512
-0.05811242 -0.19758223 1.3194721
-0.053574122 -0.19799133 1.3222041
-0.049257413 -0.19937524 1.3314461
-0.099359386 -0.19178672 1.3116311
-0.094606198 -0.19151987 1.3098061
-0.089866228 -0.19125377 1.3079863
-0.085207812 -0.19114184 1.3072208
-0.080767334 -0.19153395 1.3099024
-0.076308593 -0.19192767 1.312595
-0.07183148 -0.192323 1.3152987
-0.067335889 -0.19271997 1.3180135
-0.062821709 -0.19311859 1.3207397
-0.058288809 -0.19351885 1.3234771
-0.053737082 -0.19392078 1.3262259
-0.085464038 -0.18709695 1.3111517
