# .PCD v0.7 - Point Cloud Data file format
VERSION 0.7
FIELDS x y z
SIZE 4 4 4
TYPE F F F
COUNT 1 1 1
WIDTH 813
HEIGHT 1
VIEWPOINT 0 0 0 1 0 0 0
POINTS 813
DATA ascii
0.2889055 -0.29300347 1.1630757
0.2931343 -0.2931343 1.1635951
0.27885532 -0.29124889 1.1725097
0.2806538 -0.28884807 1.1628444
0.28242713 -0.28649083 1.1533546
0.28738526 -0.28738526 1.1569555
0.29291016 -0.2888135 1.1627053
0.29848972 -0.29025552 1.1685106
0.3041248 -0.29171154 1.1743722
0.26864198 -0.28946695 1.1821033
0.27053833 -0.28705975 1.172273
0.2724053 -0.28469428 1.162613
0.27424562 -0.2823714 1.1531271
0.27628955 -0.280323 1.1447619
0.28170148 -0.28170148 1.1503913
0.28716689 -0.2830936 1.1560763
0.29268551 -0.28449851 1.1618136
0.29826078 -0.28591895 1.1676143
0.30389038 -0.28735214 1.173467
0.30957672 -0.28879976 1.1793787
0.260259 -0.28524387 1.1818627
0.26222467 -0.28287229 1.1720364
0.26416013 -0.28054217 1.1623819
0.26606733 -0.27825361 1.1528996
0.26794365 -0.27600211 1.1435709
0.27081016 -0.27482218 1.138682
0.2760818 -0.2760818 1.1439011
0.28148866 -0.27743846 1.1495222
0.28694886 -0.27880847 1.1551986
0.29246205 -0.28019091 1.1609266
0.29803237 -0.28158921 1.1667202
0.30365634 -0.28299943 1.1725632
0.30933711 -0.28442404 1.1784658
0.31507528 -0.28586301 1.184428
0.25391442 -0.27868655 1.1718
0.25591823 -0.27639169 1.1621507
0.25789225 -0.27413744 1.1526723
0.26098853 -0.27312756 1.1484259
0.26417965 -0.27224621 1.1447202
0.26735029 -0.27137059 1.1410384
0.27052537 -0.27052537 1.1374846
0.2758745 -0.27184713 1.1430422
0.28127673 -0.27318242 1.1486567
0.28673115 -0.27452981 1.1543221
0.2922397 -0.27589062 1.160044
0.29780388 -0.27726567 1.1658256
0.30342263 -0.27865344 1.1716608
0.30909783 -0.28005508 1.1775542
0.31483036 -0.28147084 1.1835072
0.32062125 -0.28290111 1.1895211
0.24772501 -0.27229276 1.1621327
0.25099739 -0.2714037 1.1583382
0.2542485 -0.27052039 1.1545683
0.25747848 -0.26964283 1.1508229
0.26068762 -0.26877096 1.1471018
0.26387602 -0.26790467 1.1434045
0.26704389 -0.26704389 1.1397307
0.2703234 -0.26631862 1.1366353
0.27566665 -0.267618 1.142181
0.28106573 -0.26893339 1.1477951
0.29074684 -0.27425057 1.1704885
0.29459414 -0.27399313 1.1693898
0.29832754 -0.27363837 1.1678756
0.30318928 -0.27431411 1.1707597
0.30885887 -0.27569282 1.176644
0.31458694 -0.2770865 1.1825922
0.32037115 -0.27849257 1.1885931
0.32621551 -0.27991396 1.1946596
0.24414495 -0.26876462 1.1645873
0.24743596 -0.26788521 1.1607767
0.25070548 -0.26701152 1.156991
0.25395375 -0.26614353 1.1532298
0.25718096 -0.26528117 1.1494931
0.26038733 -0.26442435 1.1457804
0.26357305 -0.26357305 1.1420916
0.26673818 -0.26272708 1.1384259
0.27012169 -0.26211807 1.1357871
0.27545998 -0.26339602 1.1413246
0.28085318 -0.26468897 1.1469271
0.29220086 -0.2714774 1.1763421
0.29583436 -0.27100912 1.1743129
0.29941443 -0.27050546 1.1721306
0.30295691 -0.26998201 1.1698624
0.308622 -0.27133879 1.1757416
0.31434128 -0.27270666 1.1816686
0.32012153 -0.27409098 1.187667
0.32596001 -0.27548879 1.1937239
0.24385947 -0.26435187 1.1632255
0.24714756 -0.26348791 1.1594238
0.25041422 -0.26262957 1.1556469
0.25365967 -0.26177678 1.1518945
0.25688416 -0.26092955 1.1481664
0.26008776 -0.26008776 1.1444622
0.26327068 -0.25925127 1.1407814
0.26643315 -0.25842014 1.1371242
0.26992029 -0.25792381 1.1349403
0.27525359 -0.2591804 1.1404696
0.28063911 -0.26044923 1.1460528
0.29310182 -0.26815698 1.1799692
0.2966308 -0.26759002 1.1774744
0.30011517 -0.26699901 1.1748737
0.30356038 -0.26638973 1.1721927
0.30838194 -0.2669884 1.1748271
0.31409842 -0.26833573 1.1807557
0.31987226 -0.26969624 1.1867423
0.32570493 -0.27107057 1.1927898
0.24357465 -0.25994942 1.1618669
0.24685983 -0.25910082 1.158074
0.25012365 -0.25825775 1.1543058
0.25336629 -0.25742015 1.1505622
0.25658798 -0.25658798 1.1468427
0.25978878 -0.25576106 1.1431466
0.26296899 -0.25493941 1.1394743
0.26612884 -0.25412303 1.1358254
0.26971918 -0.25373581 1.1340947
0.27504751 -0.25497106 1.1396157
0.28042796 -0.25621834 1.1451906
0.2936739 -0.2645148 1.1822723
0.29712245 -0.26387799 1.179426
0.30052647 -0.26321971 1.1764839
0.30388993 -0.26254436 1.1734653
0.30814415 -0.26264635 1.1739211
0.31385529 -0.263971 1.1798418
0.31962341 -0.26530832 1.185819
0.3254503 -0.26665926 1.1918572
0.3313368 -0.26802403 1.1979572
0.2432905 -0.25555724 1.1605115
0.24657279 -0.25472397 1.1567274
0.24983376 -0.25389609 1.152968
0.2530736 -0.2530736 1.149233
0.2562924 -0.2522563 1.1455216
0.25949052 -0.25144428 1.1418341
0.26266804 -0.25063744 1.1381701
0.26582524 -0.24983574 1.1345296
0.26951838 -0.24955405 1.1332504
0.27484173 -0.25076801 1.1387631
0.28021717 -0.25199386 1.1443298
0.28564569 -0.253232 1.1499523
0.29733655 -0.25990957 1.1802758
0.30065882 -0.25918865 1.1770021
0.3039318 -0.25844541 1.1736269
0.30790785 -0.25831196 1.173021
0.31361255 -0.25961304 1.1789292
0.31937498 -0.26092726 1.1848973
0.325196 -0.26225483 1.190926
0.33107659 -0.263596 1.1970164
0.243007 -0.25117531 1.1591592
0.24628641 -0.25035724 1.1553839
0.24954453 -0.24954453 1.1516333
0.25278151 -0.24873702 1.1479067
0.25599754 -0.24793462 1.1442037
0.25919288 -0.2471374 1.1405245
0.26236776 -0.24634528 1.136869
0.2655223 -0.24555822 1.1332366
0.2693179 -0.24537852 1.1324074
0.2746363 -0.24657129 1.1379119
0.28000692 -0.2477759 1.1434711
0.2854327 -0.24899448 1.1490948
0.29724732 -0.25567427 1.1799216
0.30046117 -0.25487396 1.1762283
0.30360907 -0.25404024 1.1723807
0.30767006 -0.25398266 1.172115
0.31337017 -0.25526178 1.1780181
0.31912687 -0.25655299 1.1839769
0.32494214 -0.25785729 1.1899962
0.33081678 -0.25917491 1.196077
0.24272415 -0.24680355 1.15781
0.24600068 -0.24600068 1.1540436
0.24925597 -0.24520302 1.1503016
0.25249004 -0.24441038 1.1465831
0.25570333 -0.24362285 1.1428887
0.25889596 -0.24284039 1.139218
0.26206815 -0.24206294 1.1355708
0.26522008 -0.24129045 1.1319468
0.26911768 -0.24120918 1.1315656
0.27443147 -0.24238107 1.1370631
0.27979907 -0.2435661 1.1426224
0.28521752 -0.24476112 1.1482285
0.29068914 -0.24596772 1.1538889
0.29973009 -0.2501196 1.1733663
0.30259222 -0.24907251 1.1684542
0.30743113 -0.24965884 1.1712048
0.31312802 -0.25091717 1.1771078
0.31887919 -0.25218549 1.1830579
0.32468861 -0.25346661 1.1890678
0.33055738 -0.2547608 1.1951392
0.33648643 -0.25606829 1.201273
0.242442 -0.242442 1.1564641
0.24571565 -0.24165423 1.1527064
0.24896798 -0.24087146 1.1489725
0.25219926 -0.24009371 1.1452626
0.25540978 -0.23932098 1.1415766
0.2585997 -0.23855321 1.1379143
0.26176921 -0.23779035 1.1342754
0.26491854 -0.23703237 1.1306598
0.26891807 -0.23704629 1.1307262
0.27422699 -0.23819718 1.136216
0.27958786 -0.23935939 1.1417599
0.28500128 -0.24053299 1.1473581
0.29046804 -0.24171816 1.1530113
0.29598793 -0.24291423 1.1587167
0.30156657 -0.24412532 1.1644937
0.30719727 -0.24534547 1.1703138
0.31288415 -0.24657758 1.1761911
0.31863186 -0.24782479 1.1821404
0.32443553 -0.24908276 1.188141
0.33029842 -0.25035357 1.1942029
0.33622146 -0.25163743 1.2003269
0.24216047 -0.23809054 1.1551212
0.24543117 -0.23731774 1.1513718
0.24868065 -0.2365499 1.1476465
0.25190917 -0.23578699 1.1439452
0.25511694 -0.235029 1.1402677
0.25830415 -0.23427586 1.1366138
0.26162723 -0.23366706 1.1336602
0.26501858 -0.23313664 1.1310868
0.26871842 -0.23288929 1.1298867
0.27402252 -0.23401923 1.1353688
0.27937835 -0.2351602 1.1409043
0.28478667 -0.23631234 1.146494
0.29024825 -0.23747583 1.1521388
0.2957651 -0.23865186 1.1578444
0.30133685 -0.23983954 1.1636066
0.30696172 -0.24103704 1.1694164
0.31264171 -0.24224557 1.1752797
0.31838259 -0.24346904 1.1812155
0.32418287 -0.24470578 1.1872157
0.33003986 -0.24595328 1.1932681
0.33595687 -0.24721356 1.1993824
0.34193486 -0.24848683 1.2055598
0.24187955 -0.23374914 1.1537812
0.24514732 -0.23299126 1.1500403
0.24840857 -0.23225193 1.1463909
0.25186822 -0.23171876 1.1437593
0.25531203 -0.23118806 1.1411397
0.2587401 -0.23065978 1.1385322
0.26215252 -0.23013389 1.1359364
0.26554942 -0.2296104 1.1333524
0.26893094 -0.2290893 1.1307803
0.27381831 -0.22984749 1.1345227
0.27916914 -0.23096728 1.1400499
0.28457236 -0.23209803 1.1456313
0.29002878 -0.23323992 1.1512676
0.29554212 -0.23439547 1.1569715
0.30110309 -0.23555683 1.1627039
0.30672485 -0.23673396 1.1685141
0.31240287 -0.23792271 1.1743819
0.31813523 -0.23912126 1.1802979
0.3239297 -0.24033493 1.1862885
0.32978171 -0.24155985 1.1923347
0.33569273 -0.24279663 1.1984394
0.34166464 -0.24404618 1.2046071
0.24193378 -0.22973543 1.1540399
0.24543142 -0.22920455 1.151373
0.24891293 -0.22867611 1.1487185
0.25237843 -0.22815011 1.1460762
0.25582802 -0.2276265 1.143446
0.25926182 -0.22710532 1.1408279
0.2626799 -0.22658649 1.1382216
0.26608244 -0.22607003 1.1356273
0.26946947 -0.22555593 1.1330447
0.27361441 -0.22568196 1.1336778
0.27896026 -0.22678064 1.1391969
0.28435838 -0.22789006 1.1447699
0.28980958 -0.22901039 1.1503977
0.29531392 -0.23014119 1.1560781
0.30087218 -0.2312827 1.1618123
0.30648923 -0.23243815 1.1676165
0.31216255 -0.2336051 1.1734785
0.31788871 -0.23478055 1.1793832
0.32367587 -0.23597015 1.185359
0.32952321 -0.23717275 1.1914001
0.33542898 -0.23838665 1.1974978
0.34139487 -0.23961255 1.203656
0.24242827 -0.22613057 1.1563987
0.24593189 -0.22560695 1.1537209
0.24941935 -0.22508575 1.1510556
0.25289071 -0.22456694 1.1484025
0.25634611 -0.22405054 1.1457616
0.25978565 -0.22353648 1.1431328
0.26320946 -0.2230248 1.1405162
0.26661757 -0.2225154 1.1379112
0.2700102 -0.22200839 1.1353184
0.27341083 -0.22152264 1.1328343
0.27875167 -0.22260027 1.1383451
0.28414473 -0.22368839 1.1439097
0.28959078 -0.22478725 1.1495291
0.29509103 -0.22589728 1.1552056
0.30064297 -0.22701612 1.1609272
0.30625495 -0.22814967 1.166724
0.31192076 -0.22929275 1.1725695
0.31764439 -0.23044787 1.1784767
0.32342395 -0.23161329 1.1844364
0.32926425 -0.23279192 1.1904638
0.33516574 -0.23398364 1.196558
0.34112549 -0.23518589 1.2027062
0.34714681 -0.23640059 1.208918
0.24292481 -0.22251095 1.1587671
0.24643442 -0.22199465 1.1560783
0.2499278 -0.22148074 1.1534021
0.25340503 -0.2209692 1.1507381
0.25686628 -0.22046003 1.1480865
0.26031157 -0.21995319 1.1454471
0.26374111 -0.2194487 1.1428199
0.2671549 -0.2189465 1.1402045
0.27055311 -0.21844658 1.1376011
0.27393585 -0.21794896 1.1350096
0.27854338 -0.21842612 1.1374946
0.2839314 -0.21949306 1.1430509
0.2893723 -0.22057047 1.1486617
0.29486686 -0.22165854 1.154328
0.30041409 -0.22275603 1.1600434
0.30602181 -0.2238683 1.1658357
0.31168029 -0.22498776 1.1716655
0.31739965 -0.22612132 1.1775688
0.32317245 -0.2272632 1.1835153
0.32900688 -0.22841878 1.1895332
0.33490178 -0.22958675 1.1956156
0.34085652 -0.23076621 1.2017579
0.3468717 -0.23195714 1.2079599
0.24693899 -0.21836753 1.1584454
0.25043833 -0.217861 1.1557581
0.25392151 -0.21735682 1.1530834
0.25738859 -0.21685494 1.150421
0.26083967 -0.21635538 1.1477709
0.2642749 -0.21585813 1.1451329
0.26769435 -0.21536314 1.142507
0.2710982 -0.21487042 1.1398931
0.27448645 -0.21437994 1.1372911
0.27833545 -0.21425821 1.1366453
0.28371841 -0.21530403 1.1421934
0.28915414 -0.21636009 1.1477958
0.29464346 -0.21742655 1.1534535
0.30018556 -0.2185024 1.1591609
0.30578354 -0.21958953 1.1649281
0.31144023 -0.22068945 1.1707631
0.31715286 -0.22179972 1.1766531
0.32292172 -0.22292016 1.1825972
0.32874992 -0.2240525 1.1886042
0.33463806 -0.22519667 1.1946741
0.34058735 -0.22635308 1.2008089
0.34659702 -0.22752073 1.2070034
0.24744566 -0.21472557 1.1608223
0.25095102 -0.21422647 1.1581241
0.25444007 -0.21372966 1.1554383
0.25791302 -0.21323517 1.152765
0.26136991 -0.21274294 1.150104
0.26481089 -0.21225299 1.1474553
0.26823604 -0.21176529 1.1448188
0.27164549 -0.21127982 1.1421943
0.27503935 -0.21079656 1.1395818
0.27841771 -0.21031553 1.1369812
0.28350571 -0.21112128 1.1413372
0.28893632 -0.21215604 1.1469312
0.29442042 -0.21320099 1.1525803
0.29995736 -0.21425527 1.1582798
0.30554992 -0.21532042 1.1640381
0.31120175 -0.21639857 1.1698666
0.31690753 -0.21748556 1.175743
0.32267338 -0.21858521 1.1816877
0.32849336 -0.21969301 1.1876765
0.33437553 -0.22081403 1.1937369
0.34031808 -0.22194657 1.1998595
0.34632277 -0.22309136 1.2060484
0.35238785 -0.22424681 1.2122948
0.25146574 -0.21057701 1.1604996
0.25496075 -0.21008764 1.1578027
0.25843957 -0.20960061 1.1551186
0.2619023 -0.20911579 1.1524467
0.26534903 -0.2086332 1.1497872
0.26877987 -0.20815285 1.1471399
0.27219498 -0.2076747 1.1445048
0.27559444 -0.20719874 1.1418818
0.27897832 -0.20672494 1.1392707
0.28329331 -0.20694475 1.1404821
0.28871879 -0.2079583 1.1460677
0.29419765 -0.20898178 1.1517082
0.29973087 -0.21001551 1.1574051
0.30531672 -0.21105786 1.1631496
0.31096333 -0.21211407 1.1689703
0.31666255 -0.21317807 1.1748341
0.32242152 -0.21425429 1.1807653
0.32823718 -0.21534032 1.1867504
0.33411348 -0.21643829 1.1928014
0.34004998 -0.21754751 1.1989143
0.34604767 -0.21866816 1.2050903
0.35210782 -0.21980065 1.2113315
0.2519826 -0.20691255 1.1628848
0.2554836 -0.20643073 1.160177
0.25896829 -0.20595115 1.1574817
0.26243687 -0.20547383 1.154799
0.26588938 -0.20499867 1.1521286
0.26932597 -0.20452574 1.1494706
0.27274674 -0.20405497 1.1468247
0.27615178 -0.20358634 1.144191
0.27954122 -0.20311987 1.1415694
0.28308126 -0.20277452 1.1396284
0.28850162 -0.20376687 1.1452056
0.29397529 -0.204769 1.1508378
0.29950356 -0.20578136 1.1565274
0.30508384 -0.2068018 1.1622624
0.31072131 -0.20783345 1.1680605
0.31641799 -0.20887724 1.1739267
0.32217124 -0.20993094 1.1798488
0.32798353 -0.21099578 1.1858333
0.33385178 -0.21206938 1.1918671
0.3397823 -0.21315534 1.1979705
0.34577382 -0.21425249 1.2041366
0.35182741 -0.21536101 1.2103667
0.25250158 -0.20323297 1.1652799
0.25600857 -0.20275877 1.1625609
0.25949916 -0.20228676 1.1598545
0.26297364 -0.20181696 1.1571609
0.26643193 -0.20134932 1.1544795
0.26987427 -0.20088385 1.1518106
0.27330068 -0.2004205 1.1491539
0.27671137 -0.19995932 1.1465096
0.2801064 -0.19950023 1.1438774
0.28348586 -0.19904327 1.1412573
0.28828475 -0.19958176 1.1443448
0.29375327 -0.20056257 1.1499685
0.29927611 -0.2015533 1.1556491
0.30485129 -0.2025522 1.1613765
0.31048328 -0.20356189 1.1671658
0.31617379 -0.20458303 1.1730207
0.32192135 -0.20561428 1.1789336
0.32772714 -0.20665598 1.1849064
0.33359054 -0.20770732 1.1909344
0.339515 -0.2087701 1.1970282
0.34550047 -0.20984384 1.2031847
0.35154781 -0.21092868 1.2094048
0.35765824 -0.21202494 1.2156905
0.25653568 -0.19907169 1.1649547
0.26003227 -0.19860733 1.1622373
0.26351258 -0.19814512 1.1595324
0.26697671 -0.19768503 1.1568401
0.27042478 -0.19722711 1.1541603
0.27385694 -0.19677128 1.1514928
0.27727327 -0.19631755 1.1488377
0.28067383 -0.19586591 1.1461947
0.28405881 -0.19541635 1.1435639
0.28806826 -0.19540295 1.1434854
0.29353154 -0.19636248 1.1491005
0.29904881 -0.19733152 1.1547713
0.30461913 -0.19830911 1.1604921
0.31024566 -0.19929689 1.1662725
0.31593093 -0.20029607 1.1721197
0.32167184 -0.20130432 1.1780199
0.32747182 -0.20232335 1.1839832
0.33333078 -0.20335273 1.1900071
0.33924818 -0.20439176 1.1960874
0.34522751 -0.20544215 1.2022341
0.35126865 -0.20650339 1.2084445
0.35737246 -0.20757563 1.2147192
0.25706497 -0.19536939 1.1673583
0.26056752 -0.19491272 1.1646296
0.26405373 -0.19445817 1.1619136
0.26752371 -0.19400574 1.1592103
0.27097756 -0.19355538 1.1565194
0.27441543 -0.19310716 1.1538411
0.2778374 -0.19266097 1.1511751
0.28124362 -0.19221686 1.1485215
0.28463414 -0.19177477 1.14588
0.28800914 -0.19133474 1.1432507
0.29331017 -0.19216873 1.1482339
0.29882208 -0.19311631 1.1538959
0.30438733 -0.19407246 1.159609
0.31000838 -0.19503838 1.1653805
0.31568572 -0.196014 1.1712099
0.32142273 -0.19700103 1.1771076
0.32721695 -0.19799751 1.1830617
0.33307013 -0.19900416 1.1890765
0.33898178 -0.2000203 1.1951481
0.344955 -0.20104739 1.2012851
0.35098991 -0.20208509 1.2074856
0.35708743 -0.20313358 1.2137504
0.26785278 -0.20252283 1.2361248
0.2705473 -0.2012872 1.2285829
0.261105 -0.19120286 1.1670319
0.26459712 -0.19075607 1.1643047
0.26807293 -0.19031133 1.1615902
0.2715326 -0.18986866 1.1588883
0.27497622 -0.18942806 1.1561991
0.27840388 -0.18898949 1.1535223
0.28181568 -0.18855295 1.1508577
0.2852118 -0.18811841 1.1482055
0.28859225 -0.18768586 1.1455654
0.29308912 -0.18798129 1.1473686
0.29859579 -0.18890755 1.1530221
0.30415583 -0.18984224 1.158727
0.30977145 -0.19078639 1.1644899
0.31544325 -0.19174001 1.1703104
0.32117397 -0.19270438 1.1761966
0.32696244 -0.19367839 1.1821415
0.33280975 -0.1946623 1.1881469
0.33871615 -0.19565591 1.1942116
0.34468293 -0.19665958 1.2003376
0.35071164 -0.19767384 1.2065283
0.35680291 -0.19869862 1.2127832
0.2618503 -0.19692874 1.2283976
0.26456448 -0.19573469 1.2209494
0.26724592 -0.19455503 1.213591
0.26164469 -0.18747769 1.1694441
0.26514277 -0.18703869 1.1667057
0.26862445 -0.18660173 1.16398
0.27208993 -0.18616679 1.161267
0.27553928 -0.18573388 1.1585666
0.27897263 -0.18530299 1.1558788
0.28239009 -0.18487409 1.1532034
0.28579175 -0.18444717 1.1505404
0.28917781 -0.18402223 1.1478897
0.29286841 -0.18380016 1.1465045
0.29836982 -0.18470512 1.1521494
0.30392471 -0.18561845 1.1578466
0.30953491 -0.18654092 1.1636007
0.31520116 -0.18747258 1.1694123
0.32092571 -0.18841444 1.1752874
0.32670835 -0.18936598 1.1812228
0.33254978 -0.19032723 1.1872189
0.33845079 -0.19129828 1.193276
0.34441125 -0.19227868 1.1993916
0.35043386 -0.19326958 1.2055726
0.35651878 -0.1942707 1.2118174
0.25592238 -0.19140413 1.2207664
0.25865552 -0.19025074 1.2134101
0.26135591 -0.18911119 1.2061421
0.26402408 -0.18798515 1.1989603
0.26218662 -0.18373708 1.1718663
0.26569062 -0.18330593 1.1691165
0.26917824 -0.18287681 1.1663796
0.27264953 -0.1824497 1.1636554
0.27610469 -0.18202457 1.160944
0.27954373 -0.18160141 1.1582451
0.28296688 -0.18118022 1.1555588
0.28637412 -0.18076098 1.1528848
0.28976566 -0.18034366 1.1502233
0.29314157 -0.17992827 1.1475739
0.29814422 -0.18050908 1.1512783
0.30369398 -0.1814011 1.1569675
0.30929872 -0.18230191 1.1627128
0.31495944 -0.1832117 1.1685154
0.32067797 -0.18413122 1.1743801
0.32645461 -0.18506026 1.1803055
0.3322902 -0.18599892 1.1862922
0.33818531 -0.18694715 1.19234
0.34414074 -0.18790506 1.1984495
0.35015643 -0.18887226 1.2046182
0.35623509 -0.18984984 1.2108532
0.25006768 -0.18594776 1.2132295
0.25281909 -0.18483412 1.2059635
0.25553772 -0.18373373 1.1987839
0.25822419 -0.18264638 1.1916894
0.26087901 -0.1815718 1.1846782
0.26350281 -0.18050981 1.1777492
0.26624081 -0.17955774 1.1715374
0.26973432 -0.17913653 1.1687891
0.27321145 -0.17871727 1.1660537
0.27667239 -0.17829998 1.163331
0.28011718 -0.17788464 1.160621
0.28354597 -0.17747122 1.1579237
0.28695887 -0.17705972 1.1552389
0.29035595 -0.17665012 1.1525664
0.29373738 -0.17624244 1.1499064
0.29791892 -0.17631936 1.1504083
0.30346355 -0.17719012 1.1560897
0.3090629 -0.17806935 1.1618263
0.3147181 -0.17895734 1.1676201
0.32042998 -0.17985424 1.1734719
0.32620132 -0.18076125 1.1793897
0.33203104 -0.18167736 1.185367
0.33792022 -0.18260285 1.1914054
0.34386966 -0.1835378 1.1975055
0.3498795 -0.18448192 1.2036655
0.35595191 -0.18543603 1.2098906
0.24428481 -0.18055834 1.205785
0.24705386 -0.17948358 1.1986077
0.24979013 -0.17842153 1.1915152
0.25262955 -0.17746705 1.1851411
0.2561956 -0.17704575 1.1823276
0.25974479 -0.17662644 1.1795275
0.2632772 -0.17620915 1.1767408
0.26679322 -0.17579398 1.1739682
0.2702927 -0.17538075 1.1712086
0.27377573 -0.17496945 1.1684619
0.27724245 -0.17456006 1.165728
0.28069302 -0.1741526 1.1630069
0.28412747 -0.173747 1.1602983
0.28754601 -0.17334333 1.1576025
0.29094866 -0.17294151 1.1549191
0.2943356 -0.17254156 1.1522483
0.29770687 -0.17214343 1.1495895
0.30323374 -0.17298569 1.1552142
0.30882743 -0.17384326 1.1609411
0.31447712 -0.17470951 1.166726
0.3201834 -0.17558445 1.1725689
0.32594842 -0.17646888 1.1784753
0.33177233 -0.17736256 1.1844434
0.33765551 -0.17826533 1.1904721
0.34359896 -0.17917737 1.1965628
0.34960297 -0.1800985 1.2027142
0.35566911 -0.18102919 1.2089294
0.23869863 -0.17532732 1.1990651
0.24233995 -0.17490622 1.1961852
0.2459638 -0.17448714 1.1933191
0.24957031 -0.17407006 1.1904666
0.25315967 -0.17365497 1.1876279
0.2567319 -0.17324185 1.1848025
0.2602872 -0.17283069 1.1819906
0.26382592 -0.17242166 1.1791933
0.2673479 -0.17201455 1.176409
0.27085331 -0.17160934 1.1736379
0.27434227 -0.17120607 1.1708798
0.27781484 -0.17080468 1.1681347
0.28127116 -0.17040516 1.1654024
0.28471136 -0.1700075 1.1626828
0.28813553 -0.16961169 1.1599759
0.29154378 -0.16921772 1.1572815
0.29493627 -0.16882558 1.1545997
0.29831305 -0.16843526 1.1519302
0.30300394 -0.16878743 1.1543387
0.30859229 -0.16962358 1.1600572
0.31423652 -0.17046817 1.1658334
0.31993717 -0.1713212 1.1716672
0.32569674 -0.17218362 1.1775653
0.33151394 -0.17305444 1.1835209
0.33739129 -0.17393464 1.1895405
0.34332862 -0.17482378 1.1956214
0.34932706 -0.17572209 1.2017649
0.35538682 -0.17662938 1.2079699
0.23920539 -0.17146581 1.2016107
0.24285318 -0.17105311 1.1987185
0.24648345 -0.17064239 1.1958402
0.25009632 -0.17023364 1.1929758
0.25369197 -0.16982687 1.1901251
0.25727046 -0.169422 1.1872879
0.26083204 -0.16901916 1.1844649
0.26437685 -0.16861831 1.1816558
0.26790494 -0.16821937 1.1788601
0.27141631 -0.16782229 1.1760774
0.27491117 -0.16742709 1.1733079
0.27838957 -0.16703375 1.1705513
0.28185168 -0.16664223 1.1678077
0.28529763 -0.16625257 1.165077
0.28872749 -0.16586472 1.162359
0.29214135 -0.16547866 1.1596535
0.29553935 -0.16509439 1.1569606
0.29892164 -0.16471192 1.1542803
0.30277434 -0.16459545 1.1534641
0.30835754 -0.16541034 1.1591747
0.31399626 -0.16623332 1.164942
0.31969139 -0.16706453 1.1707671
0.32544371 -0.16790408 1.1766505
0.33125603 -0.16875307 1.1826001
0.33712742 -0.16961068 1.1886102
0.34305876 -0.17047706 1.1946816
0.34905109 -0.17135236 1.2008156
0.35510495 -0.17223653 1.2070118
0.23971431 -0.16758788 1.2041671
0.24336861 -0.16718365 1.2012627
0.24700534 -0.16678138 1.1983722
0.2506246 -0.16638103 1.1954956
0.25422654 -0.1659826 1.1926328
0.25781131 -0.16558611 1.1897839
0.26137921 -0.16519167 1.1869496
0.26493013 -0.16479905 1.1841286
0.26846427 -0.16440834 1.1813213
0.27198163 -0.16401945 1.178527
0.27548242 -0.16363241 1.175746
0.2789667 -0.16324717 1.1729779
0.28243461 -0.16286376 1.170223
0.28588629 -0.16248214 1.1674809
0.28932181 -0.1621023 1.1647516
0.29274136 -0.16172424 1.1620352
0.29614493 -0.16134793 1.1593313
0.29953274 -0.16097338 1.1566401
0.30290484 -0.16060056 1.1539612
0.30812317 -0.1612035 1.1582936
0.31375641 -0.16200495 1.1640521
0.31944591 -0.16281436 1.1698681
0.3251926 -0.16363195 1.1757426
0.33099848 -0.16445836 1.1816807
0.33686399 -0.16529351 1.1876814
0.34278935 -0.16613716 1.1937433
0.34877551 -0.16698948 1.1998675
0.35482341 -0.16785058 1.2060548
0.24388622 -0.16329773 1.2038176
0.24752942 -0.16290398 1.2009149
0.25115508 -0.16251211 1.1980261
0.25476333 -0.16212212 1.1951511
0.25835454 -0.16173415 1.192291
0.26192868 -0.16134806 1.1894448
0.26548573 -0.16096379 1.186612
0.26902592 -0.16058135 1.1837927
0.2725493 -0.16020073 1.1809868
0.27605602 -0.15982191 1.1781942
0.2795462 -0.15944488 1.1754147
0.28301999 -0.15906963 1.1726483
0.28647739 -0.15869612 1.1698948
0.28991863 -0.15832436 1.1671543
0.29334381 -0.15795437 1.1644267
0.29675299 -0.15758607 1.1617117
0.30015588 -0.15722451 1.1590463
0.30396724 -0.15708375 1.1580086
0.3078891 -0.15700305 1.1574137
0.31351689 -0.15778302 1.1631635
0.31920087 -0.15857075 1.1689707
0.32494187 -0.1593664 1.1748362
0.33074132 -0.16017033 1.1807626
0.33660096 -0.16098307 1.1867541
0.34252033 -0.16180408 1.1928065
0.3485004 -0.16263352 1.1989211
0.24440606 -0.15939525 1.2063835
0.24805573 -0.15901008 1.2034683
0.25168782 -0.15862678 1.2005672
0.25530258 -0.1582454 1.1976808
0.25890011 -0.15786593 1.1948087
0.26248044 -0.15748827 1.1919504
0.26604366 -0.1571124 1.1891057
0.26958996 -0.15673834 1.1862746
0.27311936 -0.15636605 1.1834569
0.27663207 -0.15599552 1.1806526
0.28012812 -0.15562674 1.1778615
0.28360775 -0.15525971 1.1750836
0.28722551 -0.1549778 1.1729499
0.29109427 -0.15483737 1.1718872
0.29495603 -0.15469722 1.1708264
0.29881084 -0.15455733 1.1697676
0.30265856 -0.15441763 1.1687104
0.30649927 -0.15427816 1.1676548
0.31033307 -0.15413894 1.1666011
0.31415999 -0.15399998 1.1655494
0.31895617 -0.15433364 1.1680746
0.32469153 -0.15510742 1.173931
0.33048469 -0.155889 1.1798464
0.33633831 -0.15667935 1.1858281
0.34225175 -0.1574778 1.1918712
0.24858429 -0.15509959 1.2060326
0.25222287 -0.15472496 1.2031195
0.25584412 -0.15435223 1.2002213
0.25944799 -0.15398133 1.1973372
0.26303455 -0.15361218 1.1944667
0.26660395 -0.15324479 1.19161
0.27015635 -0.15287918 1.188767
0.27398112 -0.15267651 1.187191
0.27790898 -0.1525365 1.1861024
0.28182963 -0.15239677 1.1850158
0.28574309 -0.15225726 1.1839311
0.2896494 -0.15211803 1.1828485
0.29354858 -0.15197904 1.1817677
0.29744059 -0.1518403 1.1806889
0.30132544 -0.15170178 1.1796117
0.30520317 -0.15156348 1.1785363
0.30907384 -0.15142544 1.1774629
0.3129375 -0.15128766 1.1763916
0.3167941 -0.15115014 1.1753222
0.32064372 -0.15101284 1.1742547
0.32448632 -0.15087581 1.173189
0.33022904 -0.15161459 1.1789337
0.33607611 -0.15238233 1.1849036
0.24911509 -0.1511724 1.2086079
0.25276032 -0.15080659 1.2056832
0.25641507 -0.15045844 1.2028998
0.26041117 -0.15031865 1.2017822
0.26439986 -0.15017912 1.2006667
0.26838112 -0.15003984 1.1995531
0.27235505 -0.14990084 1.1984419
0.27632159 -0.14976208 1.1973325
0.28028074 -0.14962356 1.196225
0.28423265 -0.14948532 1.1951199
0.28817722 -0.14934732 1.1940166
0.29211456 -0.14920959 1.1929154
0.2960445 -0.14907205 1.1918159
0.29996723 -0.14893478 1.1907183
0.30388266 -0.14879772 1.1896225
0.30779094 -0.14866093 1.1885289
0.31169206 -0.1485244 1.1874374
0.31558597 -0.1483881 1.1863477
0.31947279 -0.14825207 1.1852602
0.32335246 -0.14811629 1.1841745
0.32722503 -0.14798075 1.1830909
0.33109051 -0.14784545 1.1820092
0.25459859 -0.14762439 1.2144518
0.25863472 -0.14748591 1.2133126
0.2626633 -0.1473477 1.2121756
0.26668432 -0.14720975 1.2110407
0.27069783 -0.14707205 1.2099079
0.27470383 -0.1469346 1.2087772
0.27870235 -0.14679742 1.2076486
0.28269339 -0.14666048 1.2065221
0.28667703 -0.14652382 1.2053978
0.29065317 -0.14638737 1.2042753
0.29462186 -0.14625114 1.2031546
0.29858315 -0.14611515 1.2020359
0.30253708 -0.14597943 1.2009194
0.30648369 -0.14584397 1.1998049
0.31042299 -0.14570875 1.1986926
0.31435496 -0.14557377 1.1975821
0.31827968 -0.14543907 1.196474
0.26495472 -0.14432491 1.2227503
0.26900861 -0.14418861 1.2215955
0.27305484 -0.14405255 1.2204428
0.2770935 -0.14391677 1.2192924
0.2811245 -0.14378123 1.2181441
0.28514794 -0.14364596 1.216998
0.28916368 -0.14351086 1.2158535
0.29317188 -0.14337602 1.2147111
0.29717258 -0.14324145 1.213571
0.30116573 -0.14310712 1.2124329
0.30515143 -0.14297305 1.211297
0.2754533 -0.14098004 1.2311629
0.27952507 -0.14084597 1.2299922
0.28358907 -0.14071213 1.2288233
0.28764528 -0.14057852 1.2276565
