# .PCD v0.7 - Point Cloud Data file format
VERSION 0.7
FIELDS x y z
SIZE 4 4 4
TYPE F F F
COUNT 1 1 1
WIDTH 1385
HEIGHT 1
VIEWPOINT 0 0 0 1 0 0 0
POINTS 1385
DATA ascii
0.17218563 -0.22589491 0.89668864
0.17457652 -0.22490489 0.89275879
0.17768852 -0.22486246 0.89259034
0.16440214 -0.22505537 0.90602779
0.16682494 -0.22402206 0.90186793
0.1692256 -0.22299822 0.89774615
0.17160437 -0.22198363 0.89366156
0.1743004 -0.22140861 0.89134669
0.17740755 -0.22136694 0.89117897
0.1805135 -0.22132525 0.89101106
0.18361825 -0.22128354 0.89084315
0.18672185 -0.22124186 0.89067537
0.1898243 -0.22120023 0.89050776
0.15394649 -0.22524801 0.91985089
0.15645482 -0.22419813 0.91556346
0.15893988 -0.22315802 0.91131592
0.16140199 -0.2221275 0.90710753
0.16384146 -0.22110644 0.90293783
0.16625862 -0.22009474 0.89880633
0.16865364 -0.2190921 0.89471185
0.17102692 -0.21809854 0.89065439
0.17402513 -0.21792336 0.88993901
0.17712744 -0.21788242 0.88977182
0.18022856 -0.21784148 0.88960463
0.18332848 -0.21780051 0.88943732
0.18642724 -0.21775955 0.88927007
0.18952483 -0.21771862 0.88910288
0.19262128 -0.2176777 0.8889358
0.19571653 -0.21763679 0.88876873
0.19881064 -0.21759589 0.88860172
0.14576487 -0.22437964 0.92968142
0.14833844 -0.2233227 0.92530215
0.15088786 -0.22227566 0.92096388
0.15341349 -0.22123839 0.91666615
0.15591566 -0.22021078 0.91240835
0.15839468 -0.21919264 0.90818989
0.16085088 -0.21818388 0.90401024
0.16328456 -0.21718431 0.89986867
0.16569595 -0.21619377 0.89576453
0.16808546 -0.21521223 0.89169765
0.17065212 -0.21448937 0.88870263
0.17375076 -0.21444914 0.88853592
0.17684822 -0.21440889 0.8883692
0.17994452 -0.21436869 0.88820261
0.18303962 -0.21432845 0.88803589
0.18613355 -0.2142882 0.88786912
0.18922631 -0.21424797 0.88770247
0.19231792 -0.21420777 0.88753587
0.19540839 -0.21416759 0.88736939
0.19849767 -0.21412741 0.88720292
0.20158578 -0.21408723 0.88703644
0.20467275 -0.21404709 0.88687009
0.20775858 -0.21400695 0.88670379
0.13474011 -0.22456686 0.94424164
0.13740651 -0.22349253 0.93972439
0.14004754 -0.22242843 0.93525016
0.14266352 -0.22137444 0.93081838
0.14525482 -0.22033034 0.92642826
0.1478218 -0.21929607 0.92207944
0.15036482 -0.21827149 0.9177714
0.15288416 -0.21725643 0.91350329
0.15538016 -0.21625075 0.9092747
0.15785319 -0.21525434 0.90508509
0.16030346 -0.214267 0.90093362
0.16273132 -0.21328862 0.89681977
0.1651371 -0.21231912 0.89274329
0.1675211 -0.21135841 0.88870376
0.17038342 -0.21102534 0.88730329
0.17347723 -0.21098581 0.88713712
0.17656986 -0.21094631 0.886971
0.17966135 -0.2109068 0.88680488
0.18275167 -0.2108673 0.88663882
0.18584079 -0.21082778 0.88647264
0.18892874 -0.21078826 0.88630646
0.19201554 -0.21074876 0.88614041
0.19510119 -0.21070927 0.88597435
0.19818568 -0.21066983 0.88580847
0.20126903 -0.21063037 0.88564259
0.20435119 -0.21059093 0.88547671
0.20743223 -0.2105515 0.88531095
0.21051207 -0.21051207 0.88514519
0.21359123 -0.21047311 0.88498133
0.12612842 -0.22366773 0.95460331
0.12886558 -0.22258601 0.94998658
0.1315764 -0.22151472 0.94541436
0.13426127 -0.22045368 0.9408859
0.13692053 -0.21940276 0.93640065
0.13955455 -0.21836182 0.93195796
0.14216369 -0.21733071 0.92755723
0.14474832 -0.21630929 0.92319787
0.14730877 -0.21529743 0.91887933
0.14984538 -0.214295 0.91460097
0.15235846 -0.21330185 0.91036224
0.15484837 -0.21231787 0.90616268
0.15731531 -0.2113428 0.90200108
0.15975969 -0.21037661 0.89787745
0.16218179 -0.20941921 0.89379132
0.16458198 -0.20847051 0.88974231
0.16702543 -0.20761105 0.88607419
0.17011559 -0.20757222 0.88590848
0.17320456 -0.20753339 0.88574272
0.17629239 -0.20749459 0.88557714
0.17937906 -0.20745578 0.8854115
0.18246457 -0.207417 0.88524598
0.18554895 -0.20737822 0.88508052
0.1886321 -0.20733942 0.88491488
0.19171411 -0.20730062 0.88474929
0.19479497 -0.20726185 0.88458377
0.19787467 -0.20722307 0.88441831
0.20095323 -0.20718434 0.88425303
0.20403063 -0.2071456 0.88408768
0.20710689 -0.20710689 0.88392246
0.21018198 -0.20706818 0.88375723
0.21356016 -0.20732482 0.88485259
0.21743436 -0.2080487 0.88794208
0.12013607 -0.2216595 0.96047556
0.12291915 -0.22058094 0.95580202
0.12567529 -0.21951284 0.95117378
0.12840486 -0.218455 0.94659013
0.13110824 -0.21740733 0.94205046
0.13378583 -0.21636967 0.93755412
0.13643797 -0.21534185 0.93310046
0.13906503 -0.21432376 0.92868894
0.14166738 -0.21331526 0.92431903
0.14424536 -0.21231619 0.91998994
0.14679928 -0.21132645 0.91570127
0.14932951 -0.21034588 0.91145235
0.15183634 -0.20937432 0.90724248
0.15432005 -0.2084116 0.90307093
0.15678102 -0.20745772 0.89893764
0.15921956 -0.2065125 0.89484191
0.16163599 -0.20557587 0.89078337
0.16403061 -0.2046477 0.88676155
0.16676323 -0.20416807 0.88468319
0.16984856 -0.20412992 0.88451791
0.17293274 -0.2040918 0.88435274
0.17601578 -0.20405369 0.88418758
0.17909767 -0.20401561 0.88402259
0.18217839 -0.20397753 0.88385755
0.18525799 -0.20393945 0.88369262
0.18833639 -0.20390137 0.88352758
0.19141361 -0.20386328 0.88336253
0.1944897 -0.20382521 0.88319755
0.19756463 -0.20378715 0.88303262
0.20063844 -0.20374912 0.88286787
0.20371109 -0.20371109 0.88270307
0.20678258 -0.20367306 0.88253832
0.20985292 -0.20363507 0.88237363
0.2135291 -0.20417745 0.8847239
0.21740259 -0.20489021 0.88781232
0.2213034 -0.20560813 0.89092314
0.11689936 -0.21855098 0.96168828
0.1197018 -0.21748637 0.95700365
0.12247699 -0.21643195 0.95236391
0.12522539 -0.21538769 0.94776881
0.1279474 -0.21435343 0.94321781
0.13064338 -0.21332906 0.93871027
0.13331373 -0.21231446 0.93424571
0.13595879 -0.21130943 0.92982334
0.13857894 -0.21031392 0.92544276
0.14117451 -0.20932771 0.92110318
0.14374585 -0.20835072 0.91680413
0.1462933 -0.20738281 0.91254503
0.14881714 -0.20642376 0.90832496
0.1513177 -0.2054735 0.90414351
0.15379533 -0.20453194 0.90000033
0.15625037 -0.20359896 0.895895
0.15868311 -0.20267446 0.89182693
0.16109385 -0.20175831 0.88779557
0.16348287 -0.2008504 0.88380051
0.16650183 -0.20073585 0.88329649
0.16958238 -0.20069842 0.88313174
0.1726618 -0.200661 0.88296711
0.17574005 -0.2006236 0.88280255
0.17881715 -0.2005862 0.88263798
0.18189313 -0.20054883 0.88247353
0.18496794 -0.20051146 0.88230908
0.18804161 -0.20047411 0.88214475
0.19111408 -0.20043673 0.88198024
0.19418541 -0.20039934 0.88181573
0.1972556 -0.20036198 0.88165134
0.20032462 -0.20032462 0.88148695
0.20339255 -0.20028733 0.8813228
0.20645928 -0.20024998 0.88115853
0.20965223 -0.20033436 0.88152975
0.21349804 -0.201031 0.88459522
0.21737078 -0.20173259 0.88768244
0.22127095 -0.20243938 0.89079249
0.22519851 -0.20315111 0.8939243
0.11647626 -0.21438384 0.95820755
0.11927066 -0.21334329 0.95355672
0.12203799 -0.21231267 0.94895029
0.1247787 -0.21129194 0.94438803
0.12749319 -0.21028097 0.9398694
0.13018182 -0.20927963 0.93539381
0.13284495 -0.20828776 0.9309606
0.13548298 -0.2073053 0.92656934
0.13809623 -0.20633201 0.92221922
0.14068505 -0.20536785 0.91790974
0.14324981 -0.20441265 0.91364044
0.14579071 -0.20346616 0.90941
0.1483082 -0.2025284 0.9052186
0.15080257 -0.20159921 0.90106553
0.15327415 -0.20067853 0.89695042
0.15572327 -0.19976622 0.89287281
0.15815024 -0.19886218 0.88883209
0.16055533 -0.19796628 0.88482779
0.16316436 -0.19735117 0.88207853
0.16624127 -0.19731441 0.8819142
0.16931707 -0.19727768 0.88175005
0.17239168 -0.19724093 0.88158584
0.17546518 -0.19720423 0.88142174
0.17853752 -0.19716753 0.88125771
0.18160872 -0.19713084 0.88109374
0.18467879 -0.19709419 0.88092989
0.1877477 -0.19705752 0.88076597
0.19081548 -0.19702086 0.88060218
0.19388206 -0.19698417 0.88043821
0.1969475 -0.1969475 0.8802743
0.2000118 -0.19691084 0.88011044
0.20307496 -0.1968742 0.87994665
0.206137 -0.19683759 0.87978303
0.20962188 -0.19719984 0.88140213
0.21346702 -0.19788548 0.88446671
0.21733902 -0.19857594 0.88755274
0.22123848 -0.19927154 0.89066178
0.22516537 -0.19997205 0.89379275
0.22911994 -0.20067747 0.89694571
0.11605621 -0.21024676 0.95475197
0.1188426 -0.20922993 0.95013446
0.12160215 -0.20822287 0.94556123
0.12433521 -0.20722534 0.9410314
0.12704219 -0.20623733 0.93654472
0.1297235 -0.20525871 0.93210071
0.13237949 -0.20428933 0.92769867
0.1350105 -0.20332906 0.92333794
0.13761687 -0.20237775 0.91901797
0.14019896 -0.20143528 0.91473818
0.14275704 -0.20050146 0.91049755
0.14529152 -0.19957626 0.90629613
0.14780271 -0.19865955 0.90213329
0.15029094 -0.19775122 0.89800847
0.15275651 -0.19685118 0.89392126
0.15519975 -0.19595928 0.88987106
0.15762095 -0.19507542 0.8858574
0.16002038 -0.19419949 0.88187969
0.16290936 -0.19393972 0.88069999
0.16598153 -0.19390365 0.88053626
0.16905254 -0.19386759 0.88037252
0.17212243 -0.19383156 0.88020891
0.17519115 -0.19379553 0.88004524
0.17825878 -0.19375953 0.8798818
0.18132523 -0.19372353 0.8797183
0.18439056 -0.19368756 0.87955493
0.18745475 -0.19365159 0.87939161
0.19051778 -0.19361563 0.87922829
0.19357964 -0.19357964 0.87906492
0.19664037 -0.19354367 0.87890154
0.19969995 -0.1935077 0.87873822
0.20275839 -0.19347174 0.87857491
0.2058157 -0.1934358 0.87841171
0.20959151 -0.19406621 0.88127446
0.21343599 -0.19474088 0.88433814
0.21730731 -0.19542025 0.88742328
0.22120604 -0.19610465 0.89053118
0.22513223 -0.19679391 0.8936612
0.22908613 -0.19748804 0.89681333
0.233068 -0.19818707 0.8999877
0.11283369 -0.20714244 0.95595014
0.11563917 -0.20613939 0.95132113
0.11841761 -0.205146 0.94673669
0.1211694 -0.20416214 0.94219619
0.12389483 -0.20318753 0.93769842
0.12659438 -0.2022222 0.93324351
0.12926839 -0.20126598 0.92883062
0.13191724 -0.20031877 0.92445928
0.13454127 -0.19938044 0.92012894
0.13714078 -0.19845077 0.9158386
0.13971612 -0.19752969 0.91158783
0.14226766 -0.19661711 0.90737635
0.14479573 -0.19571291 0.90320355
0.14730066 -0.19481701 0.89906901
0.14978275 -0.19392924 0.89497203
0.15224235 -0.19304956 0.89091235
0.15467972 -0.19217783 0.88688934
0.15737291 -0.19165215 0.88446337
0.16012028 -0.1912116 0.8824302
0.16285479 -0.19077276 0.88040501
0.16572258 -0.19050352 0.87916249
0.16878884 -0.19046815 0.87899923
0.17185399 -0.1904328 0.87883615
0.17491801 -0.19039749 0.87867314
0.17798087 -0.19036214 0.87851006
0.18104261 -0.19032684 0.87834716
0.18410319 -0.19029154 0.8781842
0.18716267 -0.19025627 0.87802142
0.19022098 -0.19022098 0.87785858
0.19327818 -0.19018573 0.87769592
0.1963342 -0.19015044 0.87753308
0.19938907 -0.19011515 0.87737024
0.20244281 -0.19007988 0.87720746
0.20574385 -0.19027439 0.87810504
0.20956115 -0.1909335 0.88114679
0.21340497 -0.19159716 0.88420957
0.21727562 -0.19226548 0.88729382
0.22117358 -0.19293866 0.89040053
0.2250991 -0.19361672 0.89352971
0.22905229 -0.19429952 0.89668083
0.23303346 -0.19498719 0.89985436
0.11242773 -0.20304112 0.95251077
0.11522512 -0.20206144 0.9479149
0.11799565 -0.20109117 0.94336313
0.12073969 -0.20013018 0.93885487
0.12345759 -0.19917825 0.93438917
0.12614971 -0.19823526 0.92996544
0.12881649 -0.19730119 0.92558348
0.13145824 -0.19637588 0.92124265
0.13407522 -0.19545907 0.9169417
0.13666791 -0.19455078 0.91268069
0.13923657 -0.19365087 0.90845901
0.14178161 -0.19275926 0.90427631
0.14430332 -0.19187585 0.900132
0.14702223 -0.191287 0.89736956
0.14983374 -0.19084087 0.89527667
0.15263215 -0.1903968 0.89319348
0.15541756 -0.1899548 0.89111996
0.15819009 -0.18951486 0.88905609
0.1609498 -0.18907695 0.88700175
0.16369623 -0.18864043 0.88495392
0.1664305 -0.18820645 0.88291806
0.16915211 -0.18777436 0.88089103
0.17186126 -0.18734425 0.87887329
0.17464569 -0.18700999 0.87730521
0.17770383 -0.18697533 0.87714261
0.18076086 -0.18694073 0.87698025
0.18381676 -0.18690611 0.87681788
0.1868715 -0.1868715 0.87665552
0.18992513 -0.18683691 0.87649328
0.19297762 -0.18680233 0.87633103
0.19602898 -0.18676776 0.87616885
0.19907916 -0.18673317 0.87600654
0.20212822 -0.18669859 0.8758443
0.20571415 -0.18715347 0.87797832
0.2095308 -0.18780167 0.88101918
0.21337397 -0.18845439 0.88408118
0.21724395 -0.18911165 0.88716453
0.22114117 -0.18977363 0.89027005
0.22506599 -0.19044045 0.89339823
0.22901848 -0.19111198 0.89654851
0.23299894 -0.19178824 0.89972103
0.23700766 -0.19246931 0.90291607
0.10920825 -0.19993509 0.9537034
0.11202467 -0.1989692 0.94909602
0.11481402 -0.19801259 0.94453293
0.11757668 -0.19706514 0.94001353
0.12031303 -0.19612671 0.93553716
0.1230234 -0.19519712 0.93110299
0.12570816 -0.19427624 0.92671031
0.12836768 -0.19336396 0.92235869
0.13100228 -0.19246013 0.91804737
0.13361236 -0.19156471 0.9137761
0.13636501 -0.19091102 0.910658
0.13924327 -0.19045919 0.9085027
0.14210795 -0.19000949 0.90635765
0.14495911 -0.1895619 0.90422261
0.14779687 -0.18911642 0.90209764
0.15062134 -0.18867305 0.89998269
0.15343258 -0.18823172 0.89787757
0.1562307 -0.18779247 0.89578229
0.1590158 -0.18735527 0.89369678
0.16178797 -0.18692008 0.89162093
0.16454728 -0.18648691 0.88955474
0.16729283 -0.18605465 0.88749278
0.17002679 -0.18562558 0.88544613
0.17274778 -0.18519807 0.88340682
0.17545639 -0.18477266 0.88137758
0.17815259 -0.18434921 0.8793577
0.18083644 -0.18392767 0.87734693
0.18353119 -0.18353119 0.87545574
0.18658127 -0.18349728 0.87529397
0.1896302 -0.18346335 0.87513214
0.19267802 -0.18342946 0.8749705
0.19572468 -0.18339556 0.87480879
0.19877021 -0.18336166 0.87464708
0.20189475 -0.18340057 0.87483263
0.2056845 -0.1840335 0.87785172
0.20950048 -0.18467079 0.88089168
0.21334296 -0.18531249 0.88395268
0.21721227 -0.18595871 0.88703513
0.22110875 -0.18660952 0.89013952
0.2250329 -0.18726513 0.89326686
0.22898465 -0.18792534 0.89641607
0.23296443 -0.18859024 0.89958775
0.23697242 -0.18925984 0.90278178
0.10881624 -0.19586924 0.95028007
0.11162451 -0.19492638 0.94570571
0.11440585 -0.19399253 0.94117504
0.11716068 -0.1930676 0.93668765
0.11988937 -0.19215146 0.93224287
0.12259226 -0.19124393 0.92783993
0.12538742 -0.19052374 0.92434585
0.12833521 -0.19006607 0.9221254
0.13126886 -0.18961059 0.91991556
0.1341885 -0.18915728 0.91771632
0.1370942 -0.18870613 0.91552752
0.13998608 -0.18825714 0.91334921
0.14286421 -0.18781027 0.91118115
0.14572874 -0.18736552 0.9090234
0.14857972 -0.18692286 0.90687585
0.15141726 -0.18648231 0.90473843
0.15424146 -0.18604381 0.90261102
0.15705241 -0.18560739 0.90049368
0.1598502 -0.185173 0.89838618
0.16263492 -0.18474063 0.89628851
0.16540666 -0.18431029 0.89420062
0.16816553 -0.18388194 0.89212245
0.17091033 -0.1834542 0.89004725
0.17364407 -0.18303023 0.8879903
0.17636405 -0.18260702 0.88593709
0.17907207 -0.18218637 0.88389617
0.18176766 -0.18176766 0.88186479
0.18445085 -0.18135084 0.87984258
0.18712176 -0.18093592 0.87782955
0.1897805 -0.18052292 0.87582582
0.19242714 -0.18011181 0.87383127
0.19542134 -0.18003383 0.87345296
0.19846222 -0.1800006 0.87329179
0.20186573 -0.18029229 0.87470692
0.20565481 -0.18091439 0.87772506
0.20947014 -0.18154079 0.88076413
0.21331197 -0.18217154 0.88382429
0.21718061 -0.1828067 0.88690585
0.22107635 -0.18344633 0.89000911
0.22499977 -0.18409072 0.89313537
0.22895087 -0.18473966 0.89628381
0.23292992 -0.1853932 0.89945447
0.23693721 -0.18605137 0.90264767
0.10559979 -0.19276153 0.9514671
0.10842706 -0.19183248 0.94688135
0.11122717 -0.19091231 0.94233942
0.11400057 -0.19000095 0.93784094
0.11674762 -0.18909825 0.93338525
0.11946866 -0.18820406 0.92897153
0.12247299 -0.18779191 0.92693716
0.12606798 -0.18828334 0.92936289
0.12902993 -0.18782838 0.92711717
0.13197762 -0.18737563 0.92488247
0.13491163 -0.18692575 0.92266184
0.13783123 -0.18647753 0.92044944
0.14073685 -0.18603146 0.91824764
0.1436286 -0.18558751 0.91605633
0.14650659 -0.18514569 0.91387546
0.14937091 -0.18470596 0.91170496
0.15222163 -0.1842683 0.90954471
0.15505891 -0.18383272 0.90739471
0.15788279 -0.1833992 0.90525484
0.16069338 -0.18296771 0.90312499
0.16349077 -0.18253826 0.90100521
0.16627508 -0.1821108 0.89889532
0.16904636 -0.18168534 0.89679527
0.17180291 -0.18125996 0.89469558
0.17454854 -0.18083857 0.89261562
0.17728232 -0.18042006 0.89054984
0.18000111 -0.18000111 0.88848191
0.18270847 -0.17958525 0.88642925
0.18540336 -0.17917132 0.88438612
0.18808588 -0.17875931 0.88235241
0.19075605 -0.17834915 0.88032794
0.19341402 -0.17794089 0.87831277
0.19605985 -0.17753452 0.87630689
0.19869372 -0.17713006 0.87431049
0.20183671 -0.17718489 0.87458116
0.20562513 -0.17779617 0.8775984
0.20943981 -0.17841169 0.88063663
0.21328099 -0.17903149 0.8836959
0.21714896 -0.17965561 0.88677657
0.22104396 -0.18028408 0.88987869
0.22496669 -0.18091726 0.89300406
0.22891706 -0.18155491 0.89615148
0.23289542 -0.18219709 0.89932126
0.23690198 -0.1828438 0.90251344
0.10522164 -0.18873087 0.94805986
0.10804063 -0.18782449 0.94350678
0.11083267 -0.18692674 0.93899709
0.11359815 -0.18603756 0.93453044
0.11633745 -0.18515678 0.93010598
0.11905099 -0.18428442 0.92572379
0.12245693 -0.18450178 0.92681569
0.12611799 -0.18508224 0.92973155
0.12973253 -0.18556678 0.93216556
0.1326945 -0.18511702 0.92990625
0.13564216 -0.18466944 0.9276579
0.13857558 -0.18422402 0.9254204
0.14149547 -0.18378146 0.92319727
0.14440084 -0.18334039 0.92098159
0.14729278 -0.18290202 0.91877955
0.15017055 -0.18246529 0.91658568
0.15303461 -0.18203063 0.91440231
0.15588506 -0.18159805 0.9122293
0.158722 -0.18116753 0.9100666
0.1615455 -0.18073903 0.9079141
0.1643557 -0.18031256 0.90577179
0.16715266 -0.17988808 0.90363955
0.16993648 -0.17946562 0.90151733
0.17270724 -0.17904513 0.89940506
0.17546377 -0.17862529 0.89729601
0.17820837 -0.17820837 0.89520168
0.18094176 -0.17779493 0.89312494
0.18365911 -0.17738016 0.89104134
0.18636578 -0.17696919 0.88897687
0.18905994 -0.1765601 0.88692194
0.19174169 -0.17615294 0.88487661
0.19441262 -0.175749 0.88284749
0.19706838 -0.1753443 0.88081455
0.19971433 -0.17494355 0.87880147
0.202347 -0.17454359 0.87679231
0.20559548 -0.17467886 0.8774718
0.20940949 -0.17528351 0.88050914
0.21325003 -0.17589237 0.88356763
0.21711732 -0.17650545 0.8866474
0.22101165 -0.17712282 0.88974863
0.22493361 -0.17774473 0.89287275
0.2288833 -0.17837112 0.89601928
0.23286091 -0.17900193 0.89918804
0.10484618 -0.18472898 0.94467694
0.10765694 -0.18384492 0.94015604
0.11044095 -0.18296933 0.93567836
0.11319856 -0.18210204 0.93124312
0.11593021 -0.181243 0.92685014
0.11880326 -0.18064606 0.92379749
0.1224409 -0.18121254 0.92669439
0.12610142 -0.18178257 0.92960942
0.12978509 -0.18235627 0.93254328
0.13341923 -0.18283376 0.9349851
0.13638118 -0.18238929 0.93271214
0.13932876 -0.18194698 0.9304502
0.14226209 -0.18150681 0.92819923
0.14518128 -0.18106878 0.92595923
0.14808637 -0.18063283 0.92372984
0.15097849 -0.18020013 0.92151707
0.15385482 -0.17976721 0.91930318
0.15671958 -0.17933889 0.91711283
0.15957017 -0.17891201 0.91492981
0.16240673 -0.1784866 0.9127543
0.16522981 -0.1780632 0.9105891
0.16803952 -0.17764178 0.90843403
0.17083599 -0.17722237 0.90628928
0.17361927 -0.17680494 0.9041546
0.17638877 -0.17638877 0.9020263
0.17914526 -0.17597455 0.89990807
0.18188949 -0.1755629 0.89780295
0.18462242 -0.17515461 0.895715
0.18733828 -0.17474411 0.89361578
0.19004512 -0.17433891 0.89154363
0.19273724 -0.17393361 0.88947099
0.19541913 -0.17353219 0.88741821
0.19808853 -0.17313249 0.88537419
0.20074493 -0.17273401 0.88333642
0.203389 -0.17233725 0.88130742
0.20602094 -0.17194228 0.87928766
0.20937921 -0.17215624 0.88038182
0.21321906 -0.17275412 0.8834393
0.21708569 -0.17335619 0.88651818
0.22097933 -0.17396246 0.88961852
0.22490054 -0.17457315 0.8927415
0.22884953 -0.17518826 0.89588708
0.23282644 -0.17580773 0.89905494
0.10164379 -0.18162578 0.94585001
0.10447338 -0.18075554 0.94131804
0.10727598 -0.17989357 0.93682915
0.110052 -0.17903981 0.93238306
0.11280182 -0.17819418 0.92797929
0.11552583 -0.17735657 0.92361724
0.11878775 -0.17736802 0.92367685
0.12242486 -0.17792414 0.92657298
0.12608485 -0.17848375 0.92948729
0.12976794 -0.17904691 0.93242002
0.13347444 -0.17961375 0.93537199
0.13712832 -0.18008418 0.93782181
0.1400902 -0.17964508 0.93553507
0.14303765 -0.1792081 0.93325943
0.14597081 -0.17877324 0.93099481
0.14888977 -0.17834049 0.92874122
0.15179464 -0.17790985 0.92649859
0.15468551 -0.17748126 0.92426664
0.15756333 -0.1770557 0.92205042
0.16042653 -0.17663123 0.91983992
0.16327573 -0.17620847 0.9176383
0.16611245 -0.17578891 0.91545337
0.1689354 -0.17537104 0.91327727
0.17174509 -0.17495528 0.91111207
0.174541 -0.174541 0.90895468
0.1773237 -0.17412868 0.90680742
0.18009014 -0.17371526 0.9046545
0.18638133 -0.17665708 0.91997457
0.19034415 -0.17732918 0.92347461
0.19404276 -0.17773664 0.92559654
0.19756359 -0.1779705 0.92681444
0.20093107 -0.17806086 0.92728502
0.20415111 -0.17801976 0.92707098
0.1991197 -0.17089801 0.88998312
0.20178582 -0.17050119 0.88791662
0.20444179 -0.17010805 0.88586926
0.20708489 -0.16971619 0.88382858
0.20971586 -0.16932614 0.88179731
0.2131881 -0.1696168 0.88331103
0.21705404 -0.17020784 0.88638896
0.22094701 -0.17080301 0.8894884
0.22486746 -0.17140247 0.89261019
0.22881576 -0.17200634 0.89575493
0.23279198 -0.17261446 0.89892185
0.10128193 -0.17765848 0.94248277
0.10410322 -0.17681023 0.9379828
0.10689771 -0.17597008 0.9335258
0.10966581 -0.17513794 0.92911124
0.11240788 -0.17431366 0.92473847
0.11515833 -0.17354846 0.92067903
0.11877225 -0.17409083 0.92355633
0.12240884 -0.17463662 0.92645174
0.12606831 -0.17518583 0.92936528
0.12975085 -0.1757385 0.93229723
0.13345675 -0.17629473 0.93524802
0.13718626 -0.17685457 0.938218
0.14085996 -0.17731784 0.94067568
0.14382172 -0.17688419 0.93837512
0.146769 -0.17645262 0.93608564
0.14970194 -0.17602316 0.93380737
0.15262063 -0.17559578 0.93154007
0.15552518 -0.17517047 0.9292838
0.15841572 -0.17474724 0.92703861
0.1612923 -0.17432603 0.92480403
0.16415505 -0.17390685 0.92258024
0.16700517 -0.17349081 0.92037314
0.16984025 -0.1730753 0.9181689
0.17266211 -0.17266211 0.91597694
0.17546965 -0.17225002 0.91379076
0.17826688 -0.17184286 0.91163075
0.18217631 -0.17250322 0.91513401
0.18643335 -0.17346407 0.92023134
0.1902636 -0.17400175 0.92308378
0.19387789 -0.17432718 0.92481017
0.19733092 -0.17449924 0.92572296
0.20063674 -0.17453766 0.92592674
0.20379214 -0.17444608 0.92544091
0.20677869 -0.17421512 0.92421567
0.20283751 -0.16824506 0.89254439
0.20550554 -0.16785567 0.89047861
0.20815991 -0.167467 0.88841671
0.21080202 -0.16708012 0.88636428
0.21343192 -0.166695 0.88432127
0.21702243 -0.16706043 0.88625985
0.22091474 -0.16764452 0.88935846
0.22483443 -0.16823275 0.89247906
0.22878201 -0.16882534 0.89562279
0.098082572 -0.17455374 0.94365036
0.10092264 -0.17371929 0.93913931
0.10373569 -0.17289281 0.93467128
0.10652214 -0.17207423 0.93024594
0.10928236 -0.1712634 0.92586255
0.1120167 -0.17046019 0.92152035
0.11514335 -0.17028242 0.92055935
0.11875676 -0.17081451 0.92343587
0.12239281 -0.17134994 0.92633039
0.12605174 -0.17188872 0.92924315
0.12973374 -0.17243093 0.93217432
0.13343906 -0.17297657 0.93512404
0.13716801 -0.1735258 0.93809325
0.14092071 -0.17407852 0.94108135
0.14461441 -0.17453463 0.94354707
0.14757594 -0.17410645 0.94123232
0.15052301 -0.17368039 0.93892902
0.15345567 -0.1732564 0.93663687
0.15637405 -0.17283447 0.93435591
0.15927824 -0.17241459 0.93208599
0.16216837 -0.17199674 0.92982709
0.16504453 -0.17158094 0.92757922
0.16790679 -0.17116712 0.92534208
0.17075528 -0.17075528 0.92311567
0.17359011 -0.17034544 0.92089999
0.17641246 -0.16993861 0.91870064
0.17921989 -0.16953233 0.91650426
0.18240254 -0.16948909 0.91627049
0.18642496 -0.17021409 0.92018992
0.19014739 -0.17064509 0.92251992
0.19368733 -0.1709006 0.9239012
0.19707589 -0.17101628 0.92452657
0.20032042 -0.17100523 0.92446691
0.20341001 -0.1708644 0.92370558
0.20631899 -0.17057869 0.92216098
0.20897684 -0.17009743 0.91955918
0.20657821 -0.16557796 0.89512664
0.20924611 -0.1651943 0.89305258
0.21189946 -0.16481069 0.89097875
0.21454051 -0.16442886 0.88891453
0.21716933 -0.16404878 0.88685977
0.22088245 -0.16448693 0.88922846
0.22480138 -0.16506395 0.89234787
0.22874829 -0.16564532 0.89549077
0.097734205 -0.17062074 0.94029874
0.1005659 -0.16980799 0.93581963
0.10337077 -0.16900301 0.93138337
0.10614923 -0.16820569 0.92698932
0.10890158 -0.16741584 0.92263645
0.11162821 -0.16663341 0.91832441
0.11512837 -0.16701721 0.92043954
0.11874126 -0.16753905 0.92331535
0.1223768 -0.16806415 0.92620921
0.1260352 -0.16859253 0.9291212
0.12971666 -0.16912426 0.9320516
0.13342144 -0.16965936 0.93500054
0.13714977 -0.1701979 0.93796849
0.14090191 -0.17073996 0.94095582
0.14467804 -0.1712855 0.94396222
0.14839184 -0.17173438 0.94643605
0.15135314 -0.17131178 0.94410712
0.15429989 -0.17089127 0.94178963
0.15723222 -0.17047283 0.93948364
0.16015022 -0.17005642 0.93718874
0.163054 -0.16964205 0.93490511
0.16594365 -0.16922967 0.93263251
0.16881931 -0.16881931 0.93037099
0.17168106 -0.16841094 0.92812043
0.17452899 -0.16800454 0.92588073
0.17736319 -0.16760008 0.92365175
0.18018378 -0.16719757 0.92143351
0.18299086 -0.16679698 0.91922587
0.18636492 -0.16691814 0.91989356
0.19000149 -0.16726626 0.92181206
0.19347252 -0.1674594 0.92287648
0.19679974 -0.16752374 0.92323107
0.19998305 -0.16746548 0.92290992
0.20300403 -0.16727532 0.92186201
0.20582606 -0.1669298 0.91995776
0.20834541 -0.16635332 0.91678077
0.20766637 -0.16327967 0.89984173
0.21034437 -0.16289827 0.89773989
0.2130082 -0.16251737 0.89564067
0.21566063 -0.16213901 0.89355558
0.21830055 -0.16176228 0.89147937
0.22092825 -0.16138731 0.88941288
0.2247684 -0.16189612 0.89221698
0.23139927 -0.16437326 0.90586865
0.094537891 -0.1675145 0.94146097
0.097388305 -0.16671556 0.93697077
0.10021169 -0.16592427 0.93252355
0.10300846 -0.16514054 0.92811882
0.10577891 -0.16436416 0.92375541
0.10852344 -0.16359504 0.91943282
0.11152346 -0.16324449 0.91746265
0.1151134 -0.16375287 0.92031986
0.11872578 -0.16426443 0.92319494
0.12236079 -0.1647792 0.92608804
0.12601864 -0.16529718 0.92899919
0.12969957 -0.16581845 0.93192881
0.13340381 -0.16634302 0.93487698
0.13713154 -0.16687091 0.9378438
0.1408831 -0.16740228 0.94083023
0.14465868 -0.16793709 0.94383591
0.14845844 -0.1684753 0.94686079
0.15219247 -0.16891691 0.94934273
0.15515345 -0.16849999 0.94699955
0.15809985 -0.16808511 0.94466782
0.16103178 -0.16767226 0.94234759
0.16394937 -0.16726148 0.94003886
0.16685267 -0.16685267 0.93774128
0.16974181 -0.16644585 0.93545491
0.1726169 -0.16604102 0.93317968
0.17547804 -0.16563815 0.93091547
0.17832536 -0.16523725 0.92866236
0.18115889 -0.16483827 0.92642003
0.18397877 -0.1644412 0.92418844
0.18678689 -0.16404763 0.92197645
0.18982895 -0.16386944 0.92097503
0.19323544 -0.16400656 0.92174566
0.19650237 -0.16402264 0.92183608
0.19962262 -0.16391777 0.92124659
0.20257148 -0.16367775 0.91989774
0.205292 -0.16326372 0.91757077
0.20763493 -0.16256689 0.91365445
0.20876141 -0.16095345 0.90458667
0.21145119 -0.16057572 0.90246373
0.21412921 -0.16020037 0.90035421
0.21679114 -0.15982413 0.89823967
0.21944277 -0.15945122 0.89614385
0.22208233 -0.15908025 0.89405894
0.22473544 -0.15872923 0.89208615
0.094202891 -0.16361554 0.93812484
0.09704487 -0.16283801 0.93366665
0.09986002 -0.16206791 0.92925107
0.10264866 -0.16130504 0.92487705
0.10541117 -0.16054931 0.92054397
0.10814793 -0.15980066 0.91625142
0.11150901 -0.15999119 0.9173438
0.11509842 -0.16048935 0.92020011
0.11871028 -0.16099066 0.92307442
0.12234477 -0.1614951 0.9259668
0.1260021 -0.1620027 0.92887723
0.12968251 -0.16251352 0.93180615
0.13338619 -0.16302757 0.93475354
0.13711338 -0.16354486 0.93771958
0.14086433 -0.16406551 0.94070476
0.14463931 -0.16458955 0.94370955
0.1484385 -0.16511698 0.94673365
0.15226209 -0.16564777 0.94977707
0.15601653 -0.16608211 0.95226741
0.15897714 -0.1656709 0.94990969
0.16192313 -0.16526175 0.94756371
0.1648546 -0.1648546 0.94522923
0.16777167 -0.16444945 0.94290626
0.17067446 -0.16404632 0.94059479
0.17356302 -0.16364513 0.93829447
0.1764375 -0.1632459 0.93600541
0.17929798 -0.16284862 0.9337275
0.18214458 -0.16245326 0.93146068
0.1849774 -0.16205984 0.92920488
0.18779871 -0.16167019 0.92697072
0.1906039 -0.16128021 0.92473471
0.19339658 -0.16089295 0.92251426
0.1961834 -0.16051368 0.92033964
0.19923863 -0.16036279 0.91947448
0.20210691 -0.16006868 0.91778809
0.20471388 -0.15958011 0.91498679
0.20715687 -0.15898085 0.91155082
0.20986953 -0.1586037 0.9093883
0.21257041 -0.1582291 0.90724051
0.21525857 -0.15785629 0.90510285
0.21793404 -0.15748519 0.90297508
0.220597 -0.15711585 0.90085745
0.2232475 -0.15674825 0.89874971
0.22588563 -0.15638235 0.8966518
0.091009617 -0.16050787 0.9392817
0.093870275 -0.15974416 0.93481249
0.096703887 -0.15898775 0.93038601
0.099510804 -0.15823849 0.92600143
0.10229137 -0.15749623 0.9216578
0.10504598 -0.15676093 0.91735482
0.10792784 -0.15625374 0.91438681
0.11149455 -0.15673871 0.91722482
0.11508346 -0.15722671 0.92008054
0.1186948 -0.15771775 0.92295408
0.12232877 -0.15821187 0.92584568
0.12598558 -0.15870909 0.9287554
0.12966542 -0.15920945 0.93168336
0.13336857 -0.15971299 0.93463004
0.1370952 -0.1602197 0.93759531
0.14084557 -0.16072965 0.94057947
0.14461997 -0.16124296 0.94358337
0.14841858 -0.16175957 0.94660658
0.1522416 -0.16227952 0.94964921
0.15608931 -0.16280282 0.95271158
0.15986419 -0.16322975 0.95520997
0.16282439 -0.16282439 0.95283782
0.16576992 -0.16242103 0.95047736
0.16870087 -0.16201966 0.94812852
0.17161739 -0.16162026 0.9457913
0.17451955 -0.16122282 0.94346553
0.1774075 -0.16082735 0.94115132
0.1802813 -0.16043381 0.93884832
0.18314107 -0.1600422 0.93655658
0.18598691 -0.15965247 0.93427598
0.18882069 -0.15926614 0.93201518
0.19163956 -0.15888065 0.92975932
0.19444318 -0.15849571 0.92750663
0.19723728 -0.15811583 0.92528367
0.20001508 -0.15773547 0.92305779
0.20277852 -0.15735613 0.92083794
0.20552972 -0.1569794 0.91863328
0.20826577 -0.15660293 0.91643029
0.21099027 -0.15622942 0.91424453
0.21370274 -0.15585838 0.91207319
0.21640249 -0.15548919 0.90991271
0.21908945 -0.15512173 0.90776235
0.22176377 -0.15475601 0.90562218
0.22442551 -0.15439202 0.90349209
0.23660409 -0.16049369 0.93919867
0.090687878 -0.15664271 0.93596113
0.093540043 -0.15590008 0.93152386
0.096501023 -0.15538301 0.92843425
0.099511594 -0.15497708 0.92600882
0.10250646 -0.15457323 0.92359579
0.10548577 -0.15417153 0.92119551
0.10844965 -0.15377188 0.91880763
0.1114801 -0.1534871 0.91710597
0.11506851 -0.15396491 0.91996098
0.11867931 -0.15444569 0.92283368
0.12231276 -0.15492949 0.92572451
0.12596904 -0.15541634 0.92863345
0.12964836 -0.15590626 0.93156081
0.13335097 -0.15639928 0.93450665
0.13707705 -0.15689541 0.93747115
0.14082684 -0.15739469 0.94045442
0.14460063 -0.15789723 0.94345719
0.14839867 -0.15840307 0.94647962
0.15222111 -0.15891215 0.94952142
0.15606822 -0.15942453 0.9525829
0.1599402 -0.1599402 0.95566416
0.16373572 -0.16035973 0.95817089
0.16669545 -0.15996027 0.95578408
0.16964044 -0.15956278 0.95340902
0.17257081 -0.15916726 0.95104569
0.1754867 -0.15877369 0.94869405
0.17838821 -0.15838206 0.94635403
0.18127544 -0.15799236 0.94402552
0.18414852 -0.15760459 0.94170856
0.18700799 -0.15721911 0.93940526
0.18985321 -0.15683526 0.93711168
0.19268538 -0.15645394 0.93483329
0.1955048 -0.15607527 0.93257064
0.19830863 -0.15569685 0.93030959
0.2010989 -0.15532029 0.92805958
0.20387571 -0.15494554 0.92582035
0.2066379 -0.15457165 0.92358637
0.20938812 -0.15420055 0.92136902
0.21212368 -0.15383016 0.91915578
0.21484718 -0.15346226 0.91695762
0.21755862 -0.15309681 0.91477394
0.22025716 -0.15273307 0.91260058
0.22294293 -0.15237108 0.91043758
0.22561601 -0.15201078 0.90828484
0.090969495 -0.15382116 0.93886763
0.094028383 -0.15341473 0.936387
0.097071178 -0.1530105 0.93391973
0.10009799 -0.15260841 0.93146551
0.10310894 -0.15220843 0.92902416
0.10610414 -0.15181054 0.92659563
0.10908373 -0.15141472 0.92417967
0.11204781 -0.15102096 0.92177629
0.11505355 -0.15070394 0.91984135
0.11866385 -0.15117449 0.9227134
0.12229677 -0.15164798 0.92560345
0.12595251 -0.15212446 0.92851168
0.1296313 -0.15260394 0.93143821
0.13333336 -0.15308644 0.93438321
0.13705887 -0.15357199 0.93734688
0.14080812 -0.15406066 0.94032949
0.1445813 -0.15455243 0.94333112
0.14837876 -0.15504748 0.94635266
0.15220064 -0.15554571 0.94939369
0.15604715 -0.15604715 0.95245433
0.15991855 -0.15655184 0.95553476
0.16381507 -0.1570598 0.95863515
0.16763134 -0.15747187 0.96115029
0.17059048 -0.15707836 0.95874846
0.17353489 -0.15668684 0.95635873
0.17646465 -0.15629725 0.95398086
0.17937985 -0.15590958 0.95161468
0.18228063 -0.15552384 0.94926023
0.1851671 -0.15514 0.94691741
0.1880403 -0.15475884 0.94459093
0.19089906 -0.15437925 0.94227403
0.19374302 -0.15400086 0.93996453
0.19657513 -0.15362595 0.93767619
0.19939169 -0.15325147 0.93539047
0.20219453 -0.15287879 0.93311578
0.20498377 -0.15250792 0.93085217
0.20775948 -0.15213884 0.92859942
0.21052185 -0.15177156 0.92635769
0.21326955 -0.1514051 0.92412096
0.21600544 -0.1510414 0.92190105
0.21872716 -0.15067871 0.91968733
0.22143739 -0.15031882 0.91749066
0.22413471 -0.14996064 0.91530448
0.2268192 -0.14960416 0.91312867
0.091513388 -0.15141305 0.94448096
0.094588883 -0.15101032 0.94196874
0.097648121 -0.15060981 0.93947047
0.10069135 -0.15021168 0.93698704
0.10371853 -0.14981566 0.93451673
0.10672979 -0.14942171 0.93205935
0.10972524 -0.14902981 0.92961478
0.11270504 -0.14863999 0.92718315
0.1156693 -0.14825219 0.92476416
0.11864838 -0.14790414 0.92259312
0.12228076 -0.14836733 0.92548233
0.12593597 -0.14883342 0.92838979
0.12961423 -0.14930247 0.93131554
0.13331574 -0.14977448 0.93425983
0.13704073 -0.15024948 0.93722278
0.14078943 -0.15072751 0.94020462
0.14456204 -0.15120856 0.94320536
0.14835887 -0.15169276 0.9462257
0.15218015 -0.15218015 0.9492659
0.1560261 -0.15267068 0.95232576
0.1598969 -0.15316439 0.95540535
0.1637928 -0.1536613 0.95850492
0.16771409 -0.15416144 0.96162468
0.17155126 -0.15456598 0.96414816
0.17450978 -0.15417854 0.96173143
0.1774535 -0.15379304 0.95932674
0.18038256 -0.15340947 0.95693409
0.18329704 -0.1530278 0.95455337
0.18619704 -0.15264802 0.95218438
0.1890839 -0.15227111 0.94983327
0.19195513 -0.15189493 0.94748676
0.194814 -0.151522 0.94516045
0.19765729 -0.15114969 0.94283813
0.20048663 -0.1507792 0.94052708
0.20330215 -0.15041053 0.93822742
0.20610392 -0.15004365 0.93593889
0.20889208 -0.14967857 0.93366164
0.21166667 -0.14931525 0.93139529
0.21442786 -0.14895371 0.92914003
0.2171751 -0.14859349 0.92689306
0.21990962 -0.14823537 0.92465925
0.22263034 -0.14787854 0.92243344
0.22533929 -0.14752428 0.92022365
0.0920638 -0.14897597 0.95016158
0.095156305 -0.14857739 0.9476195
0.098232254 -0.14818086 0.94509041
0.10129184 -0.14778647 0.94257498
0.10433537 -0.14739442 0.9400745
0.10736286 -0.14700453 0.93758786
0.11037438 -0.14661671 0.93511438
0.11337005 -0.14623094 0.9326539
0.11635 -0.14584717 0.9302063
0.11931434 -0.14546543 0.92777157
0.12226478 -0.14508754 0.92536139
0.12591946 -0.14554328 0.92826807
0.12959719 -0.14600189 0.93119305
0.13329813 -0.14646338 0.93413645
0.13702257 -0.14692782 0.93709862
0.14077072 -0.14739521 0.94007963
0.14454277 -0.14786559 0.94307965
0.14833899 -0.14833899 0.94609892
0.15215968 -0.14881551 0.94913822
0.15600504 -0.14929514 0.95219725
0.15987524 -0.14977786 0.95527601
0.16377056 -0.15026371 0.95837474
0.16769123 -0.15075272 0.96149367
0.17163751 -0.15124494 0.96463293
0.1754957 -0.15164192 0.96716487
0.17845355 -0.15126063 0.964733
0.18139654 -0.15088123 0.96231329
0.18432482 -0.15050374 0.95990568
0.18723848 -0.15012816 0.95751017
0.19013818 -0.14975485 0.95512927
0.1930238 -0.14938363 0.95276165
0.19589505 -0.14901417 0.9504053
0.19875139 -0.148646 0.94805706
0.20159368 -0.14827965 0.94572049
0.20442197 -0.14791508 0.94339532
0.20723641 -0.14755233 0.94108164
0.21003705 -0.14719132 0.93877918
0.21282405 -0.14683209 0.93648809
0.21559745 -0.14647461 0.93420804
0.21835741 -0.14611888 0.93193918
0.22110324 -0.14576435 0.92967808
0.22383621 -0.14541185 0.9274298
0.22655691 -0.14506161 0.92519605
0.092620865 -0.14650936 0.95591086
0.095730565 -0.14611506 0.95333827
0.098823503 -0.14572279 0.95077884
0.10189986 -0.14533259 0.94823289
0.1049598 -0.14494449 0.94570071
0.10800349 -0.14455852 0.94318241
0.11103123 -0.14417489 0.94067937
0.11404295 -0.14379328 0.93818957
0.11703874 -0.14341366 0.93571275
0.12001878 -0.14303608 0.93324918
0.12298317 -0.14266047 0.93079847
0.12593202 -0.14228682 0.92836058
0.12958013 -0.14270216 0.93107045
0.13328055 -0.14315318 0.93401319
0.13700444 -0.14360707 0.93697459
0.14075202 -0.14406383 0.93995482
0.14452352 -0.14452352 0.94295406
0.14831914 -0.14498612 0.94597238
0.15213922 -0.14545178 0.94901055
0.15598398 -0.1459205 0.95206875
0.15985359 -0.14639224 0.95514667
0.16374831 -0.14686704 0.95824456
0.16766839 -0.14734495 0.96136266
0.17161404 -0.14782596 0.96450102
0.17558554 -0.14831012 0.96766001
0.17946491 -0.14869949 0.97020054
0.182422 -0.14832443 0.96775335
0.1853642 -0.14795125 0.9653185
0.18829164 -0.14757994 0.96289587
0.19120529 -0.14721116 0.96048975
0.19410428 -0.14684412 0.95809495
0.19698815 -0.14647837 0.95570862
0.1998577 -0.14611445 0.95333421
0.202713 -0.14575233 0.95097148
0.20555422 -0.145392 0.94862056
0.20838138 -0.14503345 0.94628114
0.21119468 -0.14467667 0.94395328
0.21399413 -0.14432162 0.9416368
0.2167799 -0.14396833 0.93933171
0.21955206 -0.14361675 0.93703783
0.22231072 -0.1432669 0.93475521
0.22505595 -0.14291874 0.93248355
0.22778773 -0.14257218 0.93022239
0.090040639 -0.1444048 0.96434838
0.093184717 -0.14401273 0.96173018
0.09631177 -0.14362282 0.95912623
0.099421903 -0.14323494 0.956536
0.10251522 -0.14284909 0.95395917
0.10559193 -0.14246531 0.95139629
0.10865217 -0.1420836 0.94884723
0.11169603 -0.14170392 0.94631171
0.11472386 -0.1413265 0.94379121
0.11773571 -0.1409512 0.94128495
0.1207316 -0.14057788 0.93879193
0.12371166 -0.14020655 0.93631208
0.12667601 -0.13983716 0.93384528
0.12962478 -0.1394697 0.93139136
0.13326296 -0.13984385 0.93388999
0.1369863 -0.14028718 0.93685049
0.14073332 -0.14073332 0.93982995
0.14450425 -0.14118232 0.94282836
0.14829934 -0.1416342 0.94584602
0.15211877 -0.14208896 0.948883
0.15596293 -0.14254677 0.9519403
0.15983196 -0.14300755 0.95501739
0.16372608 -0.1434713 0.95811445
0.16764554 -0.14393808 0.96123165
0.17159058 -0.14440791 0.96436918
0.17556147 -0.14488082 0.96752733
0.17955844 -0.14535683 0.97070616
0.18345909 -0.14573853 0.97325516
0.18641537 -0.14536978 0.97079265
0.18935673 -0.1450029 0.96834254
0.19228432 -0.14463864 0.96591002
0.19519621 -0.14427546 0.96348464
0.19809355 -0.14391412 0.96107155
0.20097636 -0.14355454 0.95867032
0.20384485 -0.14319679 0.95628124
0.20669904 -0.1428408 0.95390391
0.20953912 -0.14248659 0.95153844
0.21236509 -0.14213412 0.9491846
0.21517716 -0.1417834 0.94684249
0.21797538 -0.1414344 0.94451183
0.090593643 -0.14187306 0.97027111
0.093755469 -0.14148553 0.96762073
0.096900061 -0.14110009 0.96498477
0.10002758 -0.14071676 0.96236318
0.10313808 -0.14033543 0.95975518
0.10623173 -0.13995609 0.95716095
0.10930873 -0.13957883 0.9545809
0.11236917 -0.13920361 0.95201468
0.11541322 -0.13883039 0.94946229
0.11844102 -0.13845922 0.94692385
0.12145293 -0.13809031 0.94440091
0.12444883 -0.13772337 0.94189137
0.12742884 -0.13735837 0.93939507
0.1303931 -0.13699529 0.936912
0.13334174 -0.13663414 0.9344421
0.13696817 -0.13696817 0.93672651
0.14071465 -0.13740371 0.93970519
0.144485 -0.13784201 0.94270277
0.14827952 -0.13828315 0.94571966
0.15209837 -0.13872708 0.94875574
0.15594187 -0.13917392 0.95181173
0.15981032 -0.13962376 0.95488811
0.16370384 -0.14007649 0.95798433
0.1676227 -0.14053217 0.9611007
0.17156713 -0.14099081 0.96423739
0.17553739 -0.14145246 0.96739465
0.17953375 -0.14191715 0.97057265
0.18355644 -0.1423849 0.97377157
0.18747853 -0.14275888 0.97632921
0.19043392 -0.14239654 0.9738512
0.19337487 -0.14203641 0.97138828
0.19630051 -0.14167775 0.96893543
0.19921139 -0.1413209 0.96649486
0.20210765 -0.14096583 0.96406662
0.20498939 -0.14061256 0.96165049
0.091153495 -0.13931006 0.97626722
0.094333261 -0.13892716 0.973584
0.097495601 -0.13854638 0.9709155
0.10064065 -0.13816768 0.9682616
0.10376853 -0.13779101 0.96562189
0.10687935 -0.1374163 0.96299607
0.10997328 -0.13704363 0.96038437
0.11305048 -0.13667297 0.95778686
0.11611108 -0.1363043 0.95520329
0.11915523 -0.13593766 0.95263386
0.12218305 -0.13557297 0.95007825
0.12519483 -0.13521042 0.94753748
0.12819068 -0.13484994 0.94501126
0.1311706 -0.13449137 0.94249851
0.13413471 -0.13413471 0.93999904
0.13708314 -0.13377993 0.93751281
0.14069594 -0.13407496 0.93958032
0.14446576 -0.1345026 0.94257718
0.1482597 -0.13493298 0.94559324
0.15207799 -0.13536611 0.9486286
0.15592088 -0.13580205 0.95168358
0.15978868 -0.13624088 0.95475882
0.1636816 -0.13668257 0.95785415
0.16759984 -0.13712715 0.96096969
0.17154367 -0.13757463 0.96410555
0.17551333 -0.13802505 0.96726203
0.17950904 -0.13847841 0.97043914
0.18353111 -0.13893476 0.97363722
0.18757975 -0.13939413 0.97685641
0.094918206 -0.13633707 0.97962105
0.098098494 -0.13596107 0.97691941
0.10126129 -0.13558714 0.97423267
0.10440672 -0.13521527 0.9715606
0.10753489 -0.13484535 0.96890259
0.11064597 -0.13447741 0.96625888
0.1137401 -0.13411146 0.96362948
0.11681746 -0.13374752 0.96101445
0.11987814 -0.13338554 0.95841348
0.12292233 -0.13302554 0.95582676
0.12595013 -0.13266747 0.95325398
0.12896168 -0.13231134 0.95069504
0.13195741 -0.13195741 0.94815201
0.13493715 -0.13160537 0.94562244
0.13790104 -0.13125521 0.94310641
0.14084919 -0.13090689 0.94060373
0.14444652 -0.13116407 0.94245166
0.1482399 -0.13158372 0.94546694
0.15205759 -0.13200605 0.94850141
0.1558999 -0.13243109 0.95155555
0.15976706 -0.13285892 0.9546296
0.16365938 -0.13328961 0.95772415
0.16757703 -0.13372308 0.96083885
0.17152023 -0.13415939 0.96397382
0.17548925 -0.13459855 0.96712935
0.17948434 -0.1350406 0.97030556
0.18350576 -0.13548556 0.97350276
0.18755379 -0.13593347 0.97672117
0.10188963 -0.13297461 0.98027796
0.1050528 -0.13260764 0.97757268
0.10819853 -0.13224265 0.97488207
0.11132693 -0.1318796 0.97220564
0.1144382 -0.13151853 0.96954387
0.11753247 -0.13115942 0.96689659
0.1206099 -0.13080229 0.96426386
0.12367062 -0.13044709 0.96164531
0.12671477 -0.13009383 0.95904112
0.12974247 -0.12974247 0.956451
0.13275389 -0.12939303 0.95387489
0.13574925 -0.12904559 0.95131356
0.13872877 -0.12870018 0.94876724
0.14169236 -0.12835661 0.94623446
0.14464018 -0.12801488 0.94371521
0.14822008 -0.12823536 0.94534057
0.15203722 -0.12864688 0.94837433
0.15587895 -0.12906106 0.95142764
0.15974548 -0.12947792 0.95450068
0.16363718 -0.12989755 0.95759416
0.1675542 -0.13031994 0.96070796
0.17149679 -0.13074508 0.96384209
0.1754652 -0.13117301 0.96699679
0.17945966 -0.13160375 0.97017217
0.18348044 -0.13203733 0.97336847
0.18752781 -0.13247377 0.97658587
0.10570692 -0.12996753 0.98365963
0.1088704 -0.12960762 0.98093569
0.11201633 -0.1292496 0.97822607
0.11514492 -0.12889357 0.97553134
0.11825631 -0.12853946 0.97285134
0.12135065 -0.1281873 0.970186
0.12442809 -0.12783708 0.96753532
0.12748875 -0.12748875 0.964899
0.1305328 -0.12714234 0.96227717
0.13356036 -0.12679781 0.95966959
0.13657154 -0.12645513 0.95707601
0.1395665 -0.12611431 0.9544965
0.14254569 -0.12577561 0.95193303
0.1455089 -0.12543871 0.94938326
0.14845631 -0.12510362 0.9468472
0.15201686 -0.12528862 0.94824731
0.15585798 -0.12569192 0.95129967
0.15972392 -0.12609783 0.95437187
0.16361496 -0.1265064 0.95746416
0.1675314 -0.12691772 0.96057719
0.17147337 -0.1273317 0.96371043
0.17544115 -0.1277484 0.96686423
0.17943498 -0.12816785 0.97003877
0.18345514 -0.12859005 0.97323418
0.10955063 -0.12693961 0.9870646
0.11271433 -0.12658687 0.98432165
0.11586041 -0.12623596 0.98159313
0.1189891 -0.12588702 0.97887981
0.12210055 -0.12554 0.97618145
0.12519488 -0.12519488 0.97349781
0.12827227 -0.12485167 0.97082901
0.1313328 -0.12451032 0.96817476
0.13437669 -0.12417086 0.96553516
0.13740401 -0.12383324 0.96290988
0.14041491 -0.12349745 0.96029878
0.14340952 -0.12316348 0.95770186
0.14638814 -0.12283143 0.95511991
0.14935094 -0.12250134 0.95255315
0.15229787 -0.12217301 0.95000017
0.15583703 -0.12232369 0.95117182
0.15970241 -0.12271868 0.95424324
0.16359279 -0.12311623 0.95733446
0.16750859 -0.12351643 0.96044642
0.17144994 -0.12391927 0.96357882
0.17541711 -0.12432475 0.96673179
0.17941031 -0.12473288 0.96990538
0.18342984 -0.12514372 0.97309995
0.11342105 -0.12389068 0.99049336
0.11658486 -0.12354515 0.98773086
0.11973104 -0.1232015 0.98498344
0.12285978 -0.12285978 0.98225141
0.12597121 -0.12251995 0.97953445
0.12906545 -0.12218197 0.97683233
0.13214271 -0.12184587 0.97414529
0.13520305 -0.12151161 0.97147286
0.13824669 -0.12117919 0.96881527
0.14127369 -0.12084858 0.96617204
0.14428423 -0.12051978 0.9635433
0.14727847 -0.12019277 0.96092892
0.15025647 -0.11986753 0.9583286
0.15321872 -0.11954427 0.95574421
0.15616508 -0.1192228 0.95317411
0.15968086 -0.11934043 0.9541145
0.16357066 -0.11972698 0.95720494
0.16748579 -0.12011607 0.9603157
0.17142653 -0.12050777 0.96344727
0.17539307 -0.12090202 0.96659935
0.17938566 -0.12129887 0.9697721
0.11731841 -0.12082046 0.99394566
0.1204823 -0.1204823 0.99116379
0.1236285 -0.12014601 0.98839724
0.1267572 -0.11981161 0.98564625
0.12986855 -0.11947906 0.98291051
0.13296264 -0.11914834 0.9801898
0.13603967 -0.11881946 0.97748423
0.13909976 -0.11849239 0.97479349
0.14214307 -0.11816713 0.97211772
0.14516969 -0.11784364 0.96945643
0.14817981 -0.11752193 0.96680987
0.15117355 -0.11720197 0.96417767
0.15415104 -0.11688375 0.96155983
0.15711251 -0.11656734 0.95895684
0.16005823 -0.11625282 0.9563694
0.16354853 -0.11633865 0.95707548
0.16746303 -0.11671666 0.96018523
0.17140312 -0.11709718 0.96331567
0.17536905 -0.11748024 0.9664669
0.179361 -0.1178658 0.96963876
0.12440692 -0.11739808 0.99462062
0.12755308 -0.11706927 0.99183482
0.13068168 -0.1167423 0.98906469
0.13379285 -0.11641715 0.98630995
0.13688672 -0.1160938 0.98357046
0.13996346 -0.11577224 0.98084617
0.14302319 -0.11545246 0.9781369
0.14606611 -0.11513446 0.97544277
0.14909229 -0.11481819 0.9727633
0.1521019 -0.11450368 0.97009867
0.15509507 -0.11419088 0.96744853
0.15807195 -0.11387979 0.96481293
0.16103262 -0.11357037 0.96219146
0.16397756 -0.11326285 0.95958614
0.1674403 -0.11331818 0.96005487
0.17137973 -0.11368755 0.96318418
0.17534503 -0.11405939 0.96633452
0.17933635 -0.11443368 0.96950555
0.13463345 -0.11365162 0.99250686
0.13774438 -0.11333398 0.98973298
0.14083794 -0.1130181 0.98697442
0.14391431 -0.11270399 0.98423129
0.14697364 -0.11239161 0.98150337
0.15001605 -0.11208096 0.97879052
0.15304174 -0.11177205 0.97609282
0.15605076 -0.11146483 0.97340989
0.1590433 -0.11115929 0.97074169
0.16201946 -0.11085542 0.96808797
0.16497941 -0.11055321 0.96544886
0.16792338 -0.11025272 0.9628247
0.17135638 -0.11027885 0.96305293
0.175321 -0.11063946 0.96620208
0.14481661 -0.10992105 0.9904021
0.14789253 -0.10961447 0.98763984
0.15095137 -0.10930961 0.98489302
0.15399325 -0.10900645 0.98216152
0.15701829 -0.10870497 0.97944516
0.16002667 -0.10840516 0.97674382
0.16301848 -0.10810699 0.97405732
0.16599387 -0.10781045 0.97138542
0.16895302 -0.10751556 0.96872836
0.17189601 -0.10722226 0.96608573
0.17529699 -0.10722049 0.96606976
0.15495665 -0.10620625 0.98830611
0.15799789 -0.10591068 0.98555571
0.16102228 -0.10561676 0.98282063
0.1640299 -0.10532446 0.98010063
