# .PCD v0.7 - Point Cloud Data file format
VERSION 0.7
FIELDS x y z
SIZE 4 4 4
TYPE F F F
COUNT 1 1 1
WIDTH 1368
HEIGHT 1
VIEWPOINT 0 0 0 1 0 0 0
POINTS 1368
DATA ascii
0.013687145 -0.21277289 0.70630366
0.016152015 -0.21246111 0.70526868
0.018609764 -0.21215132 0.70424032
0.021060318 -0.21184202 0.70321357
0.023503717 -0.21153346 0.70218933
0.025940014 -0.21122582 0.70116812
0.028369254 -0.21091923 0.70015037
0.030791458 -0.21061356 0.69913572
0.033206552 -0.21030818 0.69812196
0.035614803 -0.21000454 0.69711405
0.038015965 -0.20970096 0.69610631
0.040410284 -0.20939875 0.69510311
0.042797782 -0.20909774 0.6941039
0.045178298 -0.20879699 0.69310558
0.04755206 -0.20849749 0.69211137
0.049919002 -0.20819876 0.69111973
0.052279159 -0.20790084 0.69013077
0.054632574 -0.20760378 0.68914467
0.056979276 -0.20730758 0.68816143
0.059319288 -0.20701221 0.68718094
0.061652642 -0.20671767 0.68620324
0.063979357 -0.20642397 0.68522829
0.066299483 -0.20613113 0.6842562
0.06861303 -0.2058391 0.68328679
0.070920035 -0.20554788 0.68232012
0.073220514 -0.20525751 0.68135619
0.075782463 -0.20569526 0.68280929
0.079091765 -0.20807219 0.69069958
0.082478464 -0.21050474 0.69877446
0.085945405 -0.21299514 0.70704138
0.089495353 -0.21554515 0.7155062
-0.016470283 -0.21411368 0.71916574
-0.013915645 -0.2137949 0.718095
-0.011368601 -0.21347706 0.71702743
-0.0088291187 -0.21316016 0.71596301
-0.006297166 -0.21284421 0.7149018
-0.0037727074 -0.21252918 0.7138437
-0.0012557106 -0.21221508 0.7127887
0.0012538575 -0.21190192 0.71173686
0.0037560295 -0.21158966 0.71068805
0.0062508387 -0.21127835 0.70964241
0.0087383175 -0.21096794 0.70859981
0.011218497 -0.21065845 0.70756024
0.013691438 -0.21035029 0.70652521
0.016157059 -0.21004178 0.70548898
0.018615585 -0.20973559 0.70446056
0.021066893 -0.2094297 0.70343316
0.02351105 -0.20912459 0.70240837
0.025948092 -0.20882037 0.70138651
0.028378071 -0.20851712 0.70036799
0.030801026 -0.20821494 0.69935298
0.033216886 -0.20791312 0.69833922
0.03562583 -0.20761259 0.69732982
0.038027715 -0.20731238 0.69632149
0.04042276 -0.20701352 0.69531769
0.042810909 -0.20671554 0.6943168
0.045192208 -0.20641847 0.69331902
0.04756666 -0.20612219 0.69232386
0.04993432 -0.20582683 0.6913318
0.052295182 -0.20553222 0.69034231
0.05464929 -0.20523845 0.68935555
0.056996681 -0.20494552 0.68837166
0.059337381 -0.20465343 0.68739057
0.061671425 -0.20436218 0.68641233
0.063998826 -0.20407173 0.68543679
0.066319622 -0.20378213 0.68446404
0.068633847 -0.20349334 0.68349409
0.070941515 -0.20320536 0.68252683
0.073242672 -0.20291822 0.68156236
0.075736292 -0.20316562 0.68239331
0.079043031 -0.20551187 0.69027394
0.082427025 -0.20791295 0.69833869
0.085891157 -0.21037111 0.70659512
0.089438193 -0.21288809 0.71504921
-0.016475543 -0.21164736 0.7193954
-0.013920081 -0.21133214 0.71832395
-0.011372222 -0.21101788 0.71725577
-0.0088319257 -0.21070452 0.71619064
-0.0062991646 -0.2103921 0.71512872
-0.0037739032 -0.21008061 0.71406996
-0.0012561081 -0.20977005 0.71301436
0.0012542538 -0.20946039 0.71196181
0.0037572151 -0.20915164 0.71091235
0.006252808 -0.2088438 0.70986599
0.0087410668 -0.20853688 0.70882279
0.011222037 -0.20823115 0.70778358
0.013695718 -0.2079259 0.70674604
0.01616215 -0.20762147 0.70571125
0.018621407 -0.20731834 0.70468092
0.021073475 -0.2070159 0.70365292
0.023518384 -0.20671421 0.70262748
0.025956176 -0.2064134 0.70160502
0.028386898 -0.20611356 0.70058584
0.030810559 -0.20581454 0.69956946
0.033227153 -0.2055161 0.69855505
0.035636786 -0.20521875 0.69754434
0.038039468 -0.2049223 0.69653672
0.04043524 -0.20462683 0.69553238
0.042824108 -0.20433217 0.69453084
0.045206126 -0.20403846 0.69353253
0.047581229 -0.20374526 0.69253594
0.049949642 -0.20345342 0.69154394
0.052311208 -0.20316213 0.69055384
0.054666024 -0.20287168 0.68956661
0.057014104 -0.20258203 0.68858206
0.059355497 -0.20229323 0.68760043
0.061690219 -0.20200522 0.68662149
0.064018309 -0.20171808 0.68564546
0.066339783 -0.20143172 0.68467212
0.068654679 -0.20114616 0.68370152
0.070963018 -0.20086141 0.68273365
0.07326483 -0.2005775 0.6817686
0.075690195 -0.20063908 0.68197793
0.078994349 -0.20295471 0.68984884
0.082375668 -0.20532443 0.69790357
0.085836977 -0.20775037 0.7061494
0.089381099 -0.21023442 0.71459275
-0.016480807 -0.20917948 0.71962523
-0.013924521 -0.20886782 0.71855307
-0.011375843 -0.20855711 0.71748418
-0.0088347355 -0.20824733 0.71641845
-0.0063011651 -0.20793845 0.71535581
-0.0037751 -0.2076305 0.7142964
-0.0012565056 -0.20732343 0.71324003
0.0012546503 -0.2070173 0.71218687
0.0037584011 -0.20671205 0.71113676
0.0062547796 -0.20640773 0.7100898
0.0087438179 -0.20610426 0.70904583
0.011225569 -0.20580211 0.70800632
0.013699977 -0.20549965 0.7069658
0.016167231 -0.20519947 0.70593309
0.018627234 -0.20489958 0.7049014
0.021080058 -0.20460056 0.70387274
0.023525724 -0.20430234 0.70284677
0.025964266 -0.20400494 0.70182365
0.028395729 -0.2037085 0.70080382
0.030820131 -0.20341286 0.69978678
0.03323742 -0.20311756 0.69877088
0.035647806 -0.20282371 0.69775999
0.038051236 -0.20253077 0.69675219
0.040447727 -0.20223863 0.69574714
0.042837311 -0.20194733 0.694745
0.045220025 -0.20165686 0.69374573
0.047595978 -0.20136759 0.69275057
0.049964968 -0.20107853 0.69175613
0.052327249 -0.20079061 0.69076562
0.054682754 -0.20050344 0.68977767
0.057031538 -0.20021711 0.68879265
0.059373621 -0.19993158 0.68781036
0.061709031 -0.19964686 0.68683088
0.064037792 -0.19936295 0.68585414
0.066359952 -0.19907986 0.68488026
0.068675518 -0.19879755 0.68390906
0.070984535 -0.19851606 0.68294066
0.07328701 -0.19823535 0.68197495
0.075644135 -0.1981156 0.68156296
0.078945734 -0.20040071 0.68942428
0.082324386 -0.20273915 0.69746906
0.085782871 -0.20513295 0.70570427
0.089324087 -0.20758416 0.71413696
-0.016486073 -0.20670998 0.71985513
-0.013928965 -0.20640193 0.71878237
-0.011379467 -0.20609479 0.71771276
-0.0088375453 -0.20578855 0.71664631
-0.006303167 -0.20548324 0.71558309
-0.0037762974 -0.20517883 0.71452296
-0.0012569036 -0.20487529 0.71346593
0.001255047 -0.20457266 0.71241206
0.0037595881 -0.20427094 0.71136135
0.0062567517 -0.2039701 0.71031368
0.0087465709 -0.20367016 0.70926911
0.011229096 -0.20337141 0.70822877
0.013704286 -0.20307261 0.70718819
0.016172297 -0.20277573 0.70615435
0.018633066 -0.2024793 0.70512205
0.021086644 -0.20218371 0.70409268
0.023533065 -0.20188893 0.70306611
0.025972357 -0.20159496 0.7020424
0.028404564 -0.20130192 0.70102185
0.030829711 -0.20100971 0.70000428
0.033247843 -0.20071845 0.69898999
0.035658862 -0.2004274 0.69797641
0.03806302 -0.20013781 0.69696796
0.040460225 -0.19984899 0.69596213
0.042850528 -0.19956103 0.69495934
0.045233957 -0.19927391 0.69395947
0.04761054 -0.19898763 0.69296253
0.049980238 -0.19870192 0.69196755
0.052343287 -0.19841757 0.69097733
0.054699507 -0.19813377 0.68998897
0.05704898 -0.19785072 0.68900329
0.059391752 -0.19756848 0.68802041
0.061727848 -0.19728705 0.68704033
0.064057298 -0.19700642 0.68606305
0.066380136 -0.19672658 0.68508852
0.068696372 -0.19644752 0.68411672
0.07100606 -0.19616929 0.68314779
0.073309213 -0.19589183 0.68218154
0.075605847 -0.19561513 0.68121797
0.078897171 -0.19784983 0.68900019
0.082273155 -0.20015709 0.69703507
0.085728832 -0.20251884 0.70525974
0.089267142 -0.20493725 0.7136817
-0.016491342 -0.20423894 0.72008526
-0.013933409 -0.20393445 0.71901172
-0.011383094 -0.20363091 0.71794152
-0.0088403579 -0.20332822 0.71687436
-0.0063051693 -0.20302646 0.71581042
-0.0037774956 -0.2027256 0.71474969
-0.0012573019 -0.2024256 0.71369201
0.0012554441 -0.2021265 0.71263748
0.0037607753 -0.20182827 0.711586
0.0062587252 -0.20153095 0.71053773
0.0087493369 -0.20123474 0.7094934
0.01123261 -0.20093891 0.70845038
0.01370862 -0.20064434 0.70741183
0.016177369 -0.20035049 0.70637578
0.018638901 -0.20005754 0.70534289
0.021093238 -0.19976537 0.7043128
0.023540407 -0.19947398 0.70328546
0.025980454 -0.19918349 0.70226127
0.028413406 -0.19889385 0.70124006
0.030839289 -0.19860502 0.70022178
0.03325817 -0.19831723 0.69920713
0.03566996 -0.19802977 0.69819361
0.038074862 -0.19774364 0.6971848
0.040472724 -0.19745784 0.69617712
0.042863749 -0.19717324 0.69517374
0.045247898 -0.19688949 0.69417334
0.047625184 -0.19660653 0.69317567
0.049995679 -0.1963245 0.69218135
0.052359339 -0.1960431 0.69118923
0.054716267 -0.19576263 0.69020039
0.057066437 -0.19548289 0.68921411
0.059409894 -0.19520395 0.68823057
0.061746679 -0.19492579 0.6872499
0.064076819 -0.19464844 0.68627208
0.066400327 -0.19437186 0.68529695
0.068717241 -0.19409607 0.68432456
0.071027592 -0.19382106 0.68335497
0.073331416 -0.19354685 0.68238819
0.075628713 -0.19327338 0.68142402
0.078848675 -0.1953021 0.68857664
0.082221992 -0.19757822 0.69660157
0.08567486 -0.199908 0.70481569
0.089210279 -0.20229372 0.71322703
-0.016496615 -0.2017663 0.72031552
-0.013937859 -0.20146541 0.71924132
-0.011386722 -0.20116542 0.71817034
-0.0088431723 -0.20086633 0.71710259
-0.0063071735 -0.20056811 0.71603793
-0.0037786942 -0.2002708 0.71497649
-0.0012577004 -0.19997436 0.71391821
0.0012558413 -0.19967878 0.71286297
0.0037619639 -0.19938408 0.71181089
0.0062607001 -0.19909026 0.7107619
0.0087520964 -0.19879761 0.70971715
0.011236124 -0.19850485 0.70867199
0.013712926 -0.19821411 0.70763403
0.016182445 -0.19792373 0.70659739
0.018644735 -0.19763421 0.70556372
0.021099836 -0.19734551 0.7045331
0.023547756 -0.19705753 0.70350498
0.025988558 -0.19677052 0.70248032
0.028422255 -0.19648428 0.70145845
0.030848879 -0.19619887 0.70043951
0.033268463 -0.19591428 0.69942355
0.035681013 -0.19563037 0.69840997
0.038086649 -0.19534765 0.69740063
0.040485237 -0.19506523 0.69639236
0.042876981 -0.194784 0.69538838
0.045261841 -0.19450358 0.69438726
0.047639839 -0.19422396 0.693389
0.050011016 -0.19394515 0.69239366
0.05237544 -0.19366732 0.69140178
0.054733023 -0.19339001 0.69041175
0.057083897 -0.19311361 0.68942499
0.059428051 -0.19283797 0.68844092
0.061765522 -0.1925631 0.68745965
0.064096339 -0.19228902 0.68648118
0.066420533 -0.19201572 0.68550545
0.068738125 -0.1917432 0.68453252
0.071049146 -0.19147143 0.68356234
0.073353633 -0.19120045 0.6825949
0.075651608 -0.19093025 0.68163025
0.078800239 -0.1927575 0.68815368
0.082170896 -0.19500257 0.69616866
0.085620999 -0.19730055 0.70437258
0.089153476 -0.19965355 0.71277291
-0.016501892 -0.19929209 0.72054595
-0.013942311 -0.19899479 0.71947104
-0.011390353 -0.19869837 0.71839935
-0.0088459868 -0.19840285 0.71733087
-0.0063091791 -0.19810823 0.71626562
-0.0037798937 -0.19781445 0.71520346
-0.001258099 -0.19752154 0.71414447
0.0012562388 -0.1972295 0.71308857
0.003763153 -0.19693834 0.71203589
0.0062626759 -0.19664803 0.71098626
0.0087548513 -0.1963588 0.70994055
0.011239679 -0.19606996 0.70889622
0.013717234 -0.19578235 0.70785636
0.016187523 -0.19549546 0.70681912
0.018650578 -0.19520938 0.7057848
0.021106437 -0.19492415 0.70475352
0.023555107 -0.19463956 0.70372462
0.025996663 -0.19435599 0.70269936
0.028431106 -0.1940732 0.70167691
0.030858474 -0.19379121 0.70065737
0.033278797 -0.19351006 0.69964081
0.035692014 -0.19322918 0.69862533
0.038098365 -0.19294979 0.69761515
0.040497754 -0.19267114 0.69660771
0.042890221 -0.19239327 0.69560307
0.045275796 -0.19211622 0.69460136
0.04765451 -0.19183995 0.6936025
0.050026391 -0.19156447 0.69260651
0.052391477 -0.19128981 0.6916135
0.054749753 -0.19101581 0.69062281
0.057101373 -0.19074288 0.68963605
0.059446216 -0.19047053 0.68865132
0.061784379 -0.19019897 0.68766952
0.064115882 -0.18992817 0.68669045
0.066440746 -0.18965814 0.68571413
0.068759017 -0.18938886 0.68474054
0.071070716 -0.18912038 0.68376982
0.073375866 -0.18885262 0.68280178
0.075674497 -0.18858564 0.68183649
0.078751862 -0.19021603 0.68773121
0.082119852 -0.19243011 0.69573623
0.085567184 -0.19469635 0.7039299
0.089096747 -0.19701675 0.71231937
-0.013946765 -0.19652259 0.71970093
-0.011393987 -0.19622977 0.71862853
-0.008848805 -0.19593783 0.7175594
-0.0063111857 -0.19564675 0.71649343
-0.0037810944 -0.19535655 0.71543062
-0.0012584981 -0.1950672 0.71437097
0.0012566367 -0.1947787 0.71331441
0.0037643425 -0.19449103 0.71226096
0.00626466 -0.19420446 0.7112115
0.0087575931 -0.19391812 0.71016288
0.011243225 -0.19363332 0.70911986
0.013721546 -0.19334906 0.70807886
0.016192602 -0.19306563 0.70704091
0.018656423 -0.19278304 0.70600599
0.021113046 -0.19250129 0.70497417
0.023562463 -0.19222009 0.70394439
0.026004774 -0.19194001 0.70291865
0.028439965 -0.19166063 0.70189553
0.030868074 -0.19138205 0.70087534
0.033289138 -0.19110431 0.69985819
0.035703201 -0.19082744 0.69884425
0.038110167 -0.19055083 0.69783127
0.040510282 -0.19027556 0.69682318
0.042903464 -0.19000106 0.69581789
0.045289759 -0.18972737 0.69481558
0.047669187 -0.18945445 0.69381613
0.050041776 -0.18918233 0.69281954
0.052407563 -0.18891098 0.69182581
0.054766614 -0.18864055 0.69083548
0.057118841 -0.18837065 0.68984699
0.059464391 -0.18810165 0.68886191
0.06180324 -0.18783338 0.68787944
0.064135432 -0.18756589 0.68689984
0.066460982 -0.18729913 0.68592292
0.068779923 -0.18703313 0.6849488
0.071092285 -0.18676788 0.68397737
0.073398113 -0.18650341 0.68300885
0.075697407 -0.18623966 0.68204296
0.078703538 -0.18767767 0.68730921
0.08206889 -0.18986087 0.69530445
0.085513443 -0.19209543 0.70348781
0.089040093 -0.19438331 0.71186644
-0.013951221 -0.19404881 0.71993089
-0.011397623 -0.19375959 0.71885788
-0.008851625 -0.19347122 0.71778804
-0.0063131931 -0.19318372 0.71672136
-0.0037822956 -0.19289707 0.71565789
-0.0012588972 -0.19261128 0.71459758
0.0012570347 -0.19232632 0.71354038
0.0037655332 -0.1920422 0.71248627
0.00626664 -0.19175918 0.71143627
0.0087603508 -0.19147624 0.71038651
0.011246766 -0.19119503 0.70934319
0.01372586 -0.19091424 0.70830148
0.016197685 -0.1906343 0.70726287
0.018662274 -0.19035518 0.70622736
0.021119654 -0.19007689 0.70519489
0.023569832 -0.18979916 0.70416451
0.026012892 -0.1895225 0.70313805
0.028448828 -0.18924655 0.70211428
0.030877681 -0.18897142 0.70109349
0.03329948 -0.18869705 0.70007563
0.035714284 -0.18842363 0.69906121
0.038122006 -0.18815055 0.69804806
0.040522814 -0.1878785 0.69703877
0.042916723 -0.18760738 0.69603288
0.045303728 -0.18733704 0.69502991
0.047683872 -0.18706749 0.69402987
0.050057169 -0.18679869 0.69303262
0.052423652 -0.18653068 0.69203824
0.054783363 -0.18626344 0.69104677
0.057136279 -0.18599683 0.69005764
0.059482586 -0.18573134 0.68907267
0.061822116 -0.18546635 0.68808955
0.06415499 -0.18520214 0.68710929
0.066481218 -0.18493865 0.68613178
0.068800844 -0.18467595 0.68515712
0.071113884 -0.18441397 0.68418515
0.073420368 -0.18415272 0.68321592
0.075720333 -0.18389224 0.68224949
0.078655273 -0.18514241 0.68688774
0.082017973 -0.18729478 0.69487309
0.085459776 -0.18949777 0.70304632
0.088983513 -0.19175321 0.7114141
-0.013955681 -0.19157344 0.72016102
-0.01140126 -0.19128782 0.7190873
-0.0088544469 -0.19100307 0.71801686
-0.0063152029 -0.19071913 0.71694952
-0.0037834973 -0.19043604 0.71588528
-0.0012592967 -0.19015379 0.71482432
0.0012574331 -0.18987238 0.71376646
0.0037667246 -0.18959181 0.71271169
0.0062686163 -0.1893122 0.71166062
0.0087631317 -0.18903325 0.710612
0.011250307 -0.18875515 0.70956653
0.013730178 -0.1884779 0.70852429
0.016202772 -0.18820144 0.70748502
0.018668124 -0.18792579 0.70644879
0.021126268 -0.18765098 0.70541573
0.0235772 -0.18737671 0.70438468
0.026021013 -0.18710348 0.70335758
0.028457699 -0.18683098 0.70233321
0.030887295 -0.18655926 0.70131177
0.033309836 -0.18628833 0.7002933
0.035725348 -0.18601818 0.69927776
0.03813386 -0.1857488 0.69826508
0.04053542 -0.18548025 0.69725555
0.042929985 -0.18521222 0.69624799
0.045317713 -0.18494526 0.69524443
0.047698565 -0.18467906 0.69424373
0.050072573 -0.18441361 0.69324589
0.052439764 -0.18414894 0.69225091
0.054800171 -0.18388502 0.69125879
0.05715384 -0.18362191 0.69026971
0.059500769 -0.18335952 0.68928331
0.061841011 -0.1830979 0.68829983
0.064174563 -0.18283696 0.68731892
0.066501476 -0.18257678 0.68634087
0.068821765 -0.18231732 0.6853655
0.071135484 -0.18205862 0.68439299
0.073442645 -0.18180065 0.68342322
0.075743273 -0.18154339 0.6824562
0.078607075 -0.18261029 0.68646681
0.08196713 -0.18473189 0.69444233
0.085406169 -0.18690336 0.70260531
0.088927031 -0.18912651 0.71096253
-0.013960144 -0.1890965 0.72039133
-0.011404902 -0.18881449 0.71931696
-0.0088572688 -0.18853331 0.71824574
-0.0063172136 -0.18825296 0.71717775
-0.0037847003 -0.18797345 0.71611291
-0.0012596963 -0.18769476 0.71505117
0.0012578316 -0.1874169 0.71399266
0.0037679204 -0.18714005 0.71293795
0.0062705833 -0.18686339 0.71188396
0.0087658968 -0.18658836 0.71083623
0.011253852 -0.18631378 0.70979017
0.013734497 -0.18604 0.70874715
0.016207863 -0.18576704 0.70770729
0.018673981 -0.18549487 0.7066704
0.021132886 -0.18522353 0.70563668
0.023584578 -0.18495275 0.7046051
0.02602914 -0.18468294 0.70357722
0.028466571 -0.18441388 0.7025522
0.030896913 -0.1841456 0.70153016
0.033320192 -0.18387809 0.70051104
0.035736442 -0.18361136 0.6994949
0.038145609 -0.18334503 0.69848025
0.040547967 -0.18308021 0.69747138
0.042943258 -0.18281558 0.69646323
0.045331698 -0.18255198 0.69545901
0.047713265 -0.18228915 0.69445771
0.050087985 -0.18202707 0.69345927
0.052455887 -0.18176575 0.69246376
0.054816999 -0.18150517 0.69147104
0.057171345 -0.18124533 0.69048113
0.05951903 -0.18098643 0.68949485
0.061859898 -0.18072794 0.68851006
0.064194143 -0.18047033 0.68752867
0.066521741 -0.18021345 0.68655002
0.068842717 -0.17995729 0.68557411
0.071157105 -0.17970185 0.68460101
0.07346493 -0.17944711 0.68363059
0.075766228 -0.17919314 0.68266302
0.078558929 -0.18008123 0.68604636
0.081916347 -0.18217218 0.69401211
0.085352637 -0.18431221 0.70216489
0.088870622 -0.18650314 0.71051157
-0.013964611 -0.18661799 0.72062182
-0.011408545 -0.18633957 0.71954674
-0.0088600935 -0.18606196 0.71847481
-0.0063192248 -0.1857852 0.71740609
-0.0037859036 -0.18550928 0.7163406
-0.0012600964 -0.18523417 0.71527827
0.0012582303 -0.18495986 0.71421903
0.0037691141 -0.18468659 0.71316379
0.0062725749 -0.1844137 0.71211004
0.0087686628 -0.1841419 0.71106052
0.0112574 -0.18387085 0.71001387
0.01373882 -0.18360059 0.70897025
0.016212955 -0.1833311 0.70792961
0.01867984 -0.18306245 0.70689219
0.021139504 -0.18279454 0.70585769
0.023591958 -0.18252726 0.70482558
0.026037272 -0.1822609 0.70379704
0.028475452 -0.18199529 0.70277137
0.030906538 -0.18173043 0.70174867
0.033330556 -0.18146636 0.70072895
0.035747543 -0.18120307 0.69971222
0.038157534 -0.18094057 0.69869858
0.04056045 -0.18067837 0.69768614
0.042956538 -0.18041746 0.69667864
0.045345701 -0.18015724 0.69567382
0.04772798 -0.17989777 0.69467187
0.050103411 -0.17963906 0.69367284
0.05247201 -0.17938106 0.6926766
0.054833826 -0.17912383 0.69168329
0.057188869 -0.17886731 0.69069278
0.059537183 -0.17861155 0.68970513
0.061878774 -0.17835647 0.68872017
0.064213745 -0.17810227 0.6877386
0.066542022 -0.17784867 0.68675929
0.068863675 -0.17759579 0.68578285
0.071178734 -0.17734362 0.68480909
0.07348723 -0.17709218 0.68383813
0.075789191 -0.17684144 0.68286991
0.078510843 -0.17755529 0.68562645
0.081865624 -0.17961562 0.69358236
0.085299172 -0.18172432 0.70172507
0.088814296 -0.18388312 0.71006119
-0.013969079 -0.18413785 0.72085238
-0.01141219 -0.18386306 0.71977663
-0.008862921 -0.18358907 0.71870404
-0.0063212384 -0.1833159 0.71763468
-0.0037871078 -0.18304354 0.71656841
-0.0012604966 -0.182772 0.71550542
0.0012586294 -0.18250126 0.71444553
0.0037703041 -0.18223137 0.71338898
0.0062745609 -0.18196227 0.71233553
0.0087714316 -0.18169393 0.71128505
0.011260949 -0.18142641 0.71023774
0.013743144 -0.18115963 0.70919341
0.016218051 -0.18089366 0.70815217
0.018685704 -0.18062846 0.70711404
0.021146128 -0.18036403 0.70607883
0.023599347 -0.18010028 0.7050463
0.02604541 -0.17983736 0.70401704
0.028484341 -0.17957519 0.70299071
0.030916169 -0.17931378 0.70196736
0.033340927 -0.17905313 0.70094699
0.035758648 -0.17879324 0.69992959
0.038169373 -0.17853417 0.69891536
0.040573034 -0.17827545 0.69790256
0.042969823 -0.17801784 0.69689411
0.045359708 -0.17776102 0.6958887
0.047742698 -0.17750491 0.69488609
0.050118845 -0.17724957 0.69388652
0.052488152 -0.17699493 0.69288969
0.054850664 -0.17674103 0.69189572
0.057206411 -0.17648786 0.69090462
0.059555419 -0.17623542 0.68991637
0.061897721 -0.17598373 0.68893105
0.064233348 -0.17573275 0.68794852
0.06656231 -0.17548247 0.68696874
0.068884641 -0.17523287 0.68599164
0.071200378 -0.17498398 0.68501729
0.073509544 -0.17473581 0.68404579
0.075812168 -0.17448834 0.68307698
0.078462824 -0.17503245 0.68520707
0.08181496 -0.17706223 0.69315314
0.085245766 -0.17913966 0.70128572
0.088758036 -0.18126641 0.70961142
0.092354715 -0.18344429 0.71813726
-0.01397355 -0.18165615 0.7210831
-0.011415836 -0.18138497 0.72000664
-0.0088657495 -0.18111458 0.7189334
-0.0063232528 -0.18084502 0.71786338
-0.0037883129 -0.18057625 0.71679646
-0.001260897 -0.18030828 0.71573275
0.0012590295 -0.18004122 0.71467268
0.0037714937 -0.17977454 0.71361405
0.006276546 -0.17950922 0.71256089
0.0087742014 -0.1792444 0.7115097
0.011264499 -0.17898038 0.71046168
0.013747473 -0.17871715 0.70941681
0.016223151 -0.17845467 0.70837486
0.018691571 -0.17819297 0.70733607
0.021152755 -0.17793201 0.70630014
0.023606734 -0.17767173 0.70526701
0.026053552 -0.17741229 0.7042371
0.028493233 -0.17715357 0.70321018
0.030925805 -0.1768956 0.70218617
0.033351302 -0.17663839 0.70116514
0.035769761 -0.17638192 0.70014709
0.038181204 -0.1761262 0.69913203
0.040585652 -0.17587116 0.69811964
0.042983126 -0.17561677 0.69710982
0.045373723 -0.1753633 0.69610369
0.047757432 -0.17511059 0.69510055
0.050134283 -0.1748586 0.69410026
0.052504301 -0.17460732 0.69310284
0.054867513 -0.17435677 0.69210827
0.057223964 -0.17410696 0.69111663
0.059573662 -0.17385782 0.69012773
0.061916649 -0.17360942 0.68914169
0.064252943 -0.17336172 0.68815839
0.06658262 -0.17311481 0.68717831
0.068905629 -0.17286851 0.68620062
0.071222037 -0.17262289 0.68522567
0.073531874 -0.17237799 0.68425351
0.075835168 -0.17213379 0.68328416
0.078414857 -0.17251268 0.68478817
0.08176437 -0.17451201 0.69272453
0.085192434 -0.17655824 0.70084697
0.088701837 -0.178653 0.70916212
0.092295513 -0.18079805 0.71767694
-0.013978024 -0.17917286 0.72131401
-0.011419486 -0.17890529 0.72023684
-0.0088685788 -0.17863852 0.71916288
-0.0063252682 -0.17837256 0.7180922
-0.0037895187 -0.17810738 0.71702462
-0.0012612977 -0.17784299 0.7159602
0.0012594295 -0.17757957 0.71489972
0.0037726946 -0.17731664 0.71384126
0.0062785316 -0.1770546 0.71278632
0.0087769739 -0.17679334 0.71173453
0.011268054 -0.17653285 0.71068585
0.013751803 -0.17627311 0.7096402
0.016228255 -0.17601416 0.70859772
0.018697441 -0.17575595 0.70755821
0.021159388 -0.17549844 0.70652157
0.023614131 -0.17524171 0.70548797
0.026061699 -0.17498569 0.70445734
0.028502127 -0.17473044 0.7034297
0.030935444 -0.17447591 0.70240504
0.033361688 -0.17422216 0.70138347
0.035780881 -0.1739691 0.70036477
0.038193058 -0.17371681 0.69934905
0.040598191 -0.173465 0.69833529
0.042996477 -0.17321438 0.69732636
0.045387741 -0.1729641 0.69631881
0.047772177 -0.17271478 0.69531512
0.050149735 -0.17246616 0.69431418
0.052520461 -0.17221825 0.69331616
0.054884374 -0.17197104 0.69232094
0.057241518 -0.17172456 0.69132864
0.059591912 -0.17147876 0.69033915
0.061935589 -0.17123368 0.68935251
0.064272583 -0.17098932 0.68836874
0.066602916 -0.17074567 0.68738782
0.068926625 -0.17050271 0.68640971
0.071243703 -0.17026038 0.68543416
0.07355421 -0.17001875 0.68446141
0.075858168 -0.16977781 0.68349141
0.07836695 -0.16999599 0.6843698
0.08171384 -0.17196494 0.69229639
0.08513917 -0.17398004 0.70040876
0.088645712 -0.1760429 0.70871341
0.092236415 -0.17815526 0.71721739
0.095913388 -0.18031718 0.7259208
-0.013982501 -0.17668797 0.72154504
-0.011423139 -0.17642404 0.72046721
-0.008871411 -0.17616087 0.71939254
-0.006327285 -0.17589852 0.71832114
-0.003790725 -0.17563692 0.71725285
-0.0012616988 -0.17537613 0.71618783
0.0012598272 -0.17511597 0.71512544
0.0037738902 -0.17485692 0.71406752
0.0062805191 -0.17459843 0.71301192
0.0087797483 -0.17434071 0.71195948
0.01127161 -0.17408375 0.71091014
0.013756136 -0.17382754 0.70986384
0.016233362 -0.17357211 0.7088207
0.018703315 -0.1733174 0.70778054
0.021166025 -0.17306337 0.70674318
0.023621526 -0.17281011 0.70570892
0.026069852 -0.17255759 0.7046777
0.028511029 -0.17230579 0.7036494
0.030945094 -0.17205472 0.70262414
0.033372078 -0.1718044 0.70160186
0.035792012 -0.1715548 0.70058262
0.03820492 -0.17130592 0.69956625
0.040610846 -0.17105782 0.69855303
0.043009784 -0.17081028 0.69754219
0.045401782 -0.17056344 0.69653416
0.047786918 -0.17031747 0.6955297
0.050165195 -0.17007224 0.69452822
0.052536625 -0.16982768 0.69352955
0.05490125 -0.16958386 0.69253379
0.057259094 -0.16934071 0.6915409
0.059610184 -0.16909827 0.6905508
0.061954547 -0.16885652 0.68956351
0.064292222 -0.16861545 0.68857908
0.066623256 -0.16837513 0.68759769
0.068947628 -0.16813545 0.68661886
0.071265392 -0.16789642 0.68564278
0.07357657 -0.16765809 0.68466949
0.075881198 -0.16742042 0.68369889
0.078319103 -0.16748239 0.68395197
0.081663363 -0.16942102 0.69186878
0.085085966 -0.17140506 0.69997108
0.088589661 -0.17343611 0.7082653
0.092177324 -0.17551573 0.71675789
0.095851615 -0.177645 0.72545326
0.099615261 -0.17982496 0.73435563
0.10347243 -0.18205908 0.74347919
-0.013986981 -0.1742015 0.72177625
-0.011426792 -0.17394118 0.72069764
-0.008874245 -0.17368166 0.71962237
-0.0063293031 -0.1734229 0.71855026
-0.0037919325 -0.17316492 0.71748132
-0.0012621008 -0.1729078 0.716416
0.0012602282 -0.17265128 0.71535313
0.003775087 -0.17239565 0.71429396
0.0062825079 -0.17214072 0.7132377
0.0087825237 -0.17188653 0.71218455
0.011275169 -0.17163311 0.71113455
0.013760473 -0.17138043 0.7100876
0.01623847 -0.1711285 0.70904374
0.018709194 -0.17087731 0.70800298
0.021172669 -0.17062679 0.70696503
0.02362893 -0.17037702 0.70593011
0.026078008 -0.17012796 0.70489818
0.028519938 -0.16987963 0.70386928
0.03095475 -0.16963203 0.70284337
0.033382475 -0.16938515 0.70182049
0.035803143 -0.16913898 0.70080054
0.038216788 -0.16889355 0.69978356
0.040623441 -0.16864882 0.69876963
0.043023054 -0.16840453 0.69775742
0.045415822 -0.16816129 0.69674957
0.047801681 -0.16791873 0.69574457
0.050180662 -0.16767685 0.69474238
0.052552808 -0.16743569 0.69374317
0.054918133 -0.1671952 0.69274676
0.057276674 -0.16695541 0.69175321
0.059628461 -0.16671631 0.69076252
0.06197352 -0.16647789 0.68977469
0.064311884 -0.16624016 0.68878967
0.066643573 -0.16600309 0.68780744
0.068968639 -0.16576672 0.68682808
0.071287081 -0.16553102 0.68585151
0.073598936 -0.16529596 0.68487757
0.075904228 -0.16506158 0.68390644
0.078271315 -0.16497184 0.68353462
0.081612967 -0.16688024 0.69144177
0.085032828 -0.1688333 0.69953394
0.088533692 -0.17083262 0.70781779
0.0921183 -0.17287955 0.71629894
0.095789805 -0.17497604 0.72498542
0.099550352 -0.17712206 0.73387712
0.10340416 -0.17932115 0.74298871
0.10735489 -0.18157555 0.75232947
-0.013991465 -0.17171343 0.72200757
-0.01143045 -0.17145675 0.72092831
-0.0088770809 -0.17120084 0.71985227
-0.0063313227 -0.17094572 0.71877956
-0.0037931409 -0.17069134 0.71770996
-0.0012625025 -0.17043783 0.71664405
0.0012606289 -0.1701849 0.71558052
0.0037762842 -0.16993278 0.71452045
0.0062844977 -0.16968143 0.7134636
0.0087853009 -0.16943081 0.71240979
0.011278728 -0.16918093 0.71135908
0.013764813 -0.16893178 0.71031153
0.016243584 -0.16868336 0.70926702
0.018715076 -0.16843568 0.70822555
0.021179317 -0.16818869 0.707187
0.023636336 -0.16794239 0.70615137
0.026086172 -0.16769682 0.70511883
0.028528851 -0.16745195 0.70408922
0.030964414 -0.16720782 0.70306277
0.03339288 -0.1669644 0.70203918
0.035814285 -0.16672167 0.70101863
0.038228661 -0.16647966 0.700001
0.04063604 -0.16623834 0.69898635
0.043036416 -0.16599759 0.69797409
0.04542987 -0.16575763 0.6969651
0.047816444 -0.16551846 0.69595945
0.050196145 -0.16527998 0.69495672
0.052568994 -0.16504219 0.69395685
0.054935023 -0.16480507 0.69295985
0.057294268 -0.16456863 0.6919657
0.059646752 -0.16433288 0.69097441
0.0619925 -0.1640978 0.68998593
0.064331546 -0.16386338 0.68900025
0.066663928 -0.16362964 0.68801749
0.068989664 -0.16339657 0.68703747
0.071308799 -0.1631642 0.68606043
0.073621318 -0.16293243 0.68508589
0.07592728 -0.16270131 0.6841141
0.078226708 -0.16247086 0.68314511
0.081562616 -0.16434258 0.69101518
0.084979758 -0.16626474 0.69909734
0.088477753 -0.16823235 0.70737058
0.092059352 -0.17024675 0.71584058
0.095727757 -0.17230996 0.72451586
0.099485531 -0.1744227 0.73339927
0.10333601 -0.17658684 0.74249893
0.10728323 -0.17880537 0.75182724
-0.013995951 -0.16922377 0.72223908
-0.011434109 -0.16897072 0.7211591
-0.0088799186 -0.16871846 0.7200824
-0.0063333432 -0.16846693 0.71900892
-0.0037943495 -0.16821617 0.71793866
-0.0012629023 -0.16796601 0.71687102
0.0012610295 -0.16771692 0.71580791
0.0037774823 -0.16746838 0.71474719
0.0062864879 -0.16722058 0.71368957
0.0087880809 -0.16697353 0.71263516
0.011282291 -0.16672719 0.71158379
0.013769153 -0.16648157 0.71053553
0.016248699 -0.1662367 0.70949042
0.018720962 -0.16599253 0.70844829
0.021185966 -0.16574904 0.70740908
0.023643747 -0.16550623 0.7063728
0.02609434 -0.16526414 0.70533961
0.028537773 -0.16502276 0.7043094
0.030974075 -0.16478208 0.70328218
0.033403289 -0.16454212 0.70225805
0.035825435 -0.16430286 0.70123684
0.038240544 -0.16406426 0.70021856
0.04064865 -0.16382638 0.69920325
0.043049753 -0.16358906 0.69819039
0.04544393 -0.1633525 0.69718081
0.047831222 -0.16311674 0.69617456
0.050211634 -0.16288164 0.69517118
0.052585188 -0.16264722 0.69417065
0.054951925 -0.16241348 0.69317305
0.05731187 -0.16218039 0.69217831
0.05966505 -0.161948 0.69118643
0.062011495 -0.16171625 0.69019735
0.064351231 -0.16148517 0.68921107
0.066684291 -0.16125475 0.68822765
0.069010705 -0.16102499 0.68724704
0.071330532 -0.16079594 0.68626952
0.073643722 -0.16056745 0.68529433
0.075950347 -0.16033962 0.68432194
0.078250438 -0.16011244 0.68335235
0.081512332 -0.16180806 0.69058919
0.084926754 -0.1636994 0.69866133
0.088421836 -0.16563527 0.70692354
0.092000484 -0.16761732 0.71538281
0.095665805 -0.16964737 0.72404695
0.099420793 -0.17172682 0.73292202
0.10326792 -0.17385612 0.74200976
0.10721166 -0.17603889 0.75132573
-0.014000438 -0.16673249 0.72247064
-0.011437771 -0.16648312 0.72139007
-0.0088827582 -0.16623446 0.72031265
-0.0063353651 -0.16598657 0.71923846
-0.0037955607 -0.16573949 0.71816784
-0.0012633057 -0.16549304 0.71709996
0.0012614303 -0.16524737 0.71603543
0.0037786814 -0.16500242 0.71497405
0.0062884805 -0.16475819 0.71391577
0.0087908618 -0.16451471 0.7128607
0.011285855 -0.16427191 0.71180862
0.013773497 -0.16402982 0.7107597
0.01625382 -0.16378848 0.70971394
0.018726852 -0.16354783 0.70867115
0.021192616 -0.16330782 0.70763111
0.023651162 -0.16306855 0.70659435
0.026102513 -0.16282997 0.70556056
0.028546698 -0.16259207 0.7045297
0.03098375 -0.16235484 0.70350182
0.033413701 -0.16211833 0.70247698
0.035836589 -0.16188252 0.70145518
0.038252436 -0.16164738 0.70043629
0.040661268 -0.16141292 0.69942033
0.043063138 -0.16117917 0.69840747
0.04545803 -0.160946 0.69739711
0.047846008 -0.16071351 0.69638973
0.050227132 -0.16048181 0.69538575
0.052601401 -0.16025077 0.69438463
0.054968841 -0.16002041 0.69338644
0.057329483 -0.15979069 0.69239104
0.05968336 -0.15956163 0.6913985
0.062030494 -0.15933323 0.69040883
0.064370923 -0.15910549 0.68942201
0.066704676 -0.1588784 0.688438
0.069031768 -0.15865196 0.68745679
0.071352236 -0.15842615 0.68647832
0.073666118 -0.15820101 0.68550277
0.075973421 -0.15797648 0.68452984
0.078274183 -0.15775259 0.68355972
0.081462108 -0.15927665 0.69016367
0.084873818 -0.16113724 0.6982258
0.088366002 -0.1630415 0.70647717
0.091941692 -0.16499124 0.71492565
0.095603921 -0.16698818 0.72357857
0.099355899 -0.16903406 0.73244363
0.10319994 -0.171129 0.74152124
0.10714019 -0.17327611 0.75082487
-0.011441434 -0.1639939 0.7216211
-0.0088855997 -0.16374891 0.72054309
-0.0063373889 -0.16350463 0.71946824
-0.0037967707 -0.16326115 0.71839678
-0.0012637079 -0.16301832 0.71732831
0.0012618313 -0.16277623 0.71626306
0.0037798809 -0.16253488 0.71520102
0.006290474 -0.16229422 0.71414208
0.0087936437 -0.1620543 0.71308631
0.011289423 -0.16181506 0.71203363
0.013777845 -0.16157654 0.71098405
0.01625894 -0.16133872 0.70993757
0.018732745 -0.16110161 0.70889419
0.021199273 -0.16086507 0.70785338
0.023658585 -0.16062933 0.70681608
0.026110688 -0.16039422 0.70578152
0.02855563 -0.16015983 0.70475012
0.030993428 -0.15992609 0.70372158
0.033424128 -0.15969305 0.70269614
0.03584775 -0.15946068 0.70167363
0.03826433 -0.159229 0.70065415
0.0406739 -0.15899797 0.69963759
0.043076485 -0.15876761 0.69862396
0.0454721 -0.15853786 0.697613
0.047860805 -0.15830882 0.69660509
0.05024264 -0.1580805 0.69560045
0.052617617 -0.15785286 0.69459873
0.054985769 -0.15762587 0.69359994
0.057347111 -0.15739952 0.69260395
0.059701685 -0.15717383 0.69161081
0.062049512 -0.15694876 0.69062048
0.06439063 -0.15672435 0.68963301
0.06672506 -0.15650059 0.6886484
0.069052838 -0.15627748 0.68766659
0.071373984 -0.15605499 0.68668759
0.073688537 -0.15583314 0.68571138
0.075996511 -0.1556119 0.68473792
0.078297935 -0.15539129 0.68376714
0.08141195 -0.15674838 0.68973875
0.084820904 -0.1585782 0.6977905
0.088310234 -0.16045098 0.70603126
0.091882966 -0.16236852 0.71446902
0.095542133 -0.16433246 0.72311091
0.099290885 -0.16634448 0.73196435
0.10313203 -0.16840546 0.74103332
0.10706881 -0.170517 0.75032467
-0.011445101 -0.16150309 0.72185236
-0.0088884421 -0.16126174 0.72077358
-0.0063394136 -0.1610211 0.71969807
-0.0037979814 -0.1607812 0.71862584
-0.0012641106 -0.16054204 0.71755683
0.0012622327 -0.16030355 0.71649092
0.0037810812 -0.16006577 0.71542811
0.0062924689 -0.15982871 0.71436858
0.0087964283 -0.15959235 0.71331209
0.011292993 -0.15935667 0.71225876
0.013782195 -0.15912171 0.71120852
0.016264066 -0.15888742 0.71016139
0.01873864 -0.15865383 0.70911729
0.021205937 -0.15842082 0.70807588
0.023666011 -0.1581886 0.70703793
0.026118873 -0.157957 0.70600277
0.028564563 -0.15772606 0.7049706
0.031003112 -0.15749581 0.70394146
0.033434559 -0.15726626 0.70291543
0.035858918 -0.15703733 0.70189226
0.038276237 -0.15680909 0.70087212
0.040686533 -0.15658151 0.69985491
0.043089852 -0.15635461 0.69884074
0.045486163 -0.15612818 0.69782871
0.047875609 -0.15590262 0.69682056
0.05025816 -0.15567772 0.69581532
0.052633844 -0.15545344 0.69481295
0.055002701 -0.15522984 0.6938135
0.057364743 -0.15500686 0.69281685
0.059720013 -0.15478453 0.69182312
0.062068544 -0.15456285 0.69083232
0.064410351 -0.15434179 0.68984425
0.066745467 -0.15412134 0.68885899
0.069073923 -0.15390155 0.68787658
0.071395747 -0.15368238 0.68689698
0.073710971 -0.15346383 0.68592012
0.07601963 -0.15324591 0.68494618
0.07832171 -0.15302858 0.68397474
0.081361845 -0.1542232 0.68931425
0.084768027 -0.15602231 0.69735551
0.088254541 -0.15786375 0.70558602
0.091824323 -0.15974917 0.71401304
0.095480412 -0.16168016 0.72264379
0.099225968 -0.16365843 0.73148578
0.10306422 -0.16568552 0.74054611
0.10699753 -0.16776155 0.74982512
-0.01144877 -0.15901069 0.72208375
-0.0088912873 -0.15877299 0.72100431
-0.0063414406 -0.15853602 0.71992821
-0.0037991935 -0.15829973 0.7188552
-0.0012645132 -0.15806416 0.71778542
0.0012626343 -0.15782928 0.71671885
0.0037822826 -0.15759511 0.71565545
0.0062944647 -0.15736161 0.71459514
0.0087992148 -0.15712884 0.71353805
0.011296564 -0.15689673 0.712484
0.013786547 -0.15666531 0.71143311
0.016269196 -0.15643457 0.71038532
0.018744541 -0.15620451 0.70934057
0.021212606 -0.15597504 0.70829856
0.023673438 -0.1557463 0.70725983
0.026127061 -0.15551822 0.70622408
0.028573506 -0.1552908 0.70519131
0.031012805 -0.15506402 0.70416152
0.033444989 -0.15483792 0.70313478
0.035870098 -0.15461248 0.70211107
0.03828815 -0.1543877 0.70109028
0.040699176 -0.15416355 0.70007241
0.043103218 -0.15394007 0.69905752
0.045500293 -0.1537172 0.69804549
0.047890417 -0.15349492 0.69703609
0.050273683 -0.15327343 0.69603026
0.052650087 -0.15305258 0.69502735
0.055019643 -0.15283234 0.69402725
0.057382394 -0.15261275 0.69303006
0.05973836 -0.15239377 0.69203568
0.062087581 -0.15217544 0.69104421
0.064430073 -0.15195772 0.69005549
0.066765882 -0.15174064 0.68906969
0.069095023 -0.15152417 0.68808669
0.071417525 -0.15130831 0.68710649
0.073733419 -0.15109307 0.68612903
0.076042734 -0.15087844 0.68515438
0.0783455 -0.15066443 0.68418252
0.081311814 -0.15170114 0.68889034
0.084715225 -0.15346961 0.69692111
0.088198915 -0.15527979 0.70514131
0.091765754 -0.15713315 0.7135576
0.095418781 -0.1590313 0.72217733
0.099161126 -0.16097586 0.73100775
0.10299613 -0.16296856 0.74005687
0.10692634 -0.1650098 0.74932629
-0.011452441 -0.1565167 0.72231531
-0.0088941343 -0.15628263 0.72123516
-0.0063434639 -0.15604922 0.72015792
-0.0038004059 -0.15581664 0.71908462
-0.0012649163 -0.15558469 0.71801418
0.0012630362 -0.15535344 0.71694696
0.0037834847 -0.15512288 0.7158829
0.0062964624 -0.15489298 0.71482193
0.0088020023 -0.15466376 0.71376413
0.011300138 -0.15443522 0.71270943
0.013790903 -0.15420736 0.71165788
0.016274327 -0.15398018 0.71060944
0.018750446 -0.15375365 0.70956403
0.02121928 -0.15352774 0.70852143
0.023680873 -0.15330251 0.70748198
0.026135253 -0.15307792 0.70644552
0.028582454 -0.152854 0.70541215
0.031022502 -0.1526307 0.7043817
0.033455431 -0.15240808 0.7033543
0.035881277 -0.15218611 0.70232993
0.038300071 -0.1519648 0.70130855
0.040711831 -0.1517441 0.70029008
0.043116599 -0.15152405 0.69927454
0.045514405 -0.15130463 0.69826198
0.04790524 -0.15108576 0.69725186
0.050289221 -0.15086767 0.69624537
0.052666333 -0.1506502 0.69524181
0.055036597 -0.15043336 0.69424111
0.057400048 -0.15021715 0.69324327
0.059756719 -0.15000156 0.69224834
0.062106632 -0.14978658 0.69125623
0.064449817 -0.14957222 0.69026697
0.066786304 -0.14935847 0.68928051
0.06911613 -0.14914533 0.68829691
0.071439311 -0.1489328 0.68731606
0.073755875 -0.14872086 0.68633801
0.076065868 -0.14850955 0.68536282
0.078369297 -0.14829881 0.68439031
0.081261784 -0.14918208 0.68846649
0.084662475 -0.15092006 0.69648719
0.088143349 -0.15269904 0.70469707
0.091707259 -0.15452045 0.71310276
0.095357217 -0.15638584 0.7217114
0.09909638 -0.15829681 0.73053044
0.10292806 -0.16025507 0.7395677
0.10685525 -0.16226168 0.74882805
-0.011456113 -0.15402108 0.72254694
-0.0088969814 -0.15379068 0.72146606
-0.006345496 -0.153561 0.72038859
-0.0038016196 -0.153332 0.71931428
-0.0012653195 -0.15310366 0.71824312
0.0012634381 -0.15287602 0.71717519
0.0037846875 -0.15264906 0.71611047
0.006298461 -0.15242276 0.71504885
0.0088047925 -0.15219712 0.71399033
0.011303715 -0.15197217 0.71293503
0.01379526 -0.15174787 0.71188277
0.016279463 -0.15152422 0.71083361
0.018756354 -0.15130125 0.70978761
0.021225957 -0.15107886 0.70874435
0.023688313 -0.15085715 0.70770425
0.026143452 -0.15063608 0.70666713
0.028591404 -0.15041564 0.70563304
0.031032206 -0.15019588 0.70460206
0.033465885 -0.14997673 0.703574
0.035892472 -0.14975823 0.70254898
0.038311992 -0.14954036 0.70152688
0.04072449 -0.14932314 0.70050782
0.043129988 -0.14910653 0.69949168
0.045528516 -0.14889055 0.69847846
0.047920082 -0.14867513 0.69746786
0.050304774 -0.14846043 0.69646066
0.05268259 -0.14824636 0.69545645
0.055053566 -0.14803292 0.69445515
0.057417721 -0.14782009 0.69345671
0.059775081 -0.14760786 0.69246107
0.062125694 -0.14739625 0.69146842
0.064469568 -0.14718525 0.6904785
0.066806749 -0.14697485 0.68949151
0.069137253 -0.14676504 0.68850726
0.071461119 -0.14655584 0.68752587
0.073778361 -0.14634724 0.68654722
0.076089017 -0.14613922 0.68557137
0.078393117 -0.1459318 0.68459833
0.081341758 -0.14690079 0.68914407
0.084609799 -0.14837371 0.69605386
0.088087857 -0.15012157 0.70425344
0.091648832 -0.15191108 0.71264845
0.095295742 -0.1537438 0.72124612
0.099031702 -0.15562125 0.73005366
0.10286005 -0.15754513 0.73907906
0.10678424 -0.1595172 0.74833041
-0.01145979 -0.15152389 0.7227788
-0.0088998321 -0.15129714 0.72169721
-0.0063475259 -0.15107112 0.72061902
-0.0038028338 -0.15084574 0.71954399
-0.0012657231 -0.15062106 0.71847224
0.0012638406 -0.15039703 0.71740359
0.0037858905 -0.15017365 0.7163381
0.006300461 -0.14995097 0.71527588
0.0088075837 -0.14972892 0.71421671
0.011307293 -0.14950754 0.71316069
0.013799622 -0.14928682 0.71210784
0.016284602 -0.14906673 0.71105802
0.018762264 -0.1488473 0.7100113
0.021232637 -0.14862846 0.70896739
0.023695758 -0.14841028 0.70792663
0.026151657 -0.14819272 0.70688891
0.028600365 -0.1479758 0.70585418
0.031041915 -0.14775951 0.70482248
0.033476338 -0.14754386 0.70379382
0.035903666 -0.14732884 0.70276815
0.038323931 -0.14711444 0.70174545
0.040737156 -0.14690065 0.70072567
0.043143388 -0.14668752 0.699709
0.045542639 -0.14647497 0.69869512
0.04793492 -0.14626296 0.69768381
0.050320324 -0.14605168 0.69667596
0.052698854 -0.14584102 0.69567114
0.055070538 -0.14563099 0.69466925
0.057435401 -0.14542153 0.69367021
0.059793465 -0.14521271 0.69267404
0.062144771 -0.14500447 0.69168073
0.064489335 -0.14479682 0.69069022
0.0668272 -0.14458977 0.68970257
0.06915839 -0.1443833 0.68871772
0.071482927 -0.14417742 0.68773568
0.073800854 -0.14397216 0.68675655
0.076112181 -0.14376746 0.68578011
0.07888256 -0.14441577 0.68887258
0.081984594 -0.14561443 0.69459027
0.085138544 -0.14683314 0.70040363
0.088345744 -0.14807244 0.70631516
0.091607526 -0.14933282 0.71232724
0.095234334 -0.15110515 0.72078139
0.098967128 -0.1529492 0.7295776
0.10279214 -0.1548388 0.73859113
0.10671286 -0.15677567 0.74783015
-0.011463468 -0.14902508 0.72301078
-0.0089026848 -0.14880201 0.72192854
-0.0063495571 -0.14857963 0.72084963
-0.0038040488 -0.1483579 0.71977389
-0.0012661269 -0.14813685 0.71870142
0.0012642432 -0.14791645 0.71763211
0.0037870947 -0.14769669 0.71656597
0.006302462 -0.14747761 0.71550304
0.0088103777 -0.14725918 0.71444327
0.011310874 -0.14704137 0.71338654
0.013803985 -0.1468242 0.71233296
0.016289743 -0.1466077 0.71128255
0.01876818 -0.14639181 0.71023518
0.021239322 -0.1461765 0.70919061
0.023703204 -0.14596184 0.70814914
0.026159864 -0.14574781 0.70711076
0.02860933 -0.14553441 0.70607543
0.03105163 -0.14532162 0.70504308
0.033486798 -0.14510946 0.70401371
0.035914868 -0.14489792 0.70298743
0.038335875 -0.14468701 0.70196414
0.040749837 -0.14447668 0.70094377
0.043156788 -0.14426698 0.69992632
0.045556769 -0.14405788 0.69891191
0.047949784 -0.14384936 0.69790018
0.050335895 -0.14364146 0.69689155
0.052715138 -0.14343421 0.69588608
0.055087525 -0.14322756 0.69488353
0.057453088 -0.14302151 0.69388384
0.059811857 -0.14281607 0.69288707
0.062163852 -0.14261119 0.6918931
0.064509116 -0.14240691 0.69090205
0.066847667 -0.14220323 0.68991381
0.069179535 -0.14200011 0.68892837
0.071504757 -0.14179757 0.68794572
0.073823355 -0.14159562 0.68696594
0.076425292 -0.14193268 0.68860126
0.079505704 -0.14311026 0.69431442
0.082637653 -0.14430754 0.70012313
0.085822456 -0.14552502 0.70602989
0.089061446 -0.14676322 0.71203715
0.092356034 -0.14802268 0.71814752
0.095707655 -0.14930394 0.72436368
0.099117815 -0.15060759 0.73068845
0.10272432 -0.15213601 0.73810381
0.10664157 -0.15403782 0.74733061
0.11065765 -0.15598728 0.75678861
-0.011467147 -0.14652465 0.72324282
-0.0089055384 -0.14630528 0.72215998
-0.0063515897 -0.14608657 0.72108042
-0.0038052648 -0.14586848 0.72000396
-0.0012665309 -0.14565106 0.71893078
0.0012646461 -0.14543429 0.71786082
0.0037883001 -0.14521816 0.71679401
0.0063044643 -0.14500268 0.71573037
0.0088131726 -0.14478785 0.71466994
0.011314457 -0.14457363 0.71361256
0.013808351 -0.14436004 0.71255827
0.016294889 -0.14414708 0.7115072
0.0187741 -0.14393477 0.71045917
0.02124601 -0.14372301 0.70941395
0.023710659 -0.14351188 0.70837182
0.026168078 -0.14330138 0.70733279
0.028618298 -0.1430915 0.7062968
0.031061351 -0.14288221 0.70526379
0.033497266 -0.14267355 0.70423383
0.035926078 -0.14246549 0.70320684
0.038347822 -0.14225805 0.70218295
0.040762518 -0.14205121 0.70116192
0.043170203 -0.14184494 0.70014387
0.045570906 -0.14163931 0.69912881
0.047964655 -0.14143424 0.6981166
0.050351467 -0.14122972 0.69710714
0.052731425 -0.1410259 0.69610107
0.055104524 -0.14082266 0.69509792
0.057470791 -0.14062002 0.69409764
0.059830256 -0.14041795 0.69310021
0.062182948 -0.14021645 0.69210565
0.064528905 -0.14001556 0.69111401
0.066868141 -0.13981521 0.69012511
0.069200695 -0.13961545 0.68913907
0.071526602 -0.13941625 0.68815589
0.07396996 -0.13945156 0.68833017
0.077028781 -0.1406081 0.69403881
0.080138765 -0.14178397 0.69984287
0.083301209 -0.14297968 0.70574492
0.086517438 -0.14419574 0.71174729
0.089788847 -0.14543264 0.71785265
0.093116879 -0.14669096 0.72406375
0.096502997 -0.14797126 0.73038322
0.099948727 -0.14927408 0.7368139
0.10345569 -0.15060006 0.74335891
0.1070255 -0.15194979 0.75002116
0.11065988 -0.15332393 0.75680393
-0.01147083 -0.14402264 0.7234751
-0.0089083947 -0.14380695 0.72239161
-0.0063536232 -0.14359188 0.72131127
-0.0038064816 -0.14337748 0.72023422
-0.0012669354 -0.1431637 0.71916032
0.0012650491 -0.14295055 0.71808964
0.0037895059 -0.14273806 0.71702218
0.0063064676 -0.14252616 0.71595782
0.0088159693 -0.14231493 0.71489668
0.011318043 -0.14210431 0.7138387
0.01381272 -0.14189431 0.71278375
0.016300034 -0.14168492 0.71173191
0.018780021 -0.14147615 0.71068323
0.021252703 -0.14126796 0.7096374
0.023718119 -0.14106038 0.70859468
0.026176296 -0.1408534 0.70755494
0.028627273 -0.14064704 0.70651829
0.031071076 -0.14044127 0.70548463
0.033507742 -0.14023611 0.70445406
0.035937298 -0.14003153 0.70342642
0.038359776 -0.13982756 0.70240182
0.040775206 -0.13962419 0.70138019
0.043183625 -0.13942142 0.70036155
0.045585051 -0.13921921 0.69934583
0.047979526 -0.13901761 0.69833308
0.05036705 -0.13881651 0.69732291
0.052747723 -0.13861611 0.69631624
0.05512153 -0.13841628 0.69531244
0.057488501 -0.13821703 0.69431156
0.05984867 -0.13801835 0.69331354
0.062202062 -0.13782026 0.69231838
0.064548708 -0.13762271 0.69132608
0.06688863 -0.13742574 0.69033659
0.069221869 -0.13722932 0.68934995
0.071548447 -0.13703348 0.68836612
0.074553825 -0.13810791 0.69376338
0.077641875 -0.13926241 0.69956285
0.080781996 -0.1404364 0.70546013
0.083975501 -0.14163032 0.71145767
0.087223776 -0.14284474 0.71755809
0.090528235 -0.14408015 0.723764
0.093890354 -0.14533713 0.73007822
0.097311653 -0.14661622 0.73650354
0.1007937 -0.14791803 0.74304295
0.10433813 -0.14924316 0.74969953
0.10794661 -0.15059218 0.75647616
-0.011474515 -0.14151902 0.72370756
-0.008911253 -0.14130701 0.72262335
-0.0063556586 -0.14109562 0.72154236
-0.0038076986 -0.14088485 0.72046447
-0.0012673399 -0.14067474 0.71938998
0.0012654525 -0.14046523 0.71831858
0.003790712 -0.14025635 0.71725041
0.0063084727 -0.1400481 0.71618545
0.008818767 -0.13984045 0.71512359
0.011321629 -0.13963343 0.7140649
0.013817092 -0.13942702 0.71300936
0.016305188 -0.13922122 0.71195692
0.018785948 -0.13901602 0.71090752
0.021259399 -0.13881138 0.70986104
0.02372558 -0.13860734 0.7088176
0.026184522 -0.13840389 0.70777726
0.028636254 -0.13820106 0.70673996
0.03108081 -0.1379988 0.70570564
0.033518221 -0.13779713 0.70467436
0.035948526 -0.13759607 0.70364618
0.038371742 -0.13739559 0.70262092
0.040787905 -0.13719569 0.70159864
0.043197051 -0.13699636 0.70057935
0.045599211 -0.13679762 0.69956303
0.047994405 -0.13659947 0.69854963
0.050382644 -0.13640179 0.69753879
0.052764032 -0.13620482 0.69653153
0.055138547 -0.13600843 0.69552714
0.057506226 -0.13581257 0.6945256
0.059867095 -0.1356173 0.69352698
0.062221181 -0.13542257 0.69253117
0.06456852 -0.13522841 0.69153827
0.066909142 -0.13503481 0.69054824
0.069243066 -0.13484176 0.68956101
0.072080843 -0.13560972 0.69348824
0.075146988 -0.13674287 0.69928306
0.07826481 -0.13789515 0.70517558
0.081435636 -0.13906701 0.71116829
0.084660813 -0.14025895 0.71726376
0.087941736 -0.14147149 0.72346449
0.091279902 -0.1427052 0.72977346
0.094676793 -0.1439606 0.73619342
0.098133974 -0.14523828 0.74272728
0.10165304 -0.14653881 0.74937797
0.10523567 -0.14786278 0.75614858
-0.0063576954 -0.13859776 0.72177356
