# .PCD v0.7 - Point Cloud Data file format
VERSION 0.7
FIELDS x y z
SIZE 4 4 4
TYPE F F F
COUNT 1 1 1
WIDTH 354
HEIGHT 1
VIEWPOINT 0 0 0 1 0 0 0
POINTS 354
DATA ascii
0.20372571 -0.37213898 1.5418987
0.20840321 -0.37079534 1.5363315
0.21304706 -0.36946136 1.5308044
0.2176576 -0.36813691 1.5253168
0.22223522 -0.36682197 1.5198686
0.22678027 -0.36551642 1.5144593
0.18609491 -0.36409873 1.5309347
0.18845345 -0.35832697 1.5066661
0.1927077 -0.35637727 1.498468
0.1972926 -0.35512665 1.4932096
0.20184542 -0.35388482 1.487988
0.20636651 -0.35265163 1.4828027
0.2108562 -0.35142699 1.4776535
0.21531487 -0.35021093 1.4725403
0.2197434 -0.34900424 1.4674665
0.22414157 -0.34780589 1.4624277
0.22912884 -0.34755498 1.4613727
0.15935494 -0.34744602 1.4828832
0.16400747 -0.34623799 1.4777274
0.16862775 -0.34503832 1.4726074
0.17321692 -0.34384853 1.4675293
0.17777501 -0.34266779 1.46249
0.18243255 -0.34173986 1.4585296
0.18757001 -0.34173715 1.458518
0.19270737 -0.34173441 1.4585063
0.19784465 -0.34173167 1.4584947
0.20298186 -0.34172896 1.4584831
0.20811899 -0.34172624 1.4584715
0.21325603 -0.3417235 1.4584599
0.21839297 -0.34172076 1.4584482
0.22352983 -0.34171802 1.4584364
0.22866663 -0.34171531 1.4584248
0.23380338 -0.34171262 1.4584134
0.15287001 -0.33942327 1.4707592
0.1564285 -0.33593661 1.4556512
0.16155601 -0.33593392 1.4556395
0.16668345 -0.33593124 1.4556279
0.17181079 -0.33592856 1.4556162
0.17693807 -0.33592591 1.4556048
0.18206528 -0.33592325 1.4555932
0.18719237 -0.33592054 1.4555815
0.19231939 -0.33591789 1.45557
0.19744635 -0.33591521 1.4555584
0.20257321 -0.33591256 1.4555469
0.20769998 -0.33590984 1.4555352
0.21282668 -0.33590719 1.4555236
0.21795331 -0.33590451 1.455512
0.22307983 -0.33590183 1.4555004
0.22820631 -0.33589917 1.4554889
0.23333269 -0.33589652 1.4554774
0.15322946 -0.33502713 1.4742174
0.15611418 -0.33014306 1.4527261
0.16123138 -0.33014044 1.4527146
0.16634853 -0.33013785 1.4527031
0.17146558 -0.33013523 1.4526916
0.17658255 -0.3301326 1.45268
0.18169945 -0.33012998 1.4526685
0.18681626 -0.33012736 1.452657
0.19193299 -0.33012474 1.4526454
0.19704963 -0.33012211 1.4526339
0.20216621 -0.33011952 1.4526224
0.20728268 -0.33011687 1.4526107
0.21239908 -0.33011422 1.4525992
0.21751541 -0.33011162 1.4525877
0.22263166 -0.33010903 1.4525763
0.22774784 -0.33010644 1.4525648
0.23286392 -0.33010378 1.4525533
0.15359062 -0.33061031 1.477692
0.15603167 -0.32485282 1.4519584
0.16090807 -0.32437027 1.4498016
0.16601495 -0.32436767 1.44979
0.17112175 -0.32436511 1.4497786
0.17622846 -0.32436255 1.4497671
0.18133509 -0.32435995 1.4497555
0.18644165 -0.32435736 1.449744
0.19154814 -0.32435483 1.4497327
0.1966545 -0.32435223 1.449721
0.2017608 -0.32434964 1.4497094
0.20686705 -0.32434711 1.4496981
0.21197321 -0.32434455 1.4496866
0.21707927 -0.32434195 1.4496751
0.22218527 -0.32433942 1.4496638
0.22729118 -0.32433686 1.4496523
0.23239702 -0.32433429 1.4496409
0.15395348 -0.32617262 1.4811831
0.15639396 -0.32047942 1.4553298
0.16058606 -0.31862313 1.4469001
0.1656827 -0.31862059 1.4468886
0.17077929 -0.31861806 1.4468771
0.1758758 -0.31861559 1.4468658
0.1809722 -0.31861302 1.4468542
0.18606853 -0.31861052 1.4468428
0.19116478 -0.31860796 1.4468312
0.19626097 -0.31860548 1.4468199
0.20135707 -0.31860295 1.4468085
0.20645308 -0.31860042 1.446797
0.21154903 -0.31859794 1.4467857
0.2166449 -0.31859544 1.4467744
0.22174068 -0.31859291 1.4467629
0.22683637 -0.3185904 1.4467515
0.231932 -0.3185879 1.4467402
0.23702754 -0.31858543 1.4467288
0.15431803 -0.32171386 1.4846905
0.15675797 -0.31608573 1.458717
0.16026531 -0.31289893 1.4440101
0.16535181 -0.31289649 1.4439988
0.1704382 -0.31289402 1.4439874
0.17552453 -0.31289154 1.443976
0.18061075 -0.31288904 1.4439645
0.18569691 -0.3128866 1.4439532
0.19078301 -0.31288415 1.4439418
0.19586901 -0.31288165 1.4439304
0.20095494 -0.3128792 1.4439191
0.20604078 -0.31287676 1.4439077
0.21112654 -0.31287426 1.4438963
0.21621224 -0.31287184 1.4438851
0.22129786 -0.3128694 1.4438738
0.22638339 -0.31286693 1.4438624
0.23146883 -0.31286445 1.443851
0.23655422 -0.31286204 1.4438398
0.15468462 -0.31723455 1.4882174
0.15712367 -0.31167153 1.4621201
0.15994586 -0.3071976 1.4411318
0.16502221 -0.30719519 1.4411205
0.17009848 -0.30719277 1.4411092
0.17517465 -0.30719033 1.4410977
0.18025076 -0.30718791 1.4410864
0.1853268 -0.3071855 1.4410751
0.19040276 -0.30718312 1.4410639
0.19547865 -0.30718073 1.4410527
0.20055442 -0.30717829 1.4410412
0.20563015 -0.3071759 1.44103
0.21072707 -0.30720451 1.4411643
0.21588296 -0.30731574 1.441686
0.2210426 -0.30742705 1.4422083
0.22620596 -0.30753845 1.4427308
0.23137306 -0.30764988 1.4432536
0.23654394 -0.30776146 1.4437771
0.15505308 -0.31273419 1.4917624
0.15749106 -0.30723667 1.4655389
0.15984382 -0.30192721 1.4402124
0.16469392 -0.30151656 1.4382536
0.16979671 -0.30157921 1.4385525
0.17492847 -0.30168822 1.4390725
0.18006393 -0.3017973 1.4395927
0.18520311 -0.30190644 1.4401133
0.190346 -0.30201566 1.4406344
0.19549263 -0.30212498 1.4411558
0.20064296 -0.30223435 1.4416775
0.20579706 -0.30234382 1.4421997
0.21095486 -0.30245337 1.4427222
0.21611641 -0.30256298 1.4432451
0.22128172 -0.30267271 1.4437685
0.22645076 -0.30278248 1.4442921
0.23162355 -0.30289233 1.4448161
0.2368001 -0.3030023 1.4453406
0.1554233 -0.30821231 1.4953243
0.15786017 -0.30278099 1.4689736
0.16021197 -0.29753649 1.4435295
0.16484627 -0.29672331 1.4395841
0.16997992 -0.29683059 1.4401047
0.1751173 -0.29693803 1.4406259
0.18025836 -0.29704547 1.4411472
0.18540317 -0.29715303 1.441669
0.19055168 -0.29726061 1.442191
0.19570395 -0.29736835 1.4427136
0.20085995 -0.29747614 1.4432366
0.20601967 -0.29758397 1.4437598
0.21118316 -0.29769191 1.4442835
0.21635038 -0.29779994 1.4448075
0.22152135 -0.29790801 1.4453319
0.22669609 -0.29801622 1.4458568
0.23187457 -0.29812443 1.4463819
0.23705682 -0.29823276 1.4469075
0.15579529 -0.3036688 1.4989032
0.1582309 -0.29830414 1.4724234
0.16058181 -0.29312554 1.4468619
0.16502428 -0.29196605 1.4411386
0.17016354 -0.29207176 1.4416604
0.17530651 -0.29217753 1.4421825
0.18045324 -0.29228342 1.4427052
0.18560366 -0.29238933 1.443228
0.19075783 -0.29249534 1.4437512
0.19591574 -0.29260144 1.4442749
0.20107739 -0.29270759 1.4447989
0.20624278 -0.29281384 1.4453233
0.21141194 -0.29292014 1.4458481
0.21658483 -0.29302654 1.4463732
0.22176148 -0.29313299 1.4468987
0.22694194 -0.29323959 1.4474249
0.23212615 -0.29334623 1.4479512
0.23731411 -0.29345292 1.4484779
0.15860339 -0.29380625 1.4758896
0.16095339 -0.28869417 1.4502099
0.16520268 -0.28719851 1.4426966
0.17034756 -0.28730258 1.4432194
0.17549616 -0.28740674 1.4437426
0.18064849 -0.28751099 1.4442662
0.18580459 -0.28761533 1.4447904
0.19096442 -0.28771973 1.4453148
0.19612797 -0.28782415 1.4458394
0.2012953 -0.2879287 1.4463646
0.20646636 -0.28803331 1.4468901
0.21164121 -0.28813803 1.4474161
0.21681981 -0.28824279 1.4479424
0.22200216 -0.28834763 1.448469
0.22718835 -0.28845263 1.4489964
0.23237826 -0.28855762 1.4495238
0.23757195 -0.2886627 1.4500517
0.15897763 -0.28928715 1.4793721
0.16132668 -0.28424221 1.4535731
0.16538143 -0.28242061 1.4442576
0.17053196 -0.2825231 1.4447818
0.17568621 -0.28262565 1.4453062
0.18084419 -0.28272825 1.4458308
0.18600594 -0.28283095 1.4463561
0.19117144 -0.28293374 1.4468817
0.19634067 -0.28303653 1.4474074
0.20151368 -0.28313947 1.4479338
0.20669045 -0.28324246 1.4484605
0.21187097 -0.28334552 1.4489875
0.21705529 -0.28344867 1.449515
0.22224337 -0.2835519 1.4500428
0.22743528 -0.28365523 1.4505713
0.23263092 -0.28375858 1.4510999
0.23783034 -0.28386202 1.4516288
0.15935363 -0.28474665 1.4828711
0.16170169 -0.2797696 1.4569521
0.16556059 -0.27763236 1.4458221
0.17071676 -0.27773324 1.4463474
0.17587665 -0.27783412 1.4468728
0.18104032 -0.27793512 1.4473988
0.18620773 -0.27803618 1.4479251
0.19137889 -0.27813733 1.4484518
0.19655384 -0.27823853 1.4489789
0.20173255 -0.27833983 1.4495064
0.20691502 -0.27844119 1.4500343
0.21210125 -0.27854261 1.4505624
0.2172913 -0.27864414 1.4510911
0.22248511 -0.27874571 1.4516201
0.22768272 -0.27884737 1.4521495
0.23288414 -0.27894914 1.4526794
0.23808932 -0.27905092 1.4532095
0.15973143 -0.28018463 1.4863867
0.16207844 -0.27527609 1.4603467
0.16574015 -0.27283379 1.4473902
0.17090195 -0.27293298 1.4479164
0.17606753 -0.27303228 1.4484432
0.18123686 -0.27313161 1.4489702
0.18640998 -0.27323106 1.4494978
0.19158684 -0.27333054 1.4500256
0.19676746 -0.27343011 1.4505538
0.20195189 -0.27352977 1.4510825
0.20714007 -0.27362949 1.4516114
0.21233204 -0.27372926 1.4521407
0.21752782 -0.27382913 1.4526706
0.22272737 -0.27392906 1.4532007
0.22793071 -0.27402905 1.4537312
0.23313789 -0.27412918 1.4542623
0.23834886 -0.27422932 1.4547936
0.16011132 -0.27560145 1.4899218
0.16245708 -0.27076179 1.4637582
0.16592009 -0.26802477 1.4489616
0.17108758 -0.26812232 1.449489
0.17625883 -0.26821995 1.4500169
0.18143386 -0.26831767 1.4505451
0.18661264 -0.26841545 1.4510736
0.19179522 -0.26851329 1.4516027
0.19698156 -0.26861122 1.4521321
0.20217168 -0.26870921 1.4526618
0.20736562 -0.26880729 1.453192
0.21264002 -0.26900244 1.454247
0.21795541 -0.26923904 1.4555261
0.22328015 -0.26947606 1.4568074
0.2286143 -0.26971349 1.458091
0.23395783 -0.26995134 1.4593768
0.23931074 -0.27018955 1.4606646
0.16049317 -0.27099666 1.4934751
0.16283749 -0.26622635 1.4671857
0.16610043 -0.26320529 1.4505365
0.17135161 -0.26342112 1.451726
0.17662151 -0.26365241 1.4530005
0.18190069 -0.2638841 1.4542774
0.18718915 -0.2641162 1.4555565
0.19248693 -0.26434872 1.4568379
0.19779404 -0.26458162 1.4581215
0.2031105 -0.26481497 1.4594074
0.20843637 -0.26504871 1.4606956
0.21377161 -0.26528284 1.4619859
0.2191163 -0.26551741 1.4632787
0.22447048 -0.2657524 1.4645737
0.22983404 -0.26598769 1.4658705
0.23520713 -0.26622343 1.4671696
0.24058971 -0.26645955 1.4684709
0.16087681 -0.26636979 1.497045
0.16321966 -0.26166961 1.4706292
0.16697249 -0.25944954 1.4581521
0.17226188 -0.25967836 1.459438
0.17756063 -0.25990757 1.4607263
0.18286872 -0.2601372 1.4620167
0.1881862 -0.26036721 1.4633094
0.1935131 -0.26059765 1.4646045
0.19884944 -0.26082847 1.4659019
0.20419526 -0.26105976 1.4672017
0.20955053 -0.26129141 1.4685036
0.21491529 -0.26152343 1.4698076
0.22028956 -0.26175582 1.4711137
0.22567338 -0.26198864 1.4724221
0.23106678 -0.26222184 1.4737328
0.23646979 -0.26245549 1.4750459
0.24188243 -0.26268953 1.4763613
0.1612623 -0.26172078 1.5006323
0.16360365 -0.25709146 1.474089
0.16786346 -0.25566897 1.4659328
0.17318191 -0.25589564 1.4672326
0.17850977 -0.25612274 1.4685346
0.18384713 -0.25635022 1.469839
0.18919395 -0.25657809 1.4711455
0.19455029 -0.2568064 1.4724545
0.1999162 -0.25703511 1.473766
0.20529157 -0.25726414 1.4750791
0.21067655 -0.25749356 1.4763945
0.21607113 -0.25772339 1.4777124
0.22147535 -0.25795364 1.4790325
0.22688921 -0.25818428 1.4803549
0.23231278 -0.25841534 1.4816798
0.23774607 -0.25864682 1.4830071
0.24318911 -0.25887874 1.4843367
0.16164966 -0.25704944 1.5042368
0.16398945 -0.25249171 1.4775652
0.16876398 -0.25184777 1.473797
0.17411178 -0.2520723 1.4751108
0.17946912 -0.25229716 1.4764267
0.18483603 -0.25252247 1.4777452
0.19021253 -0.25274816 1.4790659
0.19559857 -0.25297415 1.4803884
0.20099425 -0.25320056 1.4817133
0.2063996 -0.25342736 1.4830406
0.21181467 -0.2536546 1.4843704
0.21723942 -0.25388223 1.4857024
0.22267395 -0.25411028 1.4870369
0.22811823 -0.25433871 1.4883738
0.23357232 -0.25456759 1.4897131
0.23903623 -0.25479686 1.4910548
0.16203886 -0.25235561 1.5078585
0.16437709 -0.24787021 1.4810578
0.16967422 -0.24798539 1.481746
0.1750517 -0.24820764 1.4830739
0.1804388 -0.24843024 1.484404
0.18583554 -0.24865319 1.4857361
0.19124196 -0.24887654 1.4870707
0.19665812 -0.24910028 1.4884076
0.20208402 -0.24932444 1.4897469
0.2075197 -0.249549 1.4910887
