# .PCD v0.7 - Point Cloud Data file format
VERSION 0.7
FIELDS x y z
SIZE 4 4 4
TYPE F F F
COUNT 1 1 1
WIDTH 1111
HEIGHT 1
VIEWPOINT 0 0 0 1 0 0 0
POINTS 1111
DATA ascii
-0.35619736 -0.15776777 0.92324686
-0.3545607 -0.15849027 0.92747486
-0.37160784 -0.14895673 0.8900364
-0.36892021 -0.14913796 0.8911193
-0.36660391 -0.1494737 0.89312541
-0.36506698 -0.15013577 0.89708138
-0.36351633 -0.15080371 0.90107244
-0.36195189 -0.15147766 0.90509933
-0.36037332 -0.15215762 0.90916222
-0.35878059 -0.15284374 0.91326189
-0.35717338 -0.15353607 0.91739857
-0.35555154 -0.15423468 0.92157292
-0.35391492 -0.15493971 0.92578554
-0.35226324 -0.1556512 0.93003678
-0.37950888 -0.14524414 0.88651669
-0.37684146 -0.14542015 0.887591
-0.37416759 -0.14559659 0.88866794
-0.37148717 -0.14577346 0.88974744
-0.36880025 -0.14595075 0.89082956
-0.36610681 -0.14612848 0.89191437
-0.36442378 -0.14671607 0.89550084
-0.36287308 -0.14736767 0.89947796
-0.36130849 -0.14802507 0.90349042
-0.35972992 -0.14868836 0.90753901
-0.35813713 -0.14935765 0.91162401
-0.35652989 -0.15003294 0.91574579
-0.35490808 -0.1507144 0.91990513
-0.35327145 -0.15140206 0.92410237
-0.35161987 -0.15209603 0.92833817
-0.38734764 -0.14156078 0.88302463
-0.38470021 -0.14173165 0.88409048
-0.38204637 -0.14190294 0.88515896
-0.37938613 -0.14207464 0.88622999
-0.37671942 -0.14224675 0.88730353
-0.37404624 -0.14241928 0.88837975
-0.37136659 -0.14259224 0.8894586
-0.36868042 -0.14276561 0.89054006
-0.36598766 -0.14293939 0.89162409
-0.36378247 -0.14330824 0.89392489
-0.36223206 -0.14394374 0.89788902
-0.36066744 -0.14458475 0.90188742
-0.35908875 -0.14523146 0.90592146
-0.35749593 -0.14588399 0.90999186
-0.35588872 -0.14654242 0.91409898
-0.35426691 -0.1472068 0.91824323
-0.35263038 -0.14787726 0.92242539
-0.35097882 -0.14855383 0.9266457
-0.3493121 -0.14923663 0.93090487
-0.39249724 -0.13807215 0.88061756
-0.38986322 -0.13823836 0.88167763
-0.38722286 -0.13840497 0.8827402
-0.38457608 -0.13857195 0.88380527
-0.38192296 -0.13873936 0.88487303
-0.37926346 -0.13890719 0.88594341
-0.37659749 -0.13907541 0.88701636
-0.37392503 -0.13924405 0.88809186
-0.37124607 -0.13941309 0.88916999
-0.36856061 -0.13958253 0.89025068
-0.3658686 -0.13975239 0.891334
-0.36317 -0.13992265 0.89241993
-0.36159295 -0.14053175 0.89630479
-0.36002859 -0.14115658 0.90028995
-0.35844991 -0.14178686 0.90430975
-0.35685703 -0.14242277 0.90836555
-0.35524988 -0.14306442 0.91245806
-0.35362813 -0.14371188 0.91658753
-0.35199156 -0.14436521 0.92075437
-0.35034016 -0.14502452 0.92495948
-0.34867352 -0.14568987 0.92920303
-0.38973781 -0.1350884 0.88139397
-0.38709813 -0.13525116 0.88245589
-0.3844521 -0.1354143 0.88352031
-0.3817997 -0.13557786 0.88458741
-0.37914088 -0.1357418 0.88565707
-0.37647557 -0.13590612 0.88672924
-0.37380385 -0.13607086 0.88780409
-0.37112564 -0.136236 0.8888815
-0.36844093 -0.13640153 0.8899616
-0.3657496 -0.13656744 0.89104408
-0.36305174 -0.13673377 0.8921293
-0.36095583 -0.13713169 0.89472556
-0.35939175 -0.13774045 0.89869744
-0.3578133 -0.13835448 0.9027037
-0.35622045 -0.13897391 0.9067452
-0.35461324 -0.13959889 0.91082293
-0.35299158 -0.14022952 0.91493762
-0.35135514 -0.14086588 0.91908956
-0.34970376 -0.14150803 0.92327929
-0.3480373 -0.14215608 0.92750758
-0.34635553 -0.14281011 0.93177474
-0.3896125 -0.13194048 0.88111055
-0.38697353 -0.1320994 0.88217181
-0.38432813 -0.13225867 0.88323545
-0.38167644 -0.13241835 0.88430184
-0.37901831 -0.13257842 0.88537079
-0.3763538 -0.13273889 0.88644242
-0.3736828 -0.13289975 0.88751656
-0.3710053 -0.13306098 0.88859332
-0.36832127 -0.13322259 0.88967258
-0.36563072 -0.1333846 0.89075446
-0.36293358 -0.13354698 0.89183891
-0.36032099 -0.1337436 0.89315194
-0.35875681 -0.13433626 0.89710975
-0.35717875 -0.1349342 0.90110284
-0.35558611 -0.13553731 0.90513051
-0.35397896 -0.13614576 0.90919375
-0.3523573 -0.13675968 0.9132936
-0.35072094 -0.13737917 0.91743058
-0.34906971 -0.1380043 0.92160529
-0.34740338 -0.13863514 0.92581815
-0.34572172 -0.1392718 0.93006968
-0.39629942 -0.13104722 0.89623308
-0.38684899 -0.12894966 0.88188785
-0.38420433 -0.12910509 0.8829509
-0.38155332 -0.12926091 0.88401657
-0.37889591 -0.12941712 0.88508487
-0.37623206 -0.1295737 0.88615566
-0.37356177 -0.12973066 0.88722914
-0.37088501 -0.129888 0.88830519
-0.3682017 -0.13004571 0.88938373
-0.36551186 -0.1302038 0.8904649
-0.3628155 -0.13036227 0.89154875
-0.36011249 -0.13052112 0.89263511
-0.35812417 -0.13094407 0.89552772
-0.3565461 -0.13152589 0.89950675
-0.35495389 -0.13211288 0.90352118
-0.35334691 -0.13270494 0.9075703
-0.35172534 -0.1333023 0.9116556
-0.35008904 -0.13390502 0.91577768
-0.34843794 -0.13451324 0.91993731
-0.34677175 -0.13512702 0.92413491
-0.3450903 -0.13574642 0.92837095
-0.40582532 -0.13096355 0.91777593
-0.3867245 -0.12580195 0.88160414
-0.38408056 -0.12595354 0.88266647
-0.38143024 -0.1261055 0.88373142
-0.37877354 -0.12625785 0.884799
-0.3761104 -0.12641056 0.88586915
-0.37344086 -0.12656364 0.88694197
-0.37076482 -0.12671709 0.8880173
-0.36808223 -0.12687089 0.88909513
-0.3653931 -0.12702507 0.89017558
-0.36269742 -0.12717962 0.89125866
-0.35999519 -0.12733455 0.89234436
-0.35749379 -0.12756386 0.89395136
-0.35591567 -0.12812965 0.89791632
-0.35432348 -0.12870046 0.9019165
-0.35271707 -0.12927639 0.90595257
-0.35109559 -0.12985727 0.91002333
-0.34945947 -0.13044339 0.91413081
-0.34780842 -0.13103481 0.9182753
-0.34614241 -0.13163161 0.9224577
-0.34446117 -0.1322339 0.92667848
-0.34276441 -0.13284171 0.93093783
-0.41582039 -0.13087574 0.94037986
-0.39134881 -0.12416288 0.89214599
-0.38395688 -0.12280402 0.88238227
-0.38130727 -0.12295214 0.88344651
-0.37865129 -0.12310062 0.88451344
-0.37598884 -0.12324946 0.8855828
-0.37332001 -0.12339866 0.88665491
-0.37064472 -0.12354824 0.88772964
-0.36796278 -0.12369812 0.88880664
-0.3652744 -0.12384841 0.88988644
-0.36257949 -0.12399905 0.89096886
-0.359878 -0.12415006 0.8920539
-0.35716993 -0.12430143 0.89314151
-0.35528746 -0.12474538 0.89633143
-0.35369533 -0.12530014 0.90031755
-0.35208893 -0.12585984 0.90433919
-0.35046816 -0.1264246 0.90839708
-0.3488321 -0.12699418 0.91248971
-0.34718126 -0.12756893 0.91661948
-0.3455154 -0.1281489 0.92078674
-0.34383428 -0.12873417 0.92499202
-0.34213778 -0.12932481 0.92923599
-0.4007118 -0.1239149 0.91349053
-0.38383332 -0.11965653 0.88209826
-0.38118434 -0.1198008 0.88316172
-0.37852907 -0.11994543 0.88422793
-0.37586737 -0.1200904 0.8852967
-0.37319928 -0.12023576 0.88636822
-0.37052464 -0.12038142 0.88744205
-0.36784351 -0.12052745 0.88851851
-0.36515579 -0.12067381 0.88959748
-0.36246163 -0.12082054 0.89067918
-0.35976085 -0.12096763 0.89176351
-0.35705355 -0.12111508 0.89285052
-0.35466146 -0.12137304 0.89475214
-0.35306937 -0.12191185 0.8987242
-0.35146305 -0.12245546 0.90273166
-0.34984237 -0.12300394 0.906775
-0.34820703 -0.12355733 0.91085458
-0.34655631 -0.12411551 0.91496944
-0.34489059 -0.12467876 0.91912168
-0.34320974 -0.12524715 0.92331183
-0.34151345 -0.12582074 0.9275403
-0.33980158 -0.12639962 0.93180776
-0.41053373 -0.12365474 0.93588126
-0.38644317 -0.11734104 0.88809603
-0.38106155 -0.1166515 0.88287723
-0.37840697 -0.11679228 0.88394272
-0.37574595 -0.11693339 0.88501072
-0.37307858 -0.11707487 0.88608152
-0.37040466 -0.11721666 0.8871547
-0.36772424 -0.1173588 0.88823044
-0.36503732 -0.11750128 0.88930881
-0.36234379 -0.11764409 0.89038968
-0.35964379 -0.11778726 0.89147329
-0.3569372 -0.11793079 0.89255959
-0.354224 -0.11807467 0.89364851
-0.3524456 -0.11853552 0.89713645
-0.35083941 -0.11906315 0.90112978
-0.34921882 -0.11959548 0.90515882
-0.34758362 -0.1201326 0.90922391
-0.34593362 -0.12067451 0.91332543
-0.34426805 -0.12122115 0.91746265
-0.34258738 -0.12177277 0.92163759
-0.34089139 -0.12232944 0.92585081
-0.33917975 -0.12289122 0.93010259
-0.42085198 -0.12338231 0.95940346
-0.3956458 -0.11693176 0.90924489
-0.3809388 -0.11350421 0.8825928
-0.3782849 -0.11364114 0.88365757
-0.37562463 -0.11377842 0.88472497
-0.372958 -0.11391604 0.88579512
-0.37028474 -0.11405395 0.88686746
-0.36760506 -0.11419221 0.88794255
-0.36491886 -0.1143308 0.8890202
-0.3622261 -0.11446972 0.89010048
-0.35952681 -0.11460898 0.89118332
-0.35682094 -0.11474859 0.8922689
-0.35410851 -0.11488853 0.8933571
-0.35182405 -0.1151711 0.8955543
-0.35021794 -0.11568285 0.89953357
-0.34859744 -0.11619915 0.90354824
-0.34696245 -0.11672009 0.90759897
-0.34531274 -0.11724572 0.91168624
-0.34364781 -0.11777601 0.91580969
-0.34196734 -0.11831097 0.9199695
-0.34027156 -0.11885083 0.92416739
-0.33856028 -0.11939565 0.92840379
-0.33683318 -0.11994547 0.93267912
-0.40529814 -0.11650271 0.93142724
-0.38158184 -0.11058086 0.88408267
-0.37816298 -0.11049207 0.88337278
-0.37550348 -0.11062551 0.88443959
-0.37283742 -0.11075924 0.88550878
-0.37016496 -0.1108933 0.88658059
-0.36748594 -0.11102767 0.88765484
-0.36480045 -0.11116237 0.88873178
-0.36210847 -0.11129741 0.8898114
-0.3594099 -0.11143277 0.89089358
-0.35670477 -0.11156845 0.89197838
-0.35399306 -0.11170448 0.89306587
-0.35127473 -0.11184084 0.89415604
-0.34959868 -0.1123145 0.89794296
-0.34797829 -0.11281488 0.90194345
-0.34634346 -0.11331975 0.90597981
-0.3446939 -0.11382914 0.91005236
-0.34302944 -0.11434314 0.91416174
-0.34134957 -0.1148617 0.91830754
-0.339654 -0.11538485 0.92249006
-0.33794302 -0.11591282 0.92671114
-0.33621627 -0.11644563 0.93097091
-0.41544181 -0.11605459 0.95473868
-0.3906267 -0.11001323 0.9050386
-0.37804109 -0.107345 0.88308799
-0.37538224 -0.10747459 0.88415408
-0.37271696 -0.10760448 0.88522267
-0.37004519 -0.10773467 0.88629371
-0.36736691 -0.10786518 0.88736731
-0.36468217 -0.107996 0.88844359
-0.3619909 -0.10812715 0.88952249
-0.3592931 -0.10825862 0.89060402
-0.35658866 -0.10839039 0.89168805
-0.35387769 -0.10852249 0.89277482
-0.35116011 -0.10865492 0.89386427
-0.34898159 -0.10895805 0.89635801
-0.34736139 -0.10944263 0.90034443
-0.34572664 -0.10993151 0.90436631
-0.34407726 -0.11042479 0.90842438
-0.34241304 -0.11092254 0.9125191
-0.34073374 -0.11142477 0.91665083
-0.3390387 -0.11193144 0.92081892
-0.33732796 -0.11244266 0.92502457
-0.33560157 -0.11295857 0.92926884
-0.33385926 -0.11347925 0.93355227
-0.40011847 -0.10942015 0.92702997
-0.37791932 -0.10419998 0.88280356
-0.37526113 -0.10432571 0.88386881
-0.37259653 -0.10445175 0.88493663
-0.36992547 -0.10457809 0.88600701
-0.367248 -0.10470475 0.88708007
-0.36456394 -0.10483169 0.88815558
-0.36187342 -0.10495895 0.88923377
-0.35917634 -0.10508652 0.89031458
-0.35647267 -0.1052144 0.89139801
-0.35376242 -0.10534259 0.89248401
-0.35104558 -0.1054711 0.89357275
-0.34836671 -0.10561343 0.89477867
-0.34674659 -0.1060823 0.89875096
-0.34511209 -0.10655534 0.90275872
-0.34346285 -0.10703261 0.90680224
-0.34179884 -0.10751419 0.91088223
-0.34011978 -0.10800012 0.91499919
-0.33842549 -0.10849046 0.91915345
-0.33671522 -0.10898512 0.92334425
-0.33498913 -0.10948425 0.92757303
-0.33324718 -0.10998799 0.93184078
-0.38044876 -0.10093538 0.88145745
-0.37779769 -0.10105699 0.88251942
-0.37514013 -0.10117887 0.88358378
-0.37247622 -0.10130107 0.88465089
-0.3698059 -0.10142356 0.88572061
-0.36712909 -0.10154635 0.8867929
-0.36444581 -0.10166943 0.88786775
-0.36175597 -0.1017928 0.88894522
-0.35905963 -0.10191649 0.89002532
-0.35635671 -0.10204047 0.89110804
-0.35364723 -0.10216476 0.89219344
-0.35093114 -0.10228934 0.8932814
-0.3482084 -0.10241424 0.89437205
-0.34613401 -0.10273384 0.89716309
-0.34449965 -0.10319114 0.90115666
-0.34285066 -0.10365253 0.90518594
-0.34118685 -0.10411806 0.90925133
-0.33950803 -0.10458779 0.91335344
-0.337814 -0.10506178 0.91749275
-0.33610457 -0.10554009 0.92166978
-0.33437893 -0.10602259 0.92588341
-0.33263737 -0.10650951 0.93013561
-0.38823941 -0.097446546 0.87800533
-0.38560808 -0.09756349 0.87905902
-0.38297042 -0.097680718 0.88011527
-0.38032642 -0.097798228 0.88117403
-0.37767601 -0.097916007 0.88223523
-0.37501922 -0.098034069 0.88329899
-0.37235603 -0.098152421 0.88436538
-0.36968637 -0.098271064 0.88543433
-0.3670103 -0.098389991 0.8865059
-0.36432773 -0.098509215 0.8875801
-0.36163867 -0.098628722 0.88865691
-0.35894305 -0.09874852 0.88973629
-0.35624087 -0.098868608 0.8908183
-0.35353211 -0.098988995 0.89190298
-0.35081676 -0.099109672 0.89299029
-0.34809476 -0.099230632 0.89408016
-0.34552357 -0.09939719 0.89558089
-0.34388939 -0.099838853 0.89956033
-0.3422406 -0.10028446 0.9035753
-0.34057707 -0.10073406 0.90762627
-0.33889851 -0.10118771 0.91171366
-0.33720478 -0.10164545 0.91583806
-0.33549568 -0.10210738 0.92000002
-0.33377096 -0.10257351 0.92419994
-0.33202976 -0.10304372 0.92843658
-0.33027259 -0.10351827 0.93271232
-0.39596933 -0.093984932 0.87458026
-0.39335749 -0.094097286 0.87562573
-0.39073941 -0.094209895 0.87667364
-0.38811505 -0.094322786 0.87772411
-0.38548443 -0.094435945 0.87877715
-0.38284746 -0.094549373 0.87983268
-0.38020414 -0.094663069 0.88089067
-0.37755445 -0.094777048 0.88195127
-0.37489834 -0.09489128 0.88301432
-0.37223586 -0.09500581 0.88408005
-0.36956695 -0.095120609 0.88514829
-0.36689159 -0.09523569 0.8862192
-0.36420971 -0.09535104 0.88729262
-0.36152136 -0.095466681 0.88836873
-0.35882652 -0.095582604 0.88944745
-0.35612503 -0.095698796 0.89052868
-0.35341707 -0.095815293 0.89161271
-0.35070243 -0.095932059 0.8926993
-0.34798121 -0.096049115 0.89378858
-0.34525332 -0.096166447 0.89488041
-0.3432813 -0.09649843 0.89796966
-0.34163272 -0.096928358 0.90197039
-0.33996946 -0.097362146 0.90600699
-0.3382912 -0.097799823 0.91007984
-0.33659777 -0.098241456 0.91418946
-0.33488896 -0.098687083 0.91833627
-0.3331646 -0.099136785 0.922521
-0.33142439 -0.099590577 0.92674381
-0.3296676 -0.10004838 0.93100387
-0.40363911 -0.090550222 0.87118173
-0.4010466 -0.090658039 0.87221909
-0.39844787 -0.090766117 0.87325889
-0.39584297 -0.090874456 0.8743012
-0.39323184 -0.090983056 0.875346
-0.39061445 -0.091091909 0.87639332
-0.38799077 -0.091201022 0.87744308
-0.3853609 -0.091310412 0.87849551
-0.38272458 -0.09142004 0.87955028
-0.38008195 -0.091529943 0.8806076
-0.377433 -0.091640115 0.88166755
-0.37477759 -0.091750532 0.88272989
-0.37211579 -0.091861218 0.88379484
-0.36944762 -0.091972195 0.88486248
-0.36677295 -0.092083424 0.88593262
-0.36409184 -0.09219493 0.88700545
-0.36140418 -0.092306696 0.88808072
-0.35871005 -0.092418745 0.88915879
-0.3560093 -0.092531055 0.8902393
-0.35330203 -0.092643648 0.89132255
-0.3505882 -0.092756517 0.89240849
-0.34786776 -0.092869669 0.89349711
-0.34514058 -0.092983074 0.89458817
-0.34267536 -0.093169801 0.89638466
-0.34102702 -0.093584158 0.90037119
-0.33936399 -0.094002232 0.90439343
-0.337686 -0.094424047 0.90845174
-0.3359929 -0.094849676 0.91254669
-0.33428445 -0.095279142 0.91667861
-0.33256045 -0.095712513 0.92084807
-0.33082071 -0.096149869 0.9250558
-0.32906488 -0.096591182 0.92930168
-0.32729235 -0.097036429 0.93358541
-0.41124955 -0.087142095 0.86780953
-0.40867612 -0.087245464 0.86883891
-0.40609655 -0.087349072 0.86987066
-0.40351084 -0.087452918 0.87090486
-0.40091899 -0.087557018 0.87194157
-0.39832094 -0.087661371 0.87298071
-0.39571673 -0.087765969 0.87402236
-0.39310628 -0.087870814 0.87506652
-0.39048958 -0.087975912 0.87611312
-0.38786665 -0.08808127 0.87716234
-0.38523737 -0.088186868 0.87821394
-0.38260174 -0.08829271 0.87926799
-0.37995985 -0.088398822 0.88032472
-0.37731156 -0.088505186 0.8813839
-0.37465692 -0.088611804 0.88244569
-0.37199584 -0.088718675 0.88350993
-0.36932835 -0.088825807 0.88457686
-0.3666544 -0.088933192 0.88564628
-0.363974 -0.089040853 0.88671839
-0.36128709 -0.08914876 0.887793
-0.3585937 -0.089256942 0.88887036
-0.35589367 -0.089365371 0.88995016
-0.35318711 -0.089474075 0.89103264
-0.35047403 -0.089583047 0.89211786
-0.3477543 -0.089692287 0.8932057
-0.34502792 -0.089801788 0.89429623
-0.34229487 -0.08991155 0.89538932
-0.34042346 -0.090251796 0.89877766
-0.33876067 -0.090654269 0.90278566
-0.33708295 -0.091060326 0.90682942
-0.33539018 -0.091470055 0.91090971
-0.33368212 -0.091883481 0.91502684
-0.33195853 -0.092300661 0.91918141
-0.33021918 -0.092721641 0.9233737
-0.32846394 -0.093146488 0.92760462
-0.32669231 -0.093575187 0.9318738
-0.41624671 -0.083859228 0.86548477
-0.41368607 -0.083958432 0.8665086
-0.41111937 -0.08405786 0.86753482
-0.4085466 -0.084157534 0.86856353
-0.40596768 -0.084257446 0.86959463
-0.40338263 -0.084357589 0.87062818
-0.40079147 -0.084457971 0.87166423
-0.3981941 -0.084558591 0.87270272
-0.39559057 -0.084659457 0.87374371
-0.39298084 -0.084760576 0.87478727
-0.39036483 -0.084861919 0.87583321
-0.38774255 -0.0849635 0.87688166
-0.38511392 -0.08506532 0.87793249
-0.38247904 -0.085167401 0.878986
-0.37983781 -0.085269712 0.88004196
-0.37719026 -0.085372284 0.88110054
-0.37453631 -0.085475087 0.88216156
-0.37187594 -0.085578151 0.8832252
-0.36920917 -0.085681446 0.88429135
-0.36653596 -0.085785009 0.88536018
-0.36385626 -0.085888818 0.88643152
-0.36117008 -0.08599288 0.88750553
-0.35847738 -0.086097188 0.88858205
-0.35577816 -0.086201757 0.88966125
-0.35307232 -0.086306572 0.89074302
-0.35035995 -0.086411647 0.89182746
-0.34764096 -0.086516976 0.89291459
-0.34491533 -0.086622566 0.89400434
-0.34218302 -0.086728416 0.89509678
-0.33982199 -0.086931214 0.89718974
-0.3381595 -0.087318182 0.90118355
-0.33648214 -0.087708615 0.90521306
-0.33478963 -0.088102534 0.90927863
-0.33308193 -0.08850003 0.91338104
-0.33135876 -0.088901125 0.91752064
-0.32961985 -0.08930587 0.92169785
-0.32786506 -0.089714326 0.92591339
-0.32609409 -0.090126514 0.93016744
-0.32430658 -0.090542443 0.93446016
-0.42375907 -0.080499038 0.86215645
-0.42121717 -0.080593899 0.86317241
-0.41866922 -0.080688983 0.86419076
-0.41611531 -0.080784291 0.86521155
-0.41355529 -0.080879815 0.86623466
-0.41098925 -0.080975577 0.86726028
-0.40841714 -0.081071571 0.86828834
-0.40583891 -0.08116778 0.86931878
-0.40325454 -0.08126422 0.87035167
-0.40066403 -0.081360891 0.87138706
-0.39806738 -0.081457801 0.87242496
-0.39546451 -0.081554942 0.8734653
-0.39285544 -0.081652306 0.87450814
-0.3902401 -0.081749909 0.87555343
-0.38761848 -0.081847727 0.8766011
-0.38499057 -0.081945784 0.87765133
-0.38235641 -0.082044087 0.87870413
-0.37971589 -0.082142621 0.87975943
-0.377069 -0.082241386 0.88081723
-0.37441576 -0.082340397 0.88187766
-0.37175608 -0.082439639 0.88294053
-0.36909005 -0.082539126 0.88400608
-0.36641753 -0.082638852 0.88507414
-0.3637386 -0.082738824 0.88614488
-0.36105314 -0.082839034 0.88721812
-0.35836118 -0.082939491 0.88829404
-0.35566264 -0.083040178 0.88937241
-0.35295761 -0.083141126 0.89045358
-0.35024592 -0.083242305 0.89153725
-0.34752771 -0.083343752 0.89262372
-0.3448028 -0.08344543 0.8937127
-0.34207129 -0.083547369 0.89480448
-0.33933309 -0.083649546 0.89589888
-0.33756045 -0.083993912 0.89958709
-0.33588338 -0.08436881 0.9036023
-0.33419129 -0.084747069 0.90765351
-0.33248392 -0.085128732 0.91174114
-0.33076113 -0.085513853 0.91586584
-0.32902268 -0.085902475 0.92002803
-0.32726836 -0.086294636 0.92422819
-0.32549796 -0.086690404 0.92846692
-0.32371119 -0.087089807 0.93274456
-0.43314213 -0.077509642 0.86269408
-0.42943695 -0.077389695 0.86135906
-0.42616111 -0.077345967 0.86087233
-0.42362583 -0.077436976 0.86188531
-0.42108452 -0.077528201 0.86290061
-0.41853723 -0.077619635 0.8639183
-0.41598395 -0.077711292 0.86493844
-0.41342461 -0.077803157 0.86596096
-0.41085926 -0.077895246 0.86698592
-0.40828779 -0.077987552 0.86801332
-0.40571022 -0.07808008 0.86904311
-0.40312657 -0.078172833 0.87007546
-0.40053669 -0.078265794 0.87111014
-0.3979407 -0.078358978 0.87214732
-0.39533851 -0.078452393 0.87318701
-0.39273012 -0.078546017 0.87422913
-0.39011544 -0.078639872 0.8752737
-0.3874945 -0.078733943 0.87632072
-0.38486734 -0.078828245 0.87737036
-0.3822338 -0.078922771 0.87842238
-0.379594 -0.079017527 0.87947708
-0.37694785 -0.079112507 0.88053423
-0.37429532 -0.079207726 0.881594
-0.37163636 -0.079303153 0.88265616
-0.36897102 -0.079398826 0.88372099
-0.36629924 -0.07949473 0.88478839
-0.36362103 -0.079590864 0.88585842
-0.36093628 -0.07968723 0.88693094
-0.35824504 -0.079783835 0.88800615
-0.35554728 -0.079880662 0.88908392
-0.35284296 -0.079977736 0.89016432
-0.35013202 -0.08007504 0.89124733
-0.34741452 -0.080172583 0.89233303
-0.34469038 -0.080270365 0.89342135
-0.34195963 -0.080368385 0.89451236
-0.33922213 -0.080466643 0.89560598
-0.33696353 -0.080681406 0.89799631
-0.3352868 -0.081040882 0.90199733
-0.33359504 -0.081403576 0.90603411
-0.33188805 -0.081769526 0.9101072
-0.33016565 -0.082138769 0.914217
-0.32842764 -0.08251138 0.91836417
-0.3273623 -0.083062075 0.92449349
-0.32686988 -0.083770677 0.93238032
-0.32637414 -0.084492795 0.94041765
-0.43726596 -0.07465516 0.86483854
-0.43354523 -0.074539356 0.86349696
-0.42983598 -0.074423894 0.86215943
-0.42613819 -0.074308798 0.86082608
-0.42349261 -0.074376836 0.86161429
-0.42095199 -0.074464433 0.862629
-0.41840532 -0.074552223 0.86364603
-0.4158527 -0.074640229 0.86466551
-0.41329405 -0.074728444 0.86568743
-0.41072932 -0.07481686 0.86671174
-0.40815848 -0.074905492 0.86773843
-0.40558162 -0.074994341 0.86876768
-0.4029986 -0.07508339 0.86979932
-0.40040943 -0.075172648 0.87083334
-0.3978141 -0.075262129 0.87186986
-0.39521259 -0.075351819 0.87290889
-0.39260483 -0.075441711 0.87395024
-0.38999084 -0.075531825 0.87499416
-0.38737062 -0.075622156 0.87604058
-0.38474411 -0.075712696 0.87708944
-0.38211131 -0.075803459 0.87814093
-0.3794722 -0.075894438 0.87919486
-0.37682676 -0.07598564 0.88025141
-0.37417489 -0.076077051 0.88131034
-0.3715167 -0.076168694 0.88237196
-0.36885205 -0.076260552 0.88343602
-0.36618102 -0.076352641 0.88450283
-0.36350349 -0.076444939 0.88557208
-0.36081949 -0.076537468 0.88664401
-0.35812896 -0.07663022 0.88771844
-0.35543194 -0.076723196 0.88879555
-0.35272834 -0.076816395 0.88987517
-0.3500182 -0.076909833 0.89095759
-0.34730142 -0.077003486 0.89204252
-0.34457806 -0.077097371 0.89313018
-0.34184799 -0.07719148 0.89422035
-0.3391113 -0.077285826 0.89531332
-0.33648884 -0.077408232 0.89673126
-0.33608684 -0.078048602 0.90414965
-0.33567813 -0.078699663 0.91169178
-0.33526254 -0.07936167 0.91936076
-0.33483988 -0.080034897 0.92715979
-0.33441305 -0.080720387 0.93510079
-0.33398223 -0.081418559 0.94318867
-0.33354396 -0.08212892 0.9514178
-0.33309793 -0.082851768 0.95979166
-0.44515851 -0.071898453 0.86834627
-0.44141036 -0.071786463 0.86699373
-0.43767393 -0.071674824 0.86564541
-0.43394905 -0.071563527 0.86430126
-0.43023577 -0.071452588 0.86296135
-0.42653391 -0.071341969 0.86162543
-0.42335951 -0.071318626 0.8613435
-0.42081952 -0.071402594 0.86235756
-0.41827354 -0.071486749 0.86337399
-0.41572154 -0.071571112 0.86439282
-0.41316351 -0.071655661 0.86541402
-0.4105995 -0.071740434 0.86643779
-0.40802935 -0.071825393 0.86746389
-0.40545309 -0.071910545 0.86849236
-0.40287074 -0.071995914 0.86952335
-0.40028223 -0.072081476 0.87055671
-0.39768758 -0.072167248 0.87159258
-0.39508671 -0.072253212 0.87263083
-0.39247966 -0.072339393 0.87367165
-0.38986635 -0.072425768 0.87471485
-0.38724682 -0.072512351 0.87576061
-0.38462099 -0.072599143 0.87680882
-0.38198891 -0.072686151 0.87785959
-0.37935048 -0.07277336 0.87891287
-0.37670571 -0.072860777 0.87996864
-0.37405461 -0.072948411 0.88102704
-0.37139708 -0.073036246 0.88208789
-0.3687332 -0.073124304 0.88315135
-0.36606282 -0.073212564 0.88421732
-0.36338603 -0.073301047 0.88528597
-0.36070275 -0.073389739 0.88635713
-0.358013 -0.073478654 0.88743097
-0.35531667 -0.07356777 0.88850731
-0.35261384 -0.07365711 0.88958633
-0.34990442 -0.073746666 0.89066792
-0.34718841 -0.073836453 0.89175224
-0.34446573 -0.073926441 0.89283907
-0.34376678 -0.074456401 0.8992396
-0.34342402 -0.075074092 0.90669972
-0.34307551 -0.075702108 0.91428459
-0.34272113 -0.076340728 0.92199737
-0.34235755 -0.076989494 0.92983282
-0.34200153 -0.077652521 0.93784046
-0.34163535 -0.078326151 0.94597614
-0.3412627 -0.079011559 0.95425409
-0.34088349 -0.079709075 0.96267825
-0.34049585 -0.080418617 0.97124773
-0.45311531 -0.06911929 0.87188256
-0.44933951 -0.069011189 0.87051898
-0.44557551 -0.068903431 0.8691597
-0.44182321 -0.068796001 0.86780459
-0.43808261 -0.068688907 0.86645371
-0.43435365 -0.068582155 0.86510712
-0.43063623 -0.068475723 0.86376458
-0.4269304 -0.068369634 0.86242634
-0.42323598 -0.068263866 0.86109215
-0.42068711 -0.068342671 0.86208624
-0.41814181 -0.068423204 0.86310208
-0.41559049 -0.068503924 0.8641203
-0.41303313 -0.068584837 0.86514091
-0.41046971 -0.068665937 0.86616391
-0.40790021 -0.06874723 0.86718935
-0.40532464 -0.068828717 0.86821723
-0.40274298 -0.06891039 0.86924756
-0.40015513 -0.068992265 0.87028027
-0.39756113 -0.069074333 0.87131548
-0.39496091 -0.06915658 0.87235302
-0.39235455 -0.069239035 0.87339312
-0.38974196 -0.069321692 0.87443572
-0.38712308 -0.069404535 0.87548077
-0.384498 -0.069487587 0.87652838
-0.38186657 -0.069570832 0.87757844
-0.37922886 -0.069654278 0.87863106
-0.3765848 -0.069737926 0.87968618
-0.37393442 -0.069821775 0.88074392
-0.37127757 -0.069905818 0.88180405
-0.36861441 -0.069990076 0.88286686
-0.36594474 -0.070074528 0.88393211
-0.3632687 -0.070159189 0.88500011
-0.36058614 -0.070244052 0.88607055
-0.3578971 -0.070329122 0.88714367
-0.35520154 -0.070414402 0.88821936
-0.35249943 -0.070499882 0.88929766
-0.35136235 -0.070902713 0.89437902
-0.35108557 -0.071488008 0.90176207
-0.35080272 -0.07208275 0.90926421
-0.35051516 -0.072687477 0.91689229
-0.35022265 -0.073302418 0.9246493
-0.34993041 -0.07392896 0.93255258
-0.34963465 -0.074566633 0.94059634
-0.34933379 -0.075215407 0.94878012
-0.34902757 -0.075875558 0.95710737
-0.3487125 -0.076546647 0.96557254
-0.34839061 -0.077229448 0.97418553
-0.46113724 -0.066317394 0.87544781
-0.45733339 -0.06621325 0.87407303
-0.45354149 -0.066109441 0.8727026
-0.44976148 -0.066005953 0.87133646
-0.44599324 -0.065902784 0.86997455
-0.44223684 -0.065799944 0.868617
-0.43849209 -0.065697424 0.86726362
-0.43475899 -0.065595217 0.8659144
-0.43103749 -0.06549333 0.86456943
-0.42732754 -0.065391757 0.86322862
-0.42362908 -0.065290503 0.86189193
-0.42055485 -0.065284684 0.86181515
-0.41801021 -0.065361597 0.8628304
-0.41545951 -0.06543868 0.86384797
-0.4129028 -0.065515943 0.86486793
-0.41034001 -0.065593384 0.86589026
-0.4077712 -0.065671019 0.86691505
-0.40519628 -0.065748833 0.86794227
-0.40261525 -0.065826826 0.86897188
-0.40002811 -0.065905012 0.870004
-0.39743474 -0.06598337 0.87103844
-0.3948352 -0.066061921 0.87207532
-0.39222953 -0.066140667 0.87311482
-0.38961759 -0.066219591 0.87415671
-0.38699946 -0.066298708 0.87520117
-0.38437501 -0.066378012 0.876248
-0.3817443 -0.06645751 0.87729746
-0.37910727 -0.066537194 0.87834936
-0.37646395 -0.066617079 0.87940389
-0.37381423 -0.066697143 0.88046086
-0.37115815 -0.066777408 0.88152039
-0.36849564 -0.066857859 0.88258243
-0.36582676 -0.066938512 0.88364708
-0.3631514 -0.067019358 0.88471431
-0.36046958 -0.067100398 0.88578415
-0.35887671 -0.067387328 0.88957191
-0.3586621 -0.067940399 0.89687288
-0.35844553 -0.068502918 0.90429866
-0.35822329 -0.069074444 0.9118433
-0.35799727 -0.069655582 0.91951478
-0.35776508 -0.070246115 0.92731035
-0.35754353 -0.070849635 0.9352774
-0.3573128 -0.071462557 0.94336849
-0.35707799 -0.07208617 0.95160067
-0.35683414 -0.072719753 0.95996457
-0.35658568 -0.073364519 0.96847606
-0.35633329 -0.07402093 0.9771412
-0.46157265 -0.06329257 0.87627441
-0.45776463 -0.063193098 0.87489724
-0.45396847 -0.063093923 0.87352419
-0.45018423 -0.062995061 0.87215549
-0.44641179 -0.062896505 0.87079102
-0.44265118 -0.062798262 0.86943084
-0.43890235 -0.062700331 0.86807501
-0.43516508 -0.062602699 0.86672324
-0.43143949 -0.062505372 0.86537576
-0.42772549 -0.062408347 0.86403251
-0.42402297 -0.062311616 0.86269331
-0.42042267 -0.062228628 0.86154431
-0.41787863 -0.062301904 0.86255884
-0.41532859 -0.062375356 0.86357576
-0.41277251 -0.062448975 0.864595
-0.4102104 -0.062522776 0.86561674
-0.40764222 -0.062596746 0.86664087
-0.40506798 -0.062670894 0.86766744
-0.40248764 -0.062745221 0.86869645
-0.39990109 -0.062819712 0.86972779
-0.39730844 -0.062894389 0.87076163
-0.39470959 -0.062969238 0.87179792
-0.39210463 -0.063044272 0.87283677
-0.38949335 -0.063119471 0.87387794
-0.3868759 -0.063194863 0.87492174
-0.38425216 -0.063270435 0.87596798
-0.38162211 -0.063346177 0.8770166
-0.37898579 -0.063422114 0.87806791
-0.37634313 -0.063498221 0.87912166
-0.37369415 -0.063574523 0.88017803
-0.37103876 -0.063651003 0.88123685
-0.368377 -0.063727669 0.88229829
-0.36631075 -0.063909531 0.88481617
-0.36615798 -0.064431235 0.892039
-0.36600196 -0.064961389 0.8993789
-0.36584699 -0.06550099 0.90684962
-0.36568603 -0.066049024 0.914437
-0.36552235 -0.066606291 0.92215234
-0.36536345 -0.067174442 0.93001831
-0.36520126 -0.067752272 0.9380182
-0.36503628 -0.068340123 0.94615692
-0.36486483 -0.068937592 0.95442879
-0.36468527 -0.069544628 0.96283311
-0.36450639 -0.070163205 0.9713971
-0.36432427 -0.070792869 0.98011476
-0.46200863 -0.060261995 0.87710214
-0.4581964 -0.060167205 0.87572247
-0.45439619 -0.060072716 0.87434721
-0.45060775 -0.059978507 0.87297601
-0.44683114 -0.059884585 0.87160897
-0.44306636 -0.059790961 0.87024629
-0.43931329 -0.059697628 0.86888784
-0.435572 -0.059604589 0.86753368
-0.43184227 -0.059511833 0.86618364
-0.42812413 -0.059419364 0.86483777
-0.42441759 -0.059327189 0.86349618
-0.42072245 -0.059235293 0.86215866
-0.41774714 -0.059244137 0.8622874
-0.41519773 -0.05931396 0.86330366
-0.41264233 -0.059383951 0.86432236
-0.41008088 -0.059454106 0.86534345
-0.40751338 -0.059524424 0.86636692
-0.40493977 -0.059594911 0.86739284
-0.40236005 -0.059665557 0.86842108
-0.39977422 -0.059736378 0.86945188
-0.39718223 -0.05980736 0.87048501
-0.39458409 -0.059878521 0.8715207
-0.39197972 -0.059949841 0.87255877
-0.38936919 -0.060021337 0.87359941
-0.3867524 -0.060093001 0.87464243
-0.38412938 -0.060164843 0.87568808
-0.38150001 -0.060236845 0.87673604
-0.37886441 -0.06030903 0.8777867
-0.37622243 -0.060381379 0.87883973
-0.37366575 -0.060468733 0.88011116
-0.37357351 -0.060959693 0.88725698
-0.37347972 -0.061458692 0.89451981
-0.37338766 -0.06196646 0.90191031
-0.37329033 -0.062482074 0.90941495
-0.37319136 -0.063006334 0.91704541
-0.37309593 -0.063540354 0.92481804
-0.3730008 -0.064083837 0.93272835
-0.372904 -0.064636692 0.94077504
-0.37280008 -0.06519822 0.94894797
-0.37269101 -0.065769002 0.95725554
-0.37258396 -0.066350572 0.96572018
-0.37247497 -0.066942506 0.97433573
-0.37236407 -0.067545116 0.98310655
-0.45862892 -0.057135589 0.87654912
-0.45482445 -0.057045776 0.87517124
-0.45103183 -0.056956239 0.8737976
-0.4472512 -0.056866989 0.87242836
-0.44348228 -0.056778006 0.87106323
-0.4397251 -0.056689296 0.86970228
-0.43597957 -0.056600858 0.8683455
-0.43224579 -0.056512699 0.86699301
-0.42852357 -0.056424811 0.86564463
-0.42481288 -0.056337193 0.86430043
-0.42111376 -0.056249853 0.86296052
-0.41761574 -0.0561883 0.8620162
-0.41506699 -0.056254499 0.8630318
-0.41251224 -0.056320857 0.86404985
-0.40995145 -0.056387372 0.86507028
-0.40738457 -0.05645404 0.8660931
-0.40481165 -0.056520872 0.86711836
-0.40223259 -0.056587856 0.868146
-0.39964738 -0.056654993 0.86917603
-0.39705607 -0.056722298 0.87020856
-0.39445859 -0.05678976 0.87124354
-0.39185494 -0.056857385 0.87228101
-0.38924506 -0.056925166 0.87332088
-0.38662899 -0.056993119 0.87436336
-0.38400662 -0.057061225 0.87540823
-0.381378 -0.057129499 0.87645566
-0.38090992 -0.057525173 0.88252592
-0.38087639 -0.057993524 0.88971114
-0.38084227 -0.05846956 0.89701432
-0.38081154 -0.05895409 0.90444773
-0.38077593 -0.059446029 0.91199487
-0.3807317 -0.059944991 0.91964972
-0.38071287 -0.060456548 0.9274978
-0.3806828 -0.060975164 0.93545419
-0.38064224 -0.061501149 0.94352359
-0.38060457 -0.062036868 0.95174235
-0.38056767 -0.06258224 0.96010923
-0.38053015 -0.063137285 0.96862453
-0.38049197 -0.063702278 0.9772923
-0.45906228 -0.054098248 0.87737733
-0.45525348 -0.054013126 0.87599683
-0.4514567 -0.053928275 0.87462068
-0.4476718 -0.053843688 0.87324882
-0.44389874 -0.053759363 0.87188125
-0.44013751 -0.053675305 0.87051797
-0.43638799 -0.053591508 0.86915892
-0.43265003 -0.053507954 0.86780381
-0.4289237 -0.05342466 0.86645293
-0.42520899 -0.053341631 0.86510634
-0.42150575 -0.053258851 0.86376381
-0.41781408 -0.053176336 0.86242557
-0.41493633 -0.053196963 0.86276013
-0.41238222 -0.053259697 0.86377752
-0.40982205 -0.053322569 0.86479723
-0.40725586 -0.0533856 0.86581945
-0.40468356 -0.05344877 0.866844
-0.40210521 -0.0535121 0.86787105
-0.39952067 -0.053575568 0.86890042
-0.39693007 -0.053639196 0.86993235
-0.39433321 -0.053702969 0.87096661
-0.39173025 -0.053766899 0.87200344
-0.38912106 -0.053830978 0.8730427
-0.38816851 -0.054127082 0.87784499
-0.38819396 -0.054565415 0.88495398
-0.38821977 -0.0550109 0.89217895
-0.38825032 -0.055464331 0.89953279
-0.38827735 -0.055924725 0.90699953
-0.38830405 -0.056392703 0.91458935
-0.38833889 -0.056869712 0.92232555
-0.38837406 -0.057354819 0.93019313
-0.38839597 -0.057846207 0.93816257
-0.38842744 -0.058347471 0.94629216
-0.38845915 -0.058857445 0.95456308
-0.38849142 -0.059376419 0.96297991
-0.38853168 -0.059905764 0.97156495
-0.38856527 -0.060443487 0.98028582
-0.45568335 -0.050974749 0.87682396
-0.45188233 -0.050894596 0.87544525
-0.44809318 -0.050814688 0.87407076
-0.44431591 -0.050735034 0.87270063
-0.44055054 -0.050655633 0.87133485
-0.43679684 -0.050576478 0.86997324
-0.43305492 -0.050497573 0.86861598
-0.4293246 -0.050418902 0.86726278
-0.42560574 -0.050340466 0.86591357
-0.42189851 -0.050262276 0.86456865
-0.41820273 -0.050184328 0.86322784
-0.41480571 -0.050141349 0.86248857
-0.41225225 -0.050200459 0.8635053
-0.40969276 -0.050259706 0.86452442
-0.4071272 -0.05031909 0.86554593
-0.40455559 -0.050378621 0.86656988
-0.40197787 -0.050438285 0.86759621
-0.39939407 -0.050498098 0.86862504
-0.39680406 -0.050558046 0.86965621
-0.39535058 -0.050764859 0.87321365
-0.39543369 -0.051173773 0.88024741
-0.39551821 -0.051589333 0.8873955
-0.39560407 -0.052011687 0.89466053
-0.39568841 -0.052440632 0.90203887
-0.39578539 -0.052878208 0.90956569
-0.39586931 -0.053321172 0.91718513
-0.39597929 -0.053774964 0.92499089
-0.39606327 -0.054232728 0.93286496
-0.39616123 -0.054700084 0.94090402
-0.39625999 -0.055175442 0.94908071
-0.39636245 -0.055659406 0.95740545
-0.39647415 -0.056152992 0.96589565
-0.3965784 -0.056654055 0.97451454
-0.45611405 -0.047930628 0.8776527
-0.45230877 -0.047855195 0.87627143
-0.44851536 -0.047779988 0.87489432
-0.44473392 -0.047705021 0.87352163
-0.44096425 -0.047630288 0.87215316
-0.43720645 -0.047555789 0.87078905
-0.43346041 -0.047481529 0.86942929
-0.42972597 -0.047407489 0.86807358
-0.42600322 -0.047333691 0.86672223
-0.42229196 -0.047260109 0.86537492
-0.41859215 -0.047186755 0.86403167
-0.41490379 -0.047113616 0.86269248
-0.4121224 -0.047143154 0.86323333
-0.40956354 -0.047198772 0.86425173
-0.40699866 -0.047254525 0.86527264
-0.40442768 -0.047310408 0.86629587
-0.40245721 -0.047437921 0.86863077
-0.40259683 -0.047818013 0.87559062
-0.40273872 -0.048204251 0.88266295
-0.4028829 -0.048596773 0.88985038
-0.40302953 -0.048995744 0.89715594
-0.40317923 -0.04940141 0.90458399
-0.40332466 -0.049813006 0.9121207
-0.4034999 -0.050234929 0.91984648
-0.40364444 -0.050659828 0.92762679
-0.40380743 -0.051094003 0.93557692
-0.4039717 -0.051535487 0.94366086
-0.40415418 -0.051986635 0.95192182
-0.40432444 -0.052443758 0.9602921
-0.40449771 -0.052908983 0.9688108
-0.45273599 -0.044810046 0.8770991
-0.44893837 -0.044739563 0.87571943
-0.4451527 -0.0446693 0.87434417
-0.44137886 -0.044599257 0.87297314
-0.43761685 -0.044529434 0.87160647
-0.43386662 -0.044459827 0.87024403
-0.43012807 -0.044390444 0.86888587
-0.42640123 -0.044321276 0.86753201
-0.42268589 -0.044252314 0.86618221
-0.41898218 -0.044183575 0.86483669
-0.41528991 -0.044115048 0.86349535
-0.41199264 -0.044087775 0.86296153
-0.4094896 -0.044145718 0.86409575
-0.40968457 -0.044497572 0.87098283
-0.40988266 -0.044855084 0.87798065
-0.41008395 -0.045218382 0.88509172
-0.41028854 -0.045587618 0.89231902
-0.41049647 -0.045962926 0.89966524
-0.41071516 -0.04634529 0.90714949
-0.41092506 -0.046732657 0.91473168
-0.41114092 -0.047126822 0.92244703
-0.4113676 -0.047528528 0.93030983
-0.41160783 -0.047938261 0.93832988
-0.41184762 -0.048354581 0.94647878
-0.41208419 -0.048777312 0.95475322
-0.41232488 -0.049207497 0.96317351
-0.45316404 -0.041759145 0.87792838
-0.44936213 -0.041693393 0.87654608
-0.44557226 -0.041627858 0.87516826
-0.44179419 -0.04156252 0.87379462
-0.43802801 -0.041497391 0.87242538
-0.4342736 -0.041432463 0.87106037
-0.43053097 -0.041367743 0.86969972
-0.42679992 -0.041303217 0.86834317
-0.42308056 -0.0412389 0.86699098
-0.41937277 -0.041174781 0.86564296
-0.41669774 -0.041211866 0.86642259
-0.41695231 -0.041541375 0.87335008
-0.41720408 -0.041875504 0.88037467
-0.41747531 -0.042216606 0.88754588
-0.41773781 -0.042561967 0.89480662
-0.42784441 -0.043923188 0.92342442
-0.42379764 -0.043841135 0.92169935
-0.41855419 -0.043633062 0.9173249
-0.41885352 -0.044004068 0.92512476
-0.4191559 -0.044381212 0.93305373
-0.41945362 -0.044763822 0.94109762
-0.41975489 -0.045152918 0.94927776
-0.4200615 -0.045548838 0.95760143
-0.42037341 -0.04595175 0.96607214
-0.44978672 -0.038641471 0.87737429
-0.44599259 -0.038580675 0.87599385
-0.44221032 -0.03852006 0.87461764
-0.43843997 -0.038459644 0.87324584
-0.43468133 -0.038399413 0.87187821
-0.43093455 -0.038339373 0.87051499
-0.42719942 -0.038279518 0.86915594
-0.42394182 -0.038261898 0.86875588
-0.4242585 -0.038568955 0.87572777
-0.42458034 -0.038880985 0.88281256
-0.42490518 -0.039197892 0.89000815
-0.43752426 -0.040662106 0.92325383
-0.43463543 -0.0406962 0.92402798
-0.43151069 -0.040708553 0.92430848
-0.42811495 -0.040695336 0.92400837
-0.42661524 -0.040863529 0.92782724
-0.42697358 -0.041213665 0.93577731
-0.42733818 -0.041569863 0.94386488
-0.4277091 -0.041932262 0.95209342
-0.42808652 -0.042301036 0.96046662
-0.45021209 -0.035583775 0.87820405
-0.44641373 -0.035527736 0.87682104
-0.44262725 -0.035471871 0.87544227
-0.43885267 -0.035416178 0.87406784
-0.43508989 -0.03536066 0.87269765
-0.43133894 -0.035305321 0.87133187
-0.43160114 -0.03558002 0.87811142
-0.43198347 -0.035868663 0.88523507
-0.43235359 -0.036160484 0.89243716
-0.44230649 -0.037263919 0.91966981
-0.43996596 -0.037340283 0.92155457
-0.43738636 -0.037397347 0.92296284
-0.43459335 -0.03743688 0.92393851
-0.43440062 -0.037702695 0.93049878
-0.4348354 -0.038027432 0.93851328
-0.43526924 -0.038357057 0.94664842
-0.43571055 -0.038692441 0.95492566
-0.44683564 -0.032469027 0.87764972
-0.4430449 -0.032417919 0.87626833
-0.43926615 -0.03236698 0.8748914
-0.43898395 -0.03257478 0.8805083
-0.43942115 -0.032839302 0.88765848
-0.43988234 -0.033109423 0.89495993
-0.445252 -0.033755567 0.9124254
-0.44382685 -0.033892233 0.91611952
-0.44190991 -0.033993069 0.91884518
-0.44174996 -0.034231547 0.9252913
-0.4422425 -0.034524508 0.93321013
-0.44273847 -0.034822125 0.94125491
-0.44324714 -0.035125244 0.94944829
-0.44725832 -0.029404527 0.87847996
-0.44640616 -0.029553022 0.88291633
-0.44690821 -0.029793881 0.89011216
-0.44742084 -0.030038854 0.8974309
-0.44794193 -0.03028789 0.90487099
-0.4484854 -0.030542018 0.91246325
-0.44901624 -0.030798947 0.92013919
-0.44956544 -0.031060884 0.92796475
-0.45012406 -0.031327315 0.93592453
-0.45069233 -0.031598356 0.94402206
-0.45501849 -0.026952315 0.89995009
-0.45560426 -0.027176395 0.9074322
-0.45619828 -0.027404137 0.91503662
-0.45680901 -0.027636131 0.92278302
-0.45742625 -0.027871849 0.93065375
