# .PCD v0.7 - Point Cloud Data file format
VERSION 0.7
FIELDS x y z
SIZE 4 4 4
TYPE F F F
COUNT 1 1 1
WIDTH 1009
HEIGHT 1
VIEWPOINT 0 0 0 1 0 0 0
POINTS 1009
DATA ascii
0.2000448 2.2154883e-07 0.97917527
0.23066735 2.1963066e-07 0.97917628
0.26128992 2.1675341e-07 0.97917825
0.29191247 2.1483523e-07 0.9791792
0.32253504 2.1291706e-07 0.97918022
0.35315764 2.100398e-07 0.97918218
0.38378021 2.0812163e-07 0.97918314
0.41440284 2.0140803e-07 0.97918707
0.44502553 1.7167636e-07 0.97920376
0.47564834 1.4386288e-07 0.9792195
0.5062713 1.1413122e-07 0.97923619
0.53689432 8.6317726e-08 0.97925186
0.56751746 5.7545151e-08 0.97926861
0.59814078 2.781349e-08 0.9792853
0.62876415 0 0.97930098
0.11096924 0.03047584 0.89575732
0.14129786 0.03047584 0.89575833
0.17162651 0.030475844 0.89575928
0.20195514 0.030475847 0.89576125
0.2322838 0.030475847 0.89576226
0.26261243 0.030475851 0.89576423
0.29294109 0.030475853 0.89576519
0.32326978 0.030475855 0.8957662
0.35359848 0.030475855 0.89576715
0.38392717 0.030475859 0.89576817
0.41425589 0.030475862 0.89577013
0.44458458 0.030475862 0.89577109
0.4749133 0.030475866 0.8957721
0.50524205 0.030475866 0.89577305
0.5355708 0.03047587 0.89577502
0.56589949 0.030475872 0.89577597
0.5962283 0.030475874 0.89577794
0.62655717 0.030475887 0.89578485
0.65688646 0.030475916 0.89580053
0.68721581 0.030475942 0.89581728
0.71754527 0.03047597 0.895832
0.023587374 0.060372006 0.81392449
0.053627599 0.060372014 0.81392646
0.083667919 0.060372021 0.81392747
0.11370821 0.06037204 0.81392944
0.14374851 0.06037204 0.81393039
0.17378885 0.060372047 0.81393141
0.20382918 0.060372055 0.81393236
0.23386949 0.060372062 0.81393433
0.26390985 0.060372069 0.81393534
0.2939502 0.060372069 0.81393629
0.32399058 0.060372077 0.81393731
0.35403094 0.060372084 0.81393826
0.38407132 0.060372092 0.81394023
0.41411173 0.060372099 0.81394124
0.44415212 0.060372107 0.81394315
0.47419253 0.060372114 0.81394416
0.50423294 0.060372114 0.81394511
0.53427339 0.060372122 0.81394613
0.56431377 0.060372129 0.81394708
0.59435427 0.060372137 0.81394905
0.62439466 0.060372144 0.81395006
0.65443516 0.060372144 0.81395102
0.6844756 0.060372151 0.81395203
0.7145161 0.060372159 0.813954
0.74455655 0.06037217 0.81395495
0.77459717 0.060372178 0.81395692
0.80463761 0.060372185 0.81395793
0.027128441 0.089704119 0.73352259
0.056885455 0.089704134 0.73352361
0.086642466 0.089704141 0.73352456
0.11639944 0.089704156 0.73352653
0.14615647 0.089704171 0.73352754
0.17591351 0.089704178 0.73352849
0.20567054 0.089704193 0.73353046
0.23542759 0.089704208 0.73353148
0.26518467 0.089704216 0.73353243
0.29494172 0.089704223 0.73353344
0.32469878 0.089704238 0.73353541
0.35445589 0.089704245 0.73353636
0.384213 0.08970426 0.73353833
0.41397008 0.089704275 0.73353928
0.4437272 0.089704283 0.7335403
0.47348431 0.08970429 0.73354125
0.50324142 0.089704305 0.73354322
0.53299862 0.089704312 0.73354423
0.56275576 0.089704312 0.73354423
0.59251279 0.089704305 0.73354322
0.62226987 0.089704297 0.73354226
0.65202695 0.089704283 0.7335403
0.68178403 0.089704275 0.73353928
0.71154112 0.08970426 0.73353833
0.7412982 0.089704253 0.73353732
0.77105516 0.089704245 0.73353636
0.80081218 0.08970423 0.7335344
0.0011245396 0.11848813 0.65461743
0.030603556 0.11848814 0.65461844
0.06008251 0.11848817 0.65462041
0.089561522 0.11848818 0.65462136
0.11904051 0.1184882 0.65462333
0.14851953 0.11848821 0.65462428
0.17799856 0.11848822 0.6546253
0.2074776 0.11848824 0.65462625
0.23695661 0.11848826 0.65462822
0.26643568 0.11848827 0.65462923
0.2959148 0.11848826 0.65462822
0.32539386 0.11848824 0.65462625
0.35487294 0.11848822 0.6546253
0.384352 0.11848821 0.65462428
0.41383106 0.1184882 0.65462333
0.44331011 0.11848819 0.65462238
0.47278917 0.11848818 0.65462136
0.5022682 0.11848816 0.6546194
0.53174722 0.11848814 0.65461844
0.56122625 0.11848813 0.65461743
0.59070516 0.1184881 0.65461546
0.62018418 0.11848809 0.65461451
0.64966321 0.11848808 0.65461349
0.67914218 0.11848807 0.65461254
0.7086212 0.11848805 0.65461153
0.73810011 0.11848804 0.65461057
0.76757902 0.11848802 0.65460861
0.79705799 0.11848801 0.65460759
0.0046460573 0.14679332 0.5805825
0.033866443 0.14679253 0.58053243
0.063086458 0.14679176 0.58048332
0.092306137 0.14679097 0.58043325
0.12152544 0.14679018 0.58038414
0.15074442 0.14678939 0.58033407
0.17996305 0.1467886 0.58028394
0.20918131 0.14678781 0.58023483
0.23839921 0.14678703 0.58018577
0.26761681 0.14678623 0.58013564
0.29683399 0.14678545 0.58008558
0.32605088 0.14678466 0.58003646
0.35526741 0.14678387 0.57998639
0.38448355 0.14678308 0.57993728
0.41369939 0.14678231 0.57988721
0.44291487 0.14678152 0.5798381
0.47212997 0.14678073 0.57978797
0.50134474 0.14677992 0.5797379
0.53055918 0.14677916 0.57968879
0.55977321 0.14677836 0.57963872
0.58898699 0.14677759 0.57958961
0.61820036 0.1467768 0.57953954
0.64741331 0.14677601 0.57948941
0.67662603 0.14677522 0.57944036
0.70583832 0.14677443 0.57939124
0.73505026 0.14677365 0.57934111
0.7642619 0.14677285 0.57929105
0.79347318 0.14677207 0.57924193
0.82268417 0.14677127 0.57919186
0.0041352101 0.17621964 0.59132278
0.033393376 0.17621869 0.59127373
0.062651232 0.17621773 0.59122461
0.091908753 0.17621675 0.59117448
0.1211659 0.17621581 0.59112543
0.15042274 0.17621484 0.5910753
0.17967919 0.17621389 0.59102619
0.20893531 0.17621292 0.59097612
0.23819107 0.17621195 0.59092605
0.26744649 0.17621097 0.59087592
0.29670158 0.17621002 0.59082687
0.32595626 0.17620905 0.59077674
0.35521063 0.17620809 0.59072667
0.38446465 0.17620714 0.59067756
0.41371831 0.17620617 0.59062749
0.44297162 0.17620519 0.59057736
0.47222459 0.17620423 0.59052831
0.50147718 0.17620327 0.59047818
0.53072947 0.1762023 0.59042811
0.55998135 0.17620133 0.59037805
0.58923286 0.17620039 0.59032893
0.61848414 0.17619941 0.5902788
0.647735 0.17619845 0.59022975
0.67698544 0.17619748 0.59017962
0.70623559 0.17619652 0.59012955
0.73548543 0.17619555 0.59007949
0.76473486 0.17619459 0.59003037
0.793984 0.17619361 0.58998024
0.82323271 0.17619266 0.58993018
0.0036229813 0.20572229 0.60209155
0.032919109 0.20572117 0.6020425
0.062214933 0.20572002 0.60199237
0.091510355 0.2057189 0.60194325
0.12080544 0.20571776 0.6018942
0.15010019 0.20571664 0.60184509
0.17939462 0.20571549 0.60179496
0.20868868 0.20571436 0.60174489
0.23798239 0.20571321 0.60169482
0.26727578 0.20571205 0.60164469
0.29656878 0.2057109 0.60159463
0.32586139 0.20570979 0.60154551
0.35515374 0.20570864 0.60149544
0.3844457 0.20570748 0.60144538
0.41373727 0.20570634 0.60139525
0.44302851 0.2057052 0.60134518
0.47231942 0.20570405 0.60129511
0.50160998 0.20570293 0.601246
0.53090012 0.20570177 0.60119587
0.56018996 0.20570062 0.6011458
0.58947951 0.20569949 0.60109574
0.61876863 0.20569834 0.60104561
0.6480574 0.20569718 0.60099554
0.67734587 0.20569606 0.60094643
0.70663399 0.20569491 0.60089636
0.73592162 0.20569377 0.60084629
0.76520908 0.20569263 0.60079616
0.79449606 0.20569147 0.6007461
0.003109433 0.23530155 0.61288786
0.03244362 0.23530026 0.61283875
0.061777469 0.23529893 0.61278868
0.091110945 0.23529764 0.61273956
0.12044409 0.23529634 0.61269045
0.14977689 0.235295 0.61264038
0.17910932 0.23529372 0.61259127
0.20844139 0.2352924 0.61254215
0.23777317 0.23529109 0.61249208
0.2671046 0.23528977 0.61244196
0.29643559 0.23528844 0.61239189
0.32576632 0.23528711 0.61234182
0.35509667 0.2352858 0.61229169
0.38442665 0.23528448 0.61224163
0.41375631 0.23528314 0.61219156
0.44308558 0.23528183 0.61214143
0.47241452 0.2352805 0.61209136
0.50174314 0.23527919 0.61204129
0.53107136 0.23527785 0.61199117
0.56039923 0.23527656 0.61194205
0.58972675 0.23527524 0.61189198
0.6190539 0.2352739 0.61184192
0.6483807 0.23527259 0.61179179
0.6777072 0.23527123 0.61174077
0.70703334 0.23526992 0.61169064
0.73635906 0.23526861 0.61164153
0.76568449 0.2352673 0.61159146
0.79500955 0.23526597 0.61154139
0.002594565 0.26495776 0.6237126
0.031966869 0.2649563 0.62366349
0.061338864 0.26495478 0.62361342
0.090710528 0.26495329 0.62356329
0.12008178 0.26495183 0.62351424
0.14945269 0.26495034 0.62346512
0.17882329 0.26494884 0.62341499
0.20819354 0.26494732 0.62336493
0.23756342 0.26494586 0.62331581
0.26693296 0.26494434 0.62326574
0.29630214 0.26494291 0.62321663
0.32567096 0.26494139 0.62316656
0.35503948 0.2649399 0.62311643
0.38440761 0.26493838 0.62306637
0.41377535 0.26493689 0.6230163
0.44314277 0.26493537 0.62296522
0.47250986 0.26493388 0.6229161
0.50187659 0.26493239 0.62286603
0.53124297 0.26493087 0.62281495
0.56060898 0.26492938 0.62276489
0.58997464 0.26492786 0.62271476
0.61933988 0.26492637 0.62266469
0.64870489 0.26492485 0.62261462
0.67806947 0.26492336 0.62256449
0.70743376 0.26492184 0.62251443
0.73679763 0.26492035 0.62246436
0.76616114 0.26491886 0.62241328
0.7955243 0.26491737 0.62236416
0.0020783774 0.29469115 0.63456482
0.031488921 0.29468951 0.63451576
0.060899161 0.29468784 0.63446563
0.090309031 0.29468614 0.63441557
0.11971853 0.29468453 0.63436645
0.14912772 0.29468283 0.63431638
0.17853652 0.29468119 0.63426727
0.207945 0.29467952 0.6342172
0.23735313 0.29467782 0.63416708
0.26676092 0.29467615 0.63411701
0.29616833 0.29467452 0.63406789
0.32557541 0.29467285 0.63401783
0.35498211 0.29467118 0.6339677
0.38438848 0.29466951 0.63391864
0.41379449 0.29466784 0.63386852
0.44320014 0.29466614 0.63381743
0.47260547 0.29466444 0.63376737
0.50201041 0.29466277 0.6337173
0.53141505 0.2946611 0.63366717
0.56081927 0.29465944 0.6336171
0.59022307 0.29465774 0.63356602
0.6196267 0.29465604 0.63351595
0.64902991 0.29465437 0.63346589
0.6784327 0.2946527 0.63341576
0.7078352 0.294651 0.63336569
0.73723727 0.2946493 0.63331461
0.76663905 0.29464763 0.63326454
0.79604042 0.29464594 0.63321447
0.001560778 0.32450211 0.64544654
0.031009685 0.32450023 0.64539647
0.060458288 0.32449839 0.6453464
0.089906454 0.3244966 0.64529729
0.11935432 0.32449472 0.64524716
0.14880185 0.32449287 0.64519709
0.17824902 0.32449102 0.64514703
0.20769584 0.32448915 0.6450969
0.23714229 0.32448733 0.64504683
0.26658842 0.32448548 0.64499676
0.29603419 0.3244836 0.64494663
0.32547954 0.32448179 0.64489758
0.35492462 0.32447997 0.64484745
0.38436928 0.32447809 0.64479738
0.41381365 0.32447624 0.64474732
0.44325766 0.32447442 0.6446982
0.47270128 0.32447255 0.64464808
0.50214458 0.3244707 0.64459705
0.53158748 0.32446882 0.64454693
0.56103003 0.32446697 0.64449686
0.59047228 0.32446513 0.64444679
0.61991417 0.32446322 0.64439571
0.64935571 0.32446137 0.64434564
0.67879683 0.32445949 0.64429456
0.70823759 0.32445765 0.64424443
0.73767805 0.32445577 0.64419436
0.76711816 0.32445392 0.6441443
0.7965579 0.32445201 0.64409322
0.0010418588 0.35439086 0.65635574
0.030529222 0.35438883 0.65630567
0.060016248 0.35438681 0.6562556
0.089502908 0.35438478 0.65620548
0.11898922 0.35438275 0.65615541
0.14847516 0.35438073 0.65610534
0.17796077 0.35437867 0.65605521
0.20744602 0.35437664 0.65600514
0.23693089 0.35437468 0.65595603
0.26641545 0.35437259 0.65590495
0.29589963 0.35437056 0.65585488
0.32538348 0.35436854 0.65580481
0.35486695 0.35436654 0.6557557
0.38435009 0.35436451 0.65570563
0.41383287 0.35436249 0.6556555
0.4433153 0.35436046 0.65560544
0.47279736 0.35435843 0.65555537
0.5022791 0.35435638 0.65550524
0.53176045 0.35435435 0.65545517
0.56124145 0.35435233 0.6554051
0.59072214 0.35435027 0.65535402
0.62020242 0.35434824 0.65530396
0.64968234 0.35434619 0.65525383
0.67916191 0.35434413 0.65520275
0.70864111 0.35434207 0.65515172
0.73812002 0.35434002 0.6551016
0.76759857 0.35433796 0.65505058
0.7970767 0.35433593 0.65500045
0.00052161992 0.38435772 0.66729343
0.03004753 0.38435552 0.66724336
0.059573073 0.38435334 0.66719329
0.089098275 0.38435113 0.66714317
0.11862312 0.38434893 0.6670931
0.1481476 0.38434669 0.66704303
0.17767173 0.38434449 0.6669929
0.20719552 0.38434228 0.66694283
0.23671898 0.38434005 0.66689175
0.26624206 0.38433787 0.66684264
0.29576477 0.3843357 0.66679257
0.32528716 0.38433343 0.66674149
0.35480917 0.3843312 0.66669142
0.38433084 0.38432902 0.66664135
0.41385216 0.38432682 0.66659123
0.44337308 0.38432461 0.66654116
0.47289371 0.3843224 0.66649109
0.50241393 0.3843202 0.66644096
0.5319339 0.38431799 0.6663909
0.5614534 0.38431576 0.66634083
0.59097254 0.38431355 0.6662907
0.62049139 0.38431138 0.66624063
0.65000987 0.38430911 0.66618955
0.679528 0.38430688 0.66613847
0.70904577 0.38430467 0.6660884
0.73856312 0.38430244 0.66603833
0.76808023 0.3843002 0.66598725
0.79759693 0.38429797 0.66593617
0 0.41440305 0.67825961
0.02956455 0.41440064 0.67820954
0.059128731 0.41439828 0.67815948
0.088692576 0.4143959 0.67810935
0.11825605 0.41439351 0.67805928
0.14781921 0.41439107 0.6780082
0.17738198 0.41438872 0.67795813
0.20694439 0.41438633 0.677908
0.23650646 0.41438392 0.67785794
0.26606819 0.4143815 0.67780685
0.29562953 0.41437918 0.6777578
0.32519057 0.41437674 0.67770672
0.35475123 0.41437435 0.67765659
0.3843115 0.414372 0.67760652
0.41387144 0.41436958 0.67755646
0.44343102 0.41436717 0.67750537
0.47299027 0.41436478 0.67745531
0.50254917 0.4143624 0.67740518
0.53210771 0.41436002 0.67735511
0.56166583 0.41435763 0.67730504
0.59122366 0.41435519 0.67725396
0.62078112 0.41435283 0.67720389
0.65033829 0.41435045 0.67715377
0.67989498 0.41434804 0.6771037
0.70945144 0.41434568 0.67705363
0.73900741 0.41434327 0.67700255
0.76856309 0.41434082 0.67695147
0.79811841 0.41433844 0.6769014
0.029080281 0.44452456 0.68920517
0.058683224 0.44452196 0.68915409
0.088285804 0.4445194 0.68910402
0.11788804 0.44451684 0.68905395
0.14748992 0.44451421 0.68900287
0.17709145 0.44451168 0.68895274
0.20669262 0.44450906 0.68890172
0.23629342 0.44450653 0.68885159
0.26589391 0.44450393 0.68880153
0.29549399 0.44450134 0.68875045
0.32509372 0.44449878 0.68870038
0.35469308 0.44449621 0.68865031
0.38429213 0.44449365 0.68860018
0.41389081 0.44449106 0.6885491
0.44348916 0.4444885 0.68849903
0.47308713 0.44448593 0.68844897
0.50268471 0.44448331 0.68839788
0.53228199 0.44448078 0.68834782
0.56187892 0.44447821 0.68829769
0.59147543 0.44447562 0.68824667
0.62107158 0.44447303 0.68819654
0.65066743 0.44447044 0.68814546
0.68026292 0.44446787 0.68809539
0.70985806 0.44446531 0.68804532
0.73945284 0.44446275 0.6879952
0.76904726 0.44446021 0.68794513
0.79864132 0.44445759 0.68789405
0.0014546494 0.47185758 0.6476779
0.030909665 0.47185704 0.64766806
0.060363635 0.47185779 0.64768183
0.089818433 0.47185755 0.64767689
0.11927315 0.47185731 0.64767301
0.14872785 0.47185704 0.64766806
0.1781825 0.47185683 0.64766413
0.20763715 0.47185656 0.64765924
0.23709175 0.47185633 0.64765531
0.26654631 0.47185606 0.64765042
0.29600087 0.47185585 0.64764649
0.32545537 0.47185564 0.64764255
0.35490987 0.4718554 0.64763761
0.38436434 0.4718551 0.64763272
0.41381872 0.4718549 0.64762878
0.44327313 0.47185469 0.64762485
0.47272748 0.47185442 0.64761996
0.50218183 0.47185418 0.64761603
0.53163612 0.47185391 0.64761108
0.56109035 0.4718537 0.64760721
0.59054458 0.47185346 0.64760226
0.61999875 0.47185323 0.64759833
0.64945292 0.47185296 0.64759344
0.6789071 0.47185275 0.6475895
0.70836121 0.47185248 0.64758462
0.73781526 0.47185224 0.64758068
0.76726937 0.47185203 0.64757675
0.79672331 0.47185174 0.64757085
0.0047659967 0.49726495 0.57806146
0.033975672 0.49726444 0.57805264
0.063185342 0.49726388 0.57804281
0.092394926 0.49726331 0.57803297
0.12160202 0.49726695 0.57809585
0.15081218 0.49726555 0.5780713
0.18002163 0.49726531 0.57806736
0.20923105 0.49726501 0.57806242
0.23844044 0.49726477 0.57805848
0.26764977 0.49726456 0.57805461
0.29685915 0.4972643 0.57804966
0.3260684 0.49726406 0.57804573
0.35527769 0.49726376 0.57804084
0.38448694 0.49726352 0.5780369
0.41369611 0.49726331 0.57803297
0.44290531 0.49726304 0.57802808
0.47211444 0.49726278 0.57802415
0.50132352 0.49726251 0.5780192
0.53053266 0.4972623 0.57801527
0.55974174 0.49726206 0.57801139
0.58895069 0.49726176 0.57800645
0.61815971 0.49726152 0.57800251
0.64736867 0.49726126 0.57799762
0.67657757 0.49726105 0.57799369
0.70578492 0.49725834 0.57794756
0.73499531 0.49726033 0.57798189
0.76420414 0.49726018 0.57797897
0.79341304 0.49726 0.57797599
0.82262182 0.49725983 0.57797307
0.0080225617 0.52225274 0.50959605
0.036991067 0.52225208 0.50958622
0.065959483 0.52225155 0.50957739
0.094927832 0.52225101 0.50956756
0.12389609 0.52225047 0.50955874
0.15286216 0.52225435 0.50962156
0.18182985 0.52225542 0.50963926
0.21079774 0.52225631 0.50965399
0.23976684 0.52225369 0.50961179
0.26873499 0.52225345 0.50960785
0.29770321 0.52225316 0.5096029
0.32667133 0.52225292 0.50959897
0.3556394 0.52225268 0.50959504
0.38460749 0.52225238 0.50959015
0.41357553 0.52225208 0.50958622
0.44254354 0.52225184 0.50958228
0.47151154 0.52225155 0.50957739
0.50047946 0.52225131 0.50957346
0.52944744 0.52225113 0.50956953
0.55841535 0.52225083 0.50956464
0.58738315 0.52225059 0.5095607
0.61635011 0.52224827 0.50952339
0.64531898 0.52225053 0.50955969
0.67428643 0.5222494 0.50954205
0.70325416 0.52224922 0.50953907
0.73222196 0.52224904 0.50953615
0.76118964 0.52224886 0.50953317
0.79015738 0.52224874 0.5095312
0.81912512 0.52224857 0.50952828
0.011225877 0.54683113 0.44225121
0.03995702 0.54683053 0.44224286
0.068688191 0.54682988 0.44223306
0.097419217 0.5468294 0.44222471
0.12615024 0.54682869 0.44221488
0.15488116 0.54682815 0.44220603
0.18361205 0.54682755 0.4421967
0.21234007 0.54683483 0.44230917
0.24107182 0.54683232 0.44226986
0.26980221 0.54683423 0.44229934
0.29853344 0.54683274 0.44227725
0.32726437 0.5468325 0.44227281
0.35599524 0.54683226 0.44226891
0.38472611 0.54683197 0.44226497
0.41345695 0.54683167 0.44226006
0.44218776 0.54683143 0.44225612
0.47091854 0.54683119 0.44225219
0.49964923 0.54683083 0.44224778
0.52838093 0.54683465 0.44230571
0.55710906 0.54682505 0.4421584
0.58584034 0.54682738 0.44219378
0.61457163 0.54682916 0.44222176
0.64330232 0.54682904 0.44221979
0.67203289 0.54682887 0.44221783
0.7007634 0.54682869 0.44221488
0.72949404 0.54682851 0.44221193
0.75822449 0.54682833 0.44220898
0.786955 0.54682815 0.44220603
0.81568557 0.54682803 0.44220409
0.014377112 0.57101005 0.37600094
0.042874821 0.57100952 0.3759926
0.071372561 0.57100892 0.37598327
0.099870175 0.57100827 0.37597442
0.12836777 0.57100761 0.37596509
0.15686524 0.57100707 0.37595674
0.1853627 0.57100648 0.37594789
0.21386008 0.57100582 0.37593856
0.24235739 0.57100523 0.37593022
0.27085224 0.57101512 0.37607411
0.29935092 0.57100916 0.3759867
0.32784715 0.57101768 0.37611094
0.35634506 0.57101572 0.37608245
0.38484278 0.57101226 0.37603238
0.41334024 0.57101196 0.37602845
0.4418377 0.57101172 0.37602451
0.47033516 0.57101172 0.37602451
0.49883109 0.57100332 0.37590224
0.52732837 0.57100457 0.37592041
0.55582684 0.57100946 0.37599161
0.58432418 0.57100964 0.37599456
0.61282146 0.57100946 0.37599161
0.6413188 0.57100928 0.37598866
0.66981602 0.57100916 0.3759867
0.69831318 0.57100898 0.37598425
0.7268104 0.57100874 0.3759813
0.75530756 0.57100856 0.37597835
0.78380471 0.57100832 0.3759754
0.81230181 0.57100815 0.37597245
0.017477551 0.5947994 0.31081823
0.045745634 0.5947988 0.31080985
0.074013621 0.59479815 0.31080151
0.10228162 0.59479749 0.31079218
0.13054951 0.5947969 0.31078383
0.15881738 0.59479618 0.31077451
0.18708514 0.59479558 0.31076616
0.21535286 0.59479493 0.31075683
0.24362051 0.59479433 0.31074849
0.27188811 0.59479374 0.31074014
0.30015564 0.59479308 0.31073081
0.32832977 0.59555793 0.32132035
0.35652995 0.59698629 0.34109551
0.38488629 0.59772617 0.35133982
0.41330174 0.59793055 0.35416827
0.44170034 0.59763199 0.3500351
0.47000253 0.59678185 0.33826506
0.4980967 0.59519893 0.31634992
0.5262965 0.59480053 0.31083491
0.55456418 0.59480047 0.31083342
0.58283186 0.59480023 0.31083047
0.61109954 0.59480006 0.31082755
0.63936722 0.59479988 0.31082508
0.66763484 0.59479964 0.31082213
0.69590247 0.59479952 0.31082016
0.72417003 0.59479934 0.31081724
0.75243765 0.59479916 0.31081477
0.78070521 0.59479892 0.31081182
0.80897278 0.59479874 0.3108089
0.020528365 0.61820841 0.24667896
0.048570503 0.61820763 0.24666964
0.076610766 0.61821032 0.2467045
0.10465275 0.61820996 0.24670008
0.13269529 0.61820823 0.24667701
0.16073759 0.61820674 0.24665736
0.18877919 0.61820686 0.24665932
0.21682049 0.61820793 0.24667406
0.24486154 0.61821055 0.24670745
0.27290285 0.618213 0.24674036
0.30034372 0.62190497 0.29547775
0.32823685 0.62466186 0.33187059
0.35647383 0.62616509 0.351715
0.38486749 0.62694526 0.36201334
0.41332054 0.62716007 0.36484963
0.4417567 0.62684572 0.36069927
0.47009599 0.62594974 0.34887227
0.49822599 0.62428039 0.32683486
0.52588934 0.62112325 0.28515831
0.55331975 0.61820352 0.24661562
0.58136141 0.61820412 0.24662299
0.60940361 0.61820614 0.2466495
0.63744599 0.61820811 0.24667504
0.66548663 0.61820573 0.24664411
0.69353026 0.61820972 0.24669714
0.72157186 0.61820948 0.24669419
0.74961352 0.61820942 0.24669272
0.77765518 0.61820918 0.24668977
0.80569685 0.618209 0.24668732
0.022246893 0.64338583 0.21054932
0.051350225 0.64124578 0.18355425
0.079169855 0.64124519 0.18354638
0.10698945 0.64124447 0.18353803
0.13480896 0.64124388 0.18352969
0.16262838 0.64124334 0.18352281
0.19044779 0.64124268 0.18351446
0.21826714 0.64124203 0.18350661
0.24608643 0.64124137 0.18349826
0.27390566 0.64124089 0.18349187
0.30021596 0.65094012 0.30583993
0.32814366 0.65384233 0.34244835
0.3564176 0.65542048 0.36235607
0.38484862 0.65624166 0.37271434
0.41333944 0.65646726 0.37555999
0.44181311 0.65613532 0.37137377
0.47018942 0.65519273 0.35948294
0.49835542 0.65343654 0.33732963
0.526052 0.65011382 0.29541686
0.55209929 0.64125228 0.18363576
0.57991982 0.64125574 0.18367946
0.60773915 0.64125431 0.18366177
0.63555831 0.64125299 0.18364459
0.66337729 0.64125156 0.18362643
0.6911962 0.64125007 0.18360825
0.719015 0.64124864 0.18359058
0.74683362 0.64124727 0.18357241
0.77465212 0.6412459 0.18355522
0.80406624 0.64372051 0.21477041
0.021719597 0.67221814 0.22163484
0.051098101 0.66953915 0.18927942
0.080237918 0.66688192 0.15718672
0.10914201 0.66424614 0.12535378
0.13688828 0.66391951 0.12140867
0.16448885 0.66391879 0.12140081
0.19208938 0.6639182 0.12139296
0.21968986 0.66391754 0.12138461
0.24729027 0.66391689 0.12137675
0.2748906 0.66391629 0.12136988
0.30248961 0.6639244 0.12146808
0.3300904 0.66392183 0.12143715
0.35636118 0.68475318 0.37302518
0.38482973 0.68561584 0.3834438
0.41335833 0.68585163 0.3862924
0.44186959 0.68550116 0.38205904
0.47028312 0.68451267 0.37012058
0.49569294 0.663921 0.12142634
0.52329236 0.66391575 0.12136349
0.55089527 0.66392761 0.12150639
0.57849556 0.66392612 0.12148871
0.60609573 0.66392463 0.12147103
0.63369578 0.66392326 0.12145384
0.66129571 0.66392177 0.12143616
0.68889546 0.66392028 0.12141849
0.71683729 0.66461802 0.12984493
0.74586606 0.66724765 0.16160421
0.77513099 0.66989869 0.19362178
0.80463481 0.67257136 0.2259001
0.021190887 0.70113117 0.23275077
0.05061245 0.69833046 0.20030598
0.07979475 0.69555247 0.16812392
0.10874064 0.69279689 0.13620308
0.13745299 0.69006354 0.10453809
0.16593455 0.68735218 0.073128931
0.19370532 0.68623978 0.060241763
0.22109033 0.68623912 0.060233906
0.24847528 0.68623841 0.060226049
0.27585974 0.68624008 0.060245201
0.30324391 0.68624455 0.060297742
0.33062887 0.68624544 0.060307074
0.35801402 0.68624431 0.060294796
0.38539904 0.68624419 0.060293324
0.41278401 0.68624401 0.060290869
0.44016901 0.68624383 0.060288906
0.46755397 0.68624365 0.060286447
0.49493897 0.68624365 0.060286939
0.52232414 0.68624467 0.060299218
0.54970729 0.68623644 0.060203951
0.57709354 0.68624216 0.060269754
0.60447794 0.68624061 0.060252074
0.63186234 0.68623918 0.060234889
0.65983534 0.687756 0.077807181
0.6884414 0.69046122 0.10914513
0.7172786 0.69318837 0.14073697
0.74634975 0.69593757 0.17258511
0.77565759 0.69870913 0.20469207
0.80520505 0.70150328 0.23706123
0.020660643 0.73012537 0.24389814
0.05012551 0.72720218 0.21136251
0.079350404 0.72430271 0.17909057
0.10833818 0.72142673 0.14708087
0.13709176 0.71857399 0.11532944
0.16561395 0.71574426 0.083833866
0.19390751 0.71293712 0.052590191
0.22197522 0.71015233 0.021595484
0.2496419 0.70821428 2.4552597e-05
0.27681455 0.70821428 2.4552597e-05
0.30398726 0.7082141 2.258839e-05
0.33115992 0.70821393 2.013313e-05
0.35833257 0.70821375 1.8168923e-05
0.38550523 0.70821351 1.5713662e-05
0.41267782 0.70821333 1.3749454e-05
0.43985045 0.70821321 1.2276299e-05
0.46702304 0.70821297 9.8210394e-06
0.49419561 0.70821279 7.856831e-06
0.52136815 0.70821255 5.4015713e-06
0.54854077 0.70821238 3.4373636e-06
0.57571322 0.70821208 0
0.60358495 0.71058905 0.026456406
0.63177687 0.71336764 0.057381876
0.66019511 0.71616846 0.08855582
0.6888423 0.71899182 0.1199802
0.71772116 0.72183812 0.15165943
0.74683464 0.72470748 0.18359648
0.77618557 0.72760028 0.21579328
0.80577683 0.73051667 0.24825378
0.020128926 0.75920105 0.25507694
0.049637221 0.7561546 0.22244899
0.078904808 0.75313306 0.19008818
0.10793463 0.75013602 0.1579891
0.13672958 0.74716318 0.12614977
0.16529252 0.7442143 0.094566785
0.19362615 0.74128914 0.063237675
0.2217333 0.73838735 0.032158993
0.24952798 0.73593587 0.0059034266
0.27672207 0.73593152 0.0058567766
0.30391586 0.7359271 0.0058096359
0.33110934 0.73592269 0.0057620038
0.35830247 0.73591822 0.0057143718
0.38549525 0.73591381 0.0056672306
0.41268772 0.73590946 0.0056205806
0.43987983 0.73590505 0.0055734399
0.46707162 0.73590058 0.0055258079
0.49426308 0.73589617 0.0054781758
0.52145422 0.73589176 0.0054310346
0.54864496 0.73588735 0.0053834026
0.57585758 0.735973 0.0063016699
0.60386527 0.73884523 0.037063129
0.63209713 0.7417407 0.06807404
0.66055584 0.74465936 0.099333428
0.68924421 0.74760163 0.13084571
0.71816498 0.75056767 0.16261235
0.74732101 0.75355792 0.19463827
0.7767151 0.7565726 0.22692591
0.80635029 0.75961202 0.25947824
0.019595705 0.78835857 0.26628718
0.04914755 0.7851882 0.23356739
0.078457952 0.78204393 0.20111622
0.10752995 0.77892518 0.16892825
0.13636638 0.77583158 0.13700055
0.16497014 0.77276301 0.10533065
0.19334403 0.76971895 0.073914126
0.22149074 0.76669943 0.042750001
0.24932863 0.76412594 0.016190475
0.276559 0.76412147 0.016143825
0.30378902 0.76411694 0.016097175
0.33101872 0.76411235 0.016049542
0.35824808 0.76410776 0.016002892
0.38547713 0.76410317 0.01595526
0.41270584 0.76409858 0.015907628
0.43993422 0.76409405 0.015860487
0.46716225 0.76408935 0.015812855
0.49438995 0.76408476 0.015765224
0.52161729 0.76408017 0.01571759
0.54884434 0.76407558 0.015669959
0.57609928 0.7641905 0.016855849
0.60414636 0.76717931 0.047702752
0.63241822 0.77019203 0.078796163
0.66091764 0.77322912 0.11014099
0.68964732 0.77629089 0.14174068
0.71860999 0.77937746 0.1735962
0.74780869 0.78248918 0.20571148
0.77724612 0.78562641 0.23808998
0.8069253 0.78878939 0.27073365
0.019060981 0.81759822 0.27752882
0.048656497 0.81430334 0.24471721
0.078009866 0.81103557 0.21217471
0.10712412 0.80779439 0.17989738
0.13600221 0.80457944 0.14788079
0.16464692 0.80139041 0.11612298
0.1930611 0.79822713 0.08462102
0.22124749 0.79508913 0.053370964
0.24912871 0.79239148 0.026506003
0.27639544 0.79238671 0.026458861
0.30366179 0.79238194 0.02641123
0.33092788 0.79237723 0.02636458
0.35819358 0.79237252 0.02631793
0.38545898 0.79236776 0.026270298
0.41272402 0.79236299 0.026222665
0.43998873 0.79235816 0.026175033
0.46725309 0.79235339 0.02612691
0.49451712 0.79234862 0.026079278
0.52178085 0.7923438 0.026031647
0.54904419 0.79233909 0.025984997
0.57634169 0.79248524 0.027439984
0.60442829 0.79559124 0.058370855
0.63274026 0.79872203 0.089549705
0.66128039 0.80187827 0.12098096
0.6900515 0.80505997 0.15266658
0.71905637 0.80826771 0.18461098
0.74829775 0.81150168 0.21681614
0.77777863 0.814762 0.24928449
0.80750197 0.81804937 0.28202146
0.018524751 0.84692037 0.28880239
0.048164032 0.84350032 0.25589848
0.077560551 0.84010834 0.22326414
0.10671719 0.83674413 0.19089694
0.13563699 0.8334071 0.15879196
0.16432281 0.83009702 0.12694527
0.19277741 0.8268137 0.095356397
0.22100361 0.8235566 0.06402041
0.24892829 0.82073241 0.036848538
0.27623147 0.82072741 0.036800906
0.3035343 0.82072258 0.036753766
0.33083674 0.82071775 0.036707114
0.35813892 0.82071275 0.036659483
0.38544074 0.82070786 0.036612343
0.41274223 0.82070291 0.036564711
0.44004339 0.8206979 0.036516588
0.46734422 0.82069308 0.036469936
0.49464467 0.82068807 0.036422305
0.52194482 0.82068312 0.036374182
0.54924464 0.82067811 0.03632655
0.57658476 0.82085747 0.038052108
0.604711 0.82408124 0.069067933
0.63306326 0.82733107 0.10033419
0.66164428 0.83060694 0.13185138
0.69045687 0.83390945 0.1636249
0.71950388 0.83723879 0.19565621
0.74878818 0.84059548 0.22795123
0.77831268 0.84397984 0.2605119
0.80808026 0.84739208 0.29334068
0.017987048 0.87632531 0.30010688
0.047670219 0.87277943 0.26711065
0.077109948 0.86926264 0.234385
0.10630913 0.86577463 0.20192695
0.13527082 0.86231482 0.16973162
0.16399777 0.8588832 0.1377985
0.19249292 0.85547918 0.10612222
0.22075902 0.85210246 0.074700296
0.24872735 0.84914923 0.047218576
0.27606702 0.8491441 0.047171433
0.30340639 0.84913909 0.047124293
0.3307454 0.84913385 0.047076169
0.35808411 0.8491289 0.047029518
0.38542247 0.84912372 0.046982378
0.4127605 0.84911877 0.046935238
0.4400982 0.8491137 0.046887606
0.46743554 0.84910846 0.046839483
0.49477252 0.84910333 0.04679136
0.52210921 0.84909821 0.046743728
0.54944557 0.8490929 0.046695605
0.57682842 0.84930772 0.048693694
0.60499442 0.85265011 0.079795942
0.63338709 0.85601914 0.11114716
0.66200924 0.85941565 0.14275323
0.69086343 0.86283946 0.17461415
0.71995276 0.86629128 0.20673484
0.74927998 0.86977148 0.23911923
0.77884817 0.87328017 0.27177024
0.80866027 0.87681812 0.30469283
0.017447783 0.90581357 0.31144431
0.047175024 0.90214103 0.27835476
0.076658063 0.89849883 0.24553728
0.10589996 0.89488614 0.21298692
0.13490358 0.89130312 0.18070319
0.16367185 0.88774908 0.14868121
0.19220768 0.88422364 0.11691652
0.22051379 0.8807267 0.085408174
0.24852584 0.87764221 0.057616599
0.27590218 0.87763685 0.057568476
0.30327818 0.8776316 0.057521336
0.33065382 0.87762636 0.057474196
0.35802919 0.87762117 0.057427052
0.38540417 0.87761581 0.057378929
0.41277879 0.8776105 0.057331789
0.44015312 0.87760538 0.057284649
0.46752712 0.87760007 0.057237018
0.49490076 0.87759477 0.057188895
0.52227408 0.87758934 0.057140771
0.54964703 0.8775841 0.057092648
0.57707286 0.87783629 0.059365235
0.60527867 0.88129759 0.090551943
0.63371187 0.88478678 0.12199105
0.66237509 0.88830435 0.15368403
0.69127113 0.89185041 0.18563433
0.72040296 0.89542544 0.21784587
0.74977338 0.89902961 0.25032011
0.77938527 0.90266365 0.28306296
0.80924183 0.90632761 0.31607589
0.016906949 0.93538541 0.32281411
0.046678416 0.93158567 0.28963029
0.076204941 0.92781711 0.25672048
0.10548963 0.9240793 0.22407879
0.13453534 0.92037219 0.19170472
0.16334504 0.91669506 0.15959336
0.19192159 0.91304785 0.12774226
0.22026788 0.90942973 0.096145518
0.24832381 0.90621161 0.068042122
0.27573687 0.90620613 0.067994982
0.30314961 0.90620077 0.067947842
0.330562 0.90619528 0.067899719
0.35797405 0.90618974 0.067852087
0.38538578 0.90618438 0.067804947
0.41279718 0.90617901 0.067757808
0.44020823 0.90617347 0.067709193
0.46761897 0.90616804 0.067662053
0.49502933 0.90616256 0.06761393
0.52243936 0.90615714 0.067566782
0.54984909 0.90615165 0.067518659
0.57731789 0.90644324 0.07006526
0.60556376 0.9100244 0.10133938
0.63403749 0.91363442 0.13286491
0.66274202 0.91727358 0.1646453
0.69168001 0.92094249 0.19668595
0.7208544 0.92464131 0.22898686
0.7502681 0.92837054 0.26155391
0.77992398 0.93213034 0.29438812
0.80982506 0.93592125 0.32749385
0.075750537 0.95721787 0.26793513
0.10507812 0.95335424 0.2352021
0.13416605 0.94952238 0.20273718
0.16301732 0.94572163 0.17053646
0.19163479 0.94195151 0.13859598
0.22002126 0.93821204 0.1069138
0.24812122 0.9348579 0.07849662
0.27557111 0.93485236 0.07844948
0.30302069 0.93484646 0.078400865
0.33046994 0.93484098 0.078353725
0.3579188 0.93483537 0.078306094
0.38536736 0.93482971 0.078257971
0.4128156 0.93482411 0.078210339
0.44026348 0.93481851 0.078163199
0.46771103 0.9348129 0.07811556
0.49515826 0.93480724 0.078067929
0.52260512 0.93480164 0.078019805
0.55005169 0.93479592 0.077971682
0.57756364 0.93512917 0.080795728
0.6058495 0.93883067 0.11215529
0.63436407 0.9425621 0.14376822
0.66310996 0.94632387 0.17563848
0.69208997 0.9501161 0.20776752
0.7213071 0.9539395 0.24016026
0.75076419 0.95779419 0.27281815
0.13379572 0.9787541 0.21380058
0.16268867 0.9748289 0.18150999
0.19134715 0.97093552 0.14948064
0.21977401 0.96707374 0.11771055
0.24791811 0.96358114 0.088978127
0.27540493 0.96357524 0.088930495
0.30289143 0.96356958 0.088883348
0.33037758 0.9635638 0.088835716
0.35786343 0.96355784 0.088787101
0.38534892 0.96355212 0.08873947
0.41283408 0.96354645 0.08869233
0.44031885 0.96354043 0.088643715
0.46780336 0.96353465 0.088596083
0.49528751 0.96352887 0.088548452
0.5227713 0.96352303 0.08850082
0.55025476 0.96351725 0.088452697
0.57781005 0.96389437 0.091554672
0.60613614 0.96771681 0.12300115
0.63469154 0.97157037 0.15470298
0.66347891 0.97545516 0.18666162
0.19105874 1 0.16039525
0.21952605 0.99601519 0.12853727
0.24771442 0.99238187 0.099489093
0.27523831 0.99237591 0.099441461
0.30276182 0.99236995 0.09939383
0.33028501 0.99236387 0.099345215
0.35780787 0.99235797 0.099297583
0.38533038 0.99235201 0.099249952
0.41285259 0.99234587 0.099200845
0.4403744 0.99233997 0.099153213
0.46789593 0.99233395 0.099105582
0.49541709 0.99232793 0.099056967
0.52293795 0.99232191 0.099009335
0.55045843 0.99231595 0.098961703
0.57805711 0.99273896 0.10234357
0.025166288 0.11912043 0.95235562
