# .PCD v0.7 - Point Cloud Data file format
VERSION 0.7
FIELDS x y z
SIZE 4 4 4
TYPE F F F
COUNT 1 1 1
WIDTH 1086
HEIGHT 1
VIEWPOINT 0 0 0 1 0 0 0
POINTS 1086
DATA ascii
-0.12724128 0.048263937 0.83019489
-0.12428702 0.048252609 0.83000004
-0.12133415 0.048241287 0.82980531
-0.11838266 0.048229974 0.82961071
-0.11543256 0.048218664 0.82941616
-0.12673242 0.050984308 0.82687479
-0.12379011 0.050972398 0.82668161
-0.12084915 0.050960485 0.82648844
-0.11790957 0.050948579 0.82629532
-0.11497136 0.05093668 0.82610232
-0.11203452 0.050924782 0.82590938
-0.10909905 0.050912894 0.82571656
-0.10616496 0.050901007 0.82552379
-0.10323223 0.050889131 0.82533115
-0.10030088 0.050877258 0.82513863
-0.097370893 0.050865393 0.82494617
-0.094442271 0.050853532 0.82475382
-0.091515012 0.05084167 0.82456148
-0.088589117 0.050829824 0.82436931
-0.085664585 0.050817974 0.82417715
-0.082741424 0.050806135 0.82398516
-0.079819627 0.050794307 0.82379329
-0.076899178 0.050782476 0.82360142
-0.073980093 0.050770652 0.82340968
-0.12915951 0.053695526 0.82377315
-0.12622763 0.05368302 0.82358128
-0.12329714 0.053670522 0.82338953
-0.12036801 0.053658031 0.8231979
-0.11744024 0.053645544 0.82300633
-0.11451383 0.05363306 0.82281482
-0.11158878 0.053620584 0.82262343
-0.10866511 0.053608119 0.82243222
-0.10574278 0.053595658 0.82224101
-0.10282181 0.053583197 0.82204986
-0.099902198 0.053570744 0.82185882
-0.096983939 0.053558297 0.82166785
-0.094067045 0.053545855 0.821477
-0.091151506 0.053533424 0.82128626
-0.088237315 0.053520996 0.82109559
-0.085324489 0.05350858 0.82090509
-0.082412995 0.053496156 0.82071453
-0.079502866 0.053483747 0.82052416
-0.076594085 0.053471342 0.82033384
-0.073686652 0.05345894 0.82014358
-0.07078056 0.053446546 0.81995344
-0.067875825 0.053434156 0.81976336
-0.06497243 0.053421777 0.8195734
-0.062070385 0.053409401 0.81938356
-0.059169684 0.05339703 0.81919378
-0.056270324 0.053384665 0.81900406
-0.053372305 0.053372305 0.81881446
-0.050475623 0.053359944 0.81862479
-0.047987744 0.053804442 0.8254441
-0.045898724 0.05478235 0.84044671
-0.12864697 0.056373391 0.82050419
-0.12572685 0.056360312 0.82031387
-0.12280809 0.056347243 0.82012361
-0.11989069 0.056334179 0.81993347
-0.11697463 0.056321118 0.81974339
-0.11405995 0.056308076 0.81955355
-0.11114659 0.05629503 0.81936365
-0.10823459 0.056281988 0.81917387
-0.10532394 0.056268953 0.81898415
-0.10241464 0.056255929 0.81879455
-0.099506676 0.056242906 0.81860501
-0.096600071 0.056229889 0.81841558
-0.093694799 0.056216881 0.81822622
-0.090790883 0.056203883 0.81803703
-0.087888308 0.056190882 0.81784785
-0.084987067 0.056177888 0.81765872
-0.082087167 0.056164905 0.81746972
-0.079188615 0.056151927 0.81728083
-0.076291397 0.056138951 0.817092
-0.073395513 0.056125984 0.81690323
-0.070500977 0.056113023 0.81671458
-0.067607783 0.056100074 0.81652611
-0.064715914 0.056087125 0.81633765
-0.061825372 0.056074176 0.81614918
-0.058936164 0.056061231 0.81596076
-0.056048293 0.056048293 0.81577247
-0.053161755 0.056035366 0.8155843
-0.050276544 0.056022435 0.81539613
-0.048039425 0.056773867 0.82633305
-0.045949049 0.057806868 0.8413682
-0.12813847 0.059030078 0.81726098
-0.12523 0.05901644 0.81707215
-0.12232289 0.059002809 0.81688344
-0.11941714 0.058989186 0.81669486
-0.11651271 0.05897557 0.81650633
-0.11360963 0.058961958 0.81631786
-0.11070787 0.058948349 0.81612945
-0.10780746 0.058934748 0.81594115
-0.1049084 0.058921158 0.81575298
-0.10201067 0.058907568 0.81556487
-0.099114269 0.058893986 0.81537682
-0.096219219 0.058880419 0.81518894
-0.093325488 0.058866847 0.81500107
-0.090433098 0.058853287 0.81481332
-0.087542035 0.058839727 0.81462562
-0.084652305 0.058826178 0.81443805
-0.081763908 0.058812637 0.81425053
-0.078876838 0.058799095 0.81406307
-0.075991094 0.058785565 0.81387573
-0.073106691 0.058772046 0.81368858
-0.070223592 0.058758516 0.81350124
-0.067341827 0.058744997 0.81331408
-0.06446138 0.058731481 0.81312698
-0.061582271 0.058717977 0.81294
-0.058704477 0.058704477 0.81275308
-0.055828005 0.05869098 0.81256622
-0.052952863 0.058677495 0.81237954
-0.050109938 0.058700215 0.81269407
-0.048091207 0.059749682 0.82722378
-0.045999482 0.060838021 0.84229165
-0.13053221 0.061680049 0.8142308
-0.12763397 0.061665855 0.8140434
-0.1247371 0.061651669 0.81385612
-0.12184154 0.061637487 0.81366891
-0.11894731 0.061623309 0.81348175
-0.11605442 0.061609134 0.81329465
-0.11316285 0.061594971 0.81310767
-0.11027262 0.061580811 0.81292075
-0.10738371 0.061566662 0.81273395
-0.10449613 0.061552513 0.81254721
-0.10160989 0.06153838 0.81236064
-0.098724954 0.06152425 0.81217408
-0.095841348 0.06151012 0.81198758
-0.092959076 0.061496001 0.8118012
-0.090078115 0.061481886 0.81161487
-0.087198481 0.061467782 0.81142867
-0.08432018 0.061453689 0.81124264
-0.081443176 0.061439589 0.81105649
-0.078567497 0.061425496 0.81087047
-0.07569313 0.061411411 0.8106845
-0.072820082 0.061397322 0.81049854
-0.069948353 0.061383247 0.81031275
-0.067077942 0.061369184 0.81012708
-0.06420885 0.061355121 0.80994147
-0.061341066 0.061341066 0.80975592
-0.0584746 0.061327022 0.80957049
-0.055609446 0.061312977 0.80938512
-0.052745599 0.06129894 0.80919981
-0.050162666 0.06162842 0.81354922
-0.048143104 0.062731922 0.82811642
-0.046050027 0.063875847 0.84321719
-0.1300202 0.064295702 0.81103706
-0.12713346 0.064280964 0.8108511
-0.12424803 0.06426622 0.81066519
-0.12136395 0.064251497 0.81047946
-0.11848117 0.064236775 0.81029373
-0.11559971 0.06422206 0.81010813
-0.11271957 0.064207353 0.80992258
-0.10984076 0.064192653 0.80973715
-0.10696328 0.064177968 0.80955189
-0.10408709 0.064163275 0.80936658
-0.10121223 0.06414859 0.80918139
-0.098338678 0.06413392 0.80899632
-0.095466442 0.064119257 0.80881131
-0.092595525 0.064104594 0.80862635
-0.089725904 0.064089932 0.8084414
-0.086857595 0.064075276 0.80825657
-0.083990604 0.064060628 0.80807179
-0.081124924 0.064045988 0.80788714
-0.078260548 0.064031355 0.80770254
-0.075397477 0.064016722 0.80751795
-0.072535716 0.064002104 0.80733353
-0.069675267 0.063987486 0.80714917
-0.066816121 0.063972883 0.80696493
-0.06395828 0.06395828 0.80678076
-0.06110175 0.063943692 0.8065967
-0.058246516 0.063929103 0.8064127
-0.055392586 0.063914523 0.80622876
-0.052539956 0.063899949 0.80604494
-0.050215669 0.064563006 0.81440884
-0.048195112 0.06572061 0.82901108
-0.04610068 0.06692034 0.8441447
-0.12951219 0.06689091 0.80786818
-0.12663683 0.066875629 0.80768365
-0.12376279 0.066860363 0.80749923
-0.12089007 0.066845097 0.80731487
-0.11801866 0.066829838 0.80713063
-0.11514855 0.066814594 0.80694646
-0.11227977 0.066799358 0.80676246
-0.10941228 0.066784121 0.80657846
-0.10654611 0.0667689 0.80639458
-0.10368124 0.066753671 0.8062107
-0.10081766 0.066738449 0.80602688
-0.097955398 0.066723242 0.80584317
-0.095094427 0.066708028 0.80565947
-0.092234768 0.066692837 0.80547595
-0.089376412 0.066677637 0.80529243
-0.086519353 0.066662453 0.80510902
-0.083663598 0.066647269 0.80492568
-0.080809146 0.066632099 0.80474246
-0.077955984 0.06661693 0.80455923
-0.075104125 0.066601768 0.80437613
-0.072253563 0.066586621 0.80419314
-0.069404304 0.066571474 0.80401027
-0.066556342 0.066556342 0.80382746
-0.063709669 0.06654121 0.80364472
-0.060864288 0.066526085 0.80346203
-0.058020204 0.066510968 0.80327946
-0.055177413 0.066495858 0.80309695
-0.05233591 0.066480756 0.80291456
-0.050268989 0.067504071 0.81527358
-0.048247233 0.068715759 0.8299076
-0.046151448 0.069971547 0.8450743
-0.13187347 0.069481723 0.80490708
-0.12900811 0.069465913 0.80472392
-0.12614408 0.06945011 0.80454087
-0.12328133 0.069434315 0.80435789
-0.12041988 0.06941852 0.80417496
-0.11755975 0.069402747 0.80399221
-0.11470091 0.069386974 0.80380946
-0.11184336 0.069371201 0.80362678
-0.10898711 0.069355428 0.80344409
-0.10613215 0.06933967 0.80326152
-0.1032785 0.06932392 0.80307907
-0.10042614 0.069308177 0.80289668
-0.097575068 0.069292441 0.80271435
-0.094725296 0.069276713 0.80253214
-0.09187682 0.069260985 0.80234998
-0.089029633 0.069245264 0.80216789
-0.086183734 0.069229558 0.80198592
-0.083339132 0.069213852 0.80180401
-0.080495812 0.069198154 0.80162209
-0.077653788 0.069182463 0.80144036
-0.074813053 0.06916678 0.80125868
-0.071973607 0.069151111 0.80107713
-0.069135442 0.069135442 0.80089563
-0.066298567 0.069119789 0.80071425
-0.063462973 0.069104128 0.80053288
-0.060628671 0.069088489 0.80035168
-0.057795648 0.069072843 0.80017048
-0.054963905 0.069057211 0.7999894
-0.052276794 0.069231428 0.80200762
-0.050322425 0.070451394 0.81614023
-0.048299469 0.071717389 0.83080608
-0.046202328 0.073029488 0.84600598
-0.1313621 0.07203728 0.80178583
-0.12850797 0.072020948 0.80160409
-0.12565513 0.072004624 0.80142242
-0.1228036 0.071988314 0.80124086
-0.11995333 0.071972005 0.80105931
-0.11710437 0.071955696 0.80087781
-0.11425669 0.071939401 0.80069643
-0.1114103 0.071923107 0.80051512
-0.1085652 0.07190682 0.80033386
-0.1057214 0.071890548 0.80015272
-0.10287887 0.071874283 0.79997164
-0.10003763 0.071858019 0.79979062
-0.097197682 0.071841761 0.79960972
-0.09435901 0.071825512 0.79942888
-0.091521628 0.071809277 0.79924816
-0.088685527 0.07179305 0.7990675
-0.085850708 0.071776822 0.7988869
-0.083017163 0.071760602 0.79870635
-0.080184907 0.07174439 0.79852593
-0.077353925 0.071728185 0.79834557
-0.074524224 0.071711987 0.79816532
-0.071695797 0.071695797 0.79798514
-0.068868659 0.071679622 0.79780507
-0.066042781 0.071663447 0.79762501
-0.063218191 0.071647279 0.79744512
-0.060394865 0.071631119 0.79726523
-0.057572819 0.071614966 0.79708546
-0.054752041 0.07159882 0.79690576
-0.052331083 0.072132036 0.80284047
-0.050375968 0.073404983 0.81700861
-0.048351821 0.074725538 0.83170658
-0.04625332 0.076094173 0.84693968
-0.13373679 0.074611053 0.79909527
-0.13085696 0.074574396 0.79870266
-0.12801166 0.074556239 0.79850823
-0.12516993 0.074539401 0.79832786
-0.1223295 0.07452257 0.79814762
-0.11949035 0.074505746 0.79796743
-0.11665248 0.074488938 0.79778737
-0.1138159 0.074472129 0.79760736
-0.11098058 0.074455328 0.79742742
-0.10814656 0.074438535 0.79724759
-0.1053138 0.074421749 0.79706782
-0.10248232 0.07440497 0.79688811
-0.099652119 0.074388206 0.79670852
-0.096823201 0.074371442 0.796529
-0.093995549 0.074354693 0.79634959
-0.091169178 0.074337944 0.79617023
-0.088344075 0.074321203 0.79599094
-0.08552023 0.074304461 0.79581165
-0.082697675 0.074287742 0.79563254
-0.079876386 0.074271031 0.79545355
-0.077056363 0.074254312 0.79527456
-0.074237615 0.074237615 0.79509568
-0.071420133 0.074220926 0.79491693
-0.068603918 0.074204236 0.79473823
-0.065788969 0.074187562 0.7945596
-0.06297528 0.074170887 0.79438102
-0.060162861 0.074154221 0.79420257
-0.057351705 0.074137568 0.79402417
-0.054541808 0.074120916 0.79384583
-0.052385483 0.075038664 0.80367506
-0.050429631 0.076364867 0.8178789
-0.048404276 0.077740207 0.83260894
-0.13369119 0.077400163 0.79882276
-0.13081236 0.07736215 0.79843044
-0.12793635 0.077324167 0.79803848
-0.12506318 0.077286229 0.79764694
-0.12219281 0.077248327 0.79725575
-0.11932527 0.077210464 0.79686499
-0.11646052 0.077172637 0.79647458
-0.11359861 0.077134855 0.79608464
-0.11073948 0.077097103 0.79569501
-0.10788314 0.077059388 0.79530573
-0.1050296 0.077021711 0.79491687
-0.10217885 0.076984063 0.79452837
-0.09933088 0.076946452 0.79414022
-0.096485697 0.076908886 0.79375249
-0.093643285 0.076871358 0.79336512
-0.090819426 0.076847211 0.79311591
-0.08800523 0.076829962 0.79293793
-0.085192308 0.076812737 0.79276013
-0.082380645 0.076795511 0.79258239
-0.079570234 0.0767783 0.79240471
-0.076761089 0.076761089 0.79222715
-0.073953204 0.076743893 0.79204965
-0.071146578 0.076726705 0.7918722
-0.06834121 0.076709516 0.79169488
-0.065537088 0.076692335 0.79151756
-0.062734231 0.076675177 0.79134041
-0.059932627 0.07665801 0.79116327
-0.057132278 0.076640859 0.79098624
-0.05433318 0.076623715 0.79080933
-0.052439995 0.077951342 0.80451137
-0.05048345 0.079331137 0.81875175
-0.048456851 0.080761418 0.83351326
-0.13364562 0.080187373 0.79855049
-0.13076779 0.080147997 0.79815841
-0.12789279 0.080108672 0.79776675
-0.12502061 0.080069378 0.79737544
-0.12215124 0.080030128 0.79698455
-0.11928469 0.079990909 0.79659402
-0.11642094 0.079951733 0.79620385
-0.11356 0.079912595 0.7958141
-0.11070186 0.079873495 0.7954247
-0.10784651 0.079834431 0.79503572
-0.10499397 0.07979542 0.79464722
-0.1021442 0.079756431 0.79425895
-0.099297218 0.079717487 0.7938711
-0.096453011 0.079678573 0.79348361
-0.093611583 0.079639703 0.79309654
-0.090772919 0.079600871 0.79270977
-0.087937027 0.079562068 0.79232341
-0.085103899 0.079523318 0.79193747
-0.082273528 0.079484597 0.79155189
-0.079445913 0.079445913 0.79116666
-0.076621048 0.079407267 0.7907818
-0.073798932 0.079368666 0.79039735
-0.070979558 0.079330094 0.79001325
-0.068162918 0.07929156 0.78962952
-0.065349028 0.079253078 0.78924626
-0.062537856 0.079214618 0.78886324
-0.059729412 0.079176195 0.78848064
-0.056923687 0.07913781 0.78809839
-0.054387413 0.079489298 0.79159868
-0.052494735 0.080870263 0.80535114
-0.050537378 0.082303733 0.81962639
-0.048509542 0.083789207 0.83441961
-0.13360006 0.082972668 0.79827827
-0.13072325 0.082931951 0.79788655
-0.12784925 0.082891271 0.79749513
-0.12497807 0.082850628 0.79710412
-0.1221097 0.082810022 0.79671347
-0.11924414 0.082769461 0.79632318
-0.11638138 0.082728937 0.79593331
-0.11352143 0.082688451 0.79554385
-0.11066429 0.082648009 0.79515475
-0.10780992 0.082607605 0.79476601
-0.10495836 0.082567237 0.79437762
-0.10210957 0.082526915 0.79398966
-0.099263564 0.082486622 0.79360205
-0.09642034 0.082446381 0.79321486
-0.093579896 0.082406178 0.79282808
-0.090742216 0.082366012 0.79244161
-0.087907299 0.082325883 0.79205555
-0.08507514 0.082285792 0.79166985
-0.082245737 0.082245737 0.7912845
-0.079419091 0.082205728 0.79089952
-0.076595195 0.082165755 0.79051495
-0.07377404 0.08212582 0.79013073
-0.070955627 0.082085922 0.78974688
-0.068139955 0.082046069 0.78936344
-0.065327011 0.082006246 0.78898036
-0.062516801 0.081966467 0.78859764
-0.059709303 0.081926718 0.78821522
-0.056904543 0.081887029 0.78783333
-0.054443158 0.082362726 0.79241002
-0.05254985 0.083795704 0.80619669
-0.050591424 0.085282683 0.82050288
-0.048562348 0.08682359 0.83532792
-0.13355455 0.085756071 0.7980063
-0.13067873 0.085714005 0.79761481
-0.12780572 0.085671969 0.79722363
-0.12493554 0.08562997 0.79683286
-0.12206817 0.085588031 0.79644257
-0.11920361 0.085546121 0.79605258
-0.11634186 0.085504256 0.795663
-0.1134829 0.085462429 0.79527378
-0.11062673 0.085420646 0.79488492
-0.10777336 0.085378893 0.79449642
-0.10492277 0.085337184 0.79410833
-0.10207497 0.085295528 0.79372066
-0.099229947 0.085253902 0.79333329
-0.096387699 0.08521232 0.79294634
-0.093548223 0.085170768 0.79255974
-0.090711519 0.085129268 0.79217356
-0.087877572 0.085087813 0.79178774
-0.085046388 0.085046388 0.79140228
-0.082217969 0.085005015 0.79101729
-0.079392284 0.084963679 0.79063261
-0.076569356 0.084922373 0.79024827
-0.073749162 0.084881112 0.7898643
-0.070931718 0.084839895 0.78948075
-0.068116993 0.084798709 0.78909749
-0.065305009 0.084757566 0.78871465
-0.062495753 0.084716462 0.78833216
-0.059689224 0.084675409 0.78795016
-0.05688541 0.084634393 0.78756845
-0.054499011 0.08524204 0.79322296
-0.052605089 0.086727306 0.80704415
-0.050645579 0.088268012 0.82138121
-0.048615266 0.089864582 0.83623815
-0.13350907 0.088537589 0.79773456
-0.13063425 0.088494167 0.79734331
-0.12776224 0.088450782 0.79695243
-0.12489306 0.088407449 0.79656196
-0.12202668 0.088364147 0.79617184
-0.11916311 0.088320896 0.79578209
-0.11630234 0.088277683 0.79539275
-0.11344437 0.088234507 0.79500377
-0.11058921 0.08819139 0.79461527
-0.10773682 0.088148303 0.79422706
-0.10488722 0.088105261 0.79383922
-0.1020404 0.088062264 0.79345179
-0.099196352 0.088019304 0.79306471
-0.096355081 0.087976381 0.792678
-0.093516588 0.087933511 0.7922917
-0.090680853 0.08789067 0.79190576
-0.087847881 0.087847881 0.79152018
-0.085017666 0.08780513 0.79113501
-0.082190208 0.087762423 0.79075021
-0.079365492 0.087719753 0.79036576
-0.076543525 0.087677121 0.78998166
-0.073724292 0.087634534 0.78959793
-0.070907809 0.087591998 0.78921467
-0.06809406 0.0875495 0.78883177
-0.06528303 0.087507047 0.78844923
-0.062474735 0.087464631 0.78806704
-0.059669156 0.087422252 0.78768522
-0.056866296 0.087379918 0.78730381
-0.054554988 0.088127293 0.7940377
-0.052660435 0.08966507 0.80789328
-0.050699856 0.09125974 0.82226145
-0.048668303 0.092912212 0.83715045
-0.13346362 0.091317214 0.797463
-0.1305898 0.091272436 0.79707199
-0.12771879 0.09122771 0.7966814
-0.1248506 0.091183022 0.79629117
-0.12198522 0.091138378 0.7959013
-0.11912264 0.091093786 0.79551184
-0.11626286 0.091049232 0.79512274
-0.11340588 0.091004722 0.79473406
-0.11055169 0.090960257 0.79434574
-0.1077003 0.090915836 0.79395783
-0.10485167 0.090871453 0.79357022
-0.10200583 0.090827115 0.79318303
-0.099162787 0.090782829 0.79279631
-0.096322492 0.09073858 0.7924099
-0.093484968 0.090694375 0.79202384
-0.090650208 0.090650208 0.79163814
-0.087818213 0.090606086 0.79125285
-0.084988967 0.090562008 0.79086792
-0.08216247 0.090517975 0.79048336
-0.079338722 0.09047398 0.79009914
-0.076517709 0.090430021 0.78971529
-0.073699459 0.09038613 0.78933197
-0.07088393 0.090342261 0.78894889
-0.068071142 0.090298451 0.78856629
-0.065261073 0.090254672 0.78818399
-0.062453732 0.090210944 0.7878021
-0.059649102 0.090167247 0.78742051
-0.0568472 0.090123609 0.7870394
-0.054611076 0.091018461 0.79485404
-0.052715905 0.092609026 0.80874425
-0.050754245 0.094257884 0.8231436
-0.048721451 0.095966496 0.83806467
-0.13341817 0.094094925 0.7971915
-0.13054536 0.094048806 0.79680079
-0.12767537 0.094002739 0.7964105
-0.12480818 0.093956716 0.79602057
-0.12194379 0.093910731 0.79563099
-0.1190822 0.093864791 0.79524177
-0.11622342 0.093818903 0.79485297
-0.11336742 0.093773052 0.79446453
-0.11051422 0.093727253 0.7940765
-0.1076638 0.093681484 0.79368877
-0.10481617 0.093635783 0.79330152
-0.10197131 0.093590103 0.79291457
-0.09912923 0.093544483 0.79252803
-0.09628991 0.093498901 0.79214185
-0.093453363 0.093453363 0.79175603
-0.090619579 0.093407869 0.79137063
-0.087788537 0.093362413 0.79098552
-0.084960274 0.093317024 0.79060096
-0.082134746 0.093271658 0.79021662
-0.079311974 0.093226351 0.78983277
-0.076491937 0.093181089 0.78944927
-0.073674634 0.093135856 0.78906608
-0.070860073 0.093090683 0.78868335
-0.068048231 0.093045548 0.78830093
-0.065239124 0.093000457 0.78791893
-0.062432732 0.092955403 0.78753722
-0.059629064 0.092910402 0.78715599
-0.056828104 0.092865437 0.78677505
-0.054667279 0.093915582 0.79567206
-0.052771494 0.095559195 0.80959707
-0.050808758 0.097262479 0.82402766
-0.048774716 0.099027447 0.83898085
-0.13337278 0.096870765 0.7969203
-0.13050097 0.096823297 0.79652983
-0.12763196 0.096775882 0.79613978
-0.12476577 0.096728519 0.79575008
-0.12190237 0.096681185 0.79536074
-0.11904178 0.096633911 0.79497182
-0.116184 0.096586697 0.79458338
-0.11332899 0.096539505 0.79419518
-0.11047677 0.096492365 0.79380739
-0.10762733 0.096445277 0.79341996
-0.10478068 0.096398227 0.79303294
-0.10193681 0.096351229 0.79264629
-0.099095702 0.096304275 0.79225999
-0.096257359 0.096257359 0.79187405
-0.09342178 0.096210487 0.79148847
-0.090588965 0.096163668 0.7911033
-0.087758914 0.096116908 0.79071862
-0.084931612 0.096070185 0.79033422
-0.08210706 0.096023507 0.78995025
-0.079285242 0.095976874 0.78956658
-0.076466173 0.095930293 0.78918338
-0.073649831 0.095883749 0.78880048
-0.070836231 0.09583725 0.78841799
-0.068025351 0.095790796 0.78803581
-0.065217189 0.095744379 0.78765398
-0.062411755 0.095698029 0.78727263
-0.059609037 0.095651709 0.78689158
-0.05680903 0.09560544 0.78651094
-0.054723654 0.096818767 0.79649258
-0.052827191 0.098515578 0.81045157
-0.050863381 0.10027352 0.82491356
-0.048828103 0.10209512 0.83989918
-0.13332742 0.099644713 0.79664928
-0.13045661 0.099595912 0.79625911
-0.1275886 0.099547148 0.79586929
-0.1247234 0.099498436 0.79547983
-0.121861 0.099449776 0.79509079
-0.1190014 0.099401169 0.79470217
-0.11614458 0.099352598 0.79431385
-0.11329056 0.09930408 0.79392594
-0.11043933 0.099255599 0.79353839
-0.10759088 0.099207178 0.79315126
-0.10474522 0.099158809 0.79276454
-0.10190232 0.099110477 0.79237813
-0.099062189 0.099062189 0.79199207
-0.09622483 0.099013954 0.79160643
-0.093390234 0.098965771 0.7912212
-0.090558395 0.098917633 0.79083633
-0.087729305 0.098869532 0.79045182
-0.084902972 0.098821491 0.79006773
-0.082079381 0.098773487 0.78968394
-0.079258531 0.098725542 0.78930062
-0.076440424 0.098677635 0.7889176
-0.073625043 0.09862978 0.788535
-0.070812397 0.098581962 0.78815269
-0.068002477 0.098534204 0.78777087
-0.065195277 0.098486483 0.78738934
-0.062390797 0.098438814 0.78700823
-0.059589025 0.098391175 0.78662741
-0.056789961 0.098343588 0.78624696
-0.054780483 0.099728569 0.79731971
-0.05288301 0.10147821 0.81130791
-0.050918125 0.10329106 0.82580143
-0.048881602 0.1051695 0.84081942
-0.13328211 0.10241678 0.79637849
-0.13041228 0.10236663 0.79598856
-0.12754527 0.10231654 0.79559898
-0.12468106 0.10226648 0.79520983
-0.12181965 0.10221648 0.79482102
-0.11896104 0.10216654 0.79443264
-0.11610521 0.10211664 0.79404461
-0.11325219 0.10206679 0.79365695
-0.11040194 0.10201698 0.79326969
-0.10755446 0.10196722 0.79288274
-0.10470977 0.10191751 0.7924962
-0.10186785 0.10186785 0.79211015
-0.099028707 0.10181825 0.79172438
-0.096192323 0.10176869 0.79133904
-0.093358703 0.10171918 0.79095405
-0.09052784 0.10166972 0.79056948
-0.087699719 0.10162031 0.79018521
-0.084874354 0.10157095 0.78980142
-0.082051732 0.10152163 0.78941792
-0.079231843 0.10147236 0.78903478
-0.076414689 0.10142314 0.78865206
-0.07360027 0.10137396 0.78826964
-0.070788585 0.10132483 0.78788769
-0.067979619 0.10127576 0.78750604
-0.065173373 0.10122673 0.78712481
-0.062369838 0.10117774 0.78674388
-0.059569027 0.10112881 0.78636342
-0.056770913 0.10107992 0.78598326
-0.054837424 0.10264441 0.79814851
-0.052938953 0.10444713 0.81216615
-0.050972987 0.10631508 0.82669115
-0.048935216 0.10825063 0.84174168
-0.13610843 0.10523848 0.79649776
-0.13323681 0.10518695 0.79610777
-0.13036798 0.10513546 0.79571807
-0.12750195 0.10508402 0.7953288
-0.12463874 0.10503264 0.79493988
-0.12177832 0.10498132 0.79455143
-0.11892071 0.10493004 0.79416329
-0.11606587 0.10487881 0.79377556
-0.11321381 0.10482761 0.79338807
-0.11036456 0.10477648 0.79300112
-0.10751808 0.1047254 0.79261452
-0.10467437 0.10467437 0.79222828
-0.10183343 0.10462338 0.7918424
-0.098995253 0.10457245 0.79145694
-0.096159846 0.10452157 0.79107183
-0.093327194 0.10447074 0.79068714
-0.0904973 0.10441996 0.79030281
-0.087670155 0.10436923 0.78991884
-0.084845752 0.10431854 0.78953522
-0.08202409 0.10426791 0.78915203
-0.079205163 0.10421732 0.78876913
-0.076388985 0.10416679 0.7883867
-0.073575519 0.10411631 0.78800458
-0.070764787 0.10406587 0.78762281
-0.067956775 0.10401548 0.78724146
-0.065151483 0.10396513 0.78686041
-0.062348906 0.10391484 0.78647983
-0.059549037 0.1038646 0.78609955
-0.056751877 0.10381441 0.78571969
-0.054894496 0.10556634 0.79897916
-0.052995007 0.10742231 0.81302613
-0.051027965 0.10934564 0.82758284
-0.048988953 0.11133853 0.84266603
-0.13606218 0.10800812 0.79622704
-0.13319154 0.10795525 0.79583728
-0.13032371 0.10790242 0.79544789
-0.12745868 0.10784965 0.79505885
-0.12459645 0.10779693 0.79467022
-0.12173702 0.10774425 0.7942819
-0.11888039 0.10769165 0.79389405
-0.11602655 0.10763909 0.79350662
-0.11317549 0.10758658 0.79311949
-0.11032721 0.10753412 0.79273278
-0.10748171 0.10748171 0.79234642
-0.10463899 0.10742936 0.79196048
-0.10179903 0.10737705 0.7915749
-0.09896183 0.1073248 0.79118973
-0.096127391 0.1072726 0.79080486
-0.093295708 0.10722044 0.79042035
-0.090466782 0.10716835 0.79003632
-0.087640598 0.10711629 0.78965259
-0.084817171 0.10706429 0.78926927
-0.081996471 0.10701235 0.78888631
-0.079178512 0.10696045 0.78850371
-0.07636328 0.1069086 0.78812146
-0.073550783 0.1068568 0.78773963
-0.070741005 0.10680504 0.78735811
-0.067933947 0.10675335 0.78697699
-0.065129615 0.10670171 0.7865963
-0.062327977 0.1066501 0.78621584
-0.059529066 0.10659856 0.78583592
-0.056788348 0.10665128 0.7862246
-0.054951672 0.10849433 0.79981136
-0.053051181 0.11040381 0.81388789
-0.051083066 0.11238274 0.82847643
-0.04904281 0.11443322 0.84359241
-0.13601594 0.11077587 0.79595649
-0.1331463 0.11072166 0.79556698
-0.13027947 0.1106675 0.79517788
-0.12741543 0.11061339 0.79478908
-0.12455419 0.11055934 0.79440069
-0.12169577 0.11050536 0.79401278
-0.11884011 0.1104514 0.79362512
-0.11598726 0.11039752 0.79323792
-0.11313719 0.11034368 0.79285109
-0.11028989 0.11028989 0.79246461
-0.10744537 0.11023616 0.79207855
-0.10460363 0.11018249 0.79169285
-0.10176464 0.11012886 0.79130757
-0.098928414 0.11007528 0.79092258
-0.096094958 0.11002177 0.79053807
-0.093264244 0.10996829 0.7901538
-0.09043628 0.10991487 0.78976995
-0.087611079 0.10986151 0.78938657
-0.084788598 0.10980818 0.78900343
-0.081968874 0.10975493 0.78862077
-0.079151869 0.10970172 0.78823841
-0.076337606 0.10964856 0.78785646
-0.073526055 0.10959545 0.78747481
-0.070717245 0.10954239 0.78709364
-0.067911141 0.10948939 0.78671277
-0.065107755 0.10943644 0.78633231
-0.062307075 0.10938353 0.78595215
-0.059509106 0.10933068 0.78557241
-0.056846153 0.10953283 0.78702492
-0.055008978 0.11142844 0.80064541
-0.053107489 0.11339167 0.81475174
-0.051138282 0.11542641 0.82937199
-0.13596973 0.11354173 0.79568607
-0.13310108 0.11348619 0.79529679
-0.13023525 0.1134307 0.79490799
-0.12737221 0.11337526 0.79451948
-0.12451198 0.1133199 0.79413146
-0.12165453 0.11326457 0.79374373
-0.11879988 0.1132093 0.79335642
-0.11594801 0.11315408 0.79296947
-0.11309891 0.11309891 0.79258287
-0.1102526 0.11304381 0.79219669
-0.10740906 0.11298876 0.79181087
-0.1045683 0.11293375 0.79142547
-0.10173028 0.11287881 0.79104036
-0.098895043 0.11282392 0.79065573
-0.096062541 0.11276907 0.79027134
-0.09323281 0.11271429 0.78988749
-0.090405814 0.11265955 0.78950387
-0.087581575 0.11260488 0.78912073
-0.084760055 0.11255024 0.78873783
-0.081941284 0.11249566 0.78835535
-0.079125255 0.11244115 0.78797334
-0.076311938 0.11238667 0.78759158
-0.073501356 0.11233226 0.78721029
-0.070693493 0.1122779 0.78682929
-0.067888349 0.1122236 0.78644872
-0.065085903 0.11216933 0.78606844
-0.062286183 0.11211513 0.78568864
-0.059489157 0.11206097 0.78530908
-0.056904078 0.11242025 0.7878269
-0.055066399 0.11436868 0.80148119
-0.053163938 0.11638592 0.8156178
-0.051193621 0.11847667 0.83026946
-0.13632485 0.1166491 0.79776424
-0.13340612 0.11655482 0.79711944
-0.13049211 0.11646069 0.79647571
-0.12758279 0.11636671 0.79583299
-0.12467816 0.11627289 0.79519135
-0.12177822 0.11617922 0.79455072
-0.11888295 0.1160857 0.79391116
-0.11599233 0.11599233 0.79327255
-0.11310636 0.11589911 0.79263502
-0.11022502 0.11580604 0.79199851
-0.10737278 0.11573949 0.79154336
-0.10453297 0.11568315 0.79115814
-0.10169595 0.1156269 0.79077339
-0.098861672 0.11557069 0.79038894
-0.096030153 0.11551453 0.79000491
-0.093201384 0.11545843 0.78962123
-0.090375356 0.11540238 0.78923792
-0.087552078 0.11534639 0.78885496
-0.084731542 0.11529046 0.78847247
-0.081913732 0.11523457 0.78809023
-0.079098657 0.11517874 0.78770846
-0.076286294 0.11512296 0.78732693
-0.073476665 0.11506723 0.78694582
-0.070669755 0.11501157 0.78656512
-0.067865565 0.11495595 0.78618479
-0.06506408 0.1149004 0.78580487
-0.062265299 0.11484488 0.78542519
-0.059469227 0.11478943 0.78504598
-0.056962527 0.11531438 0.78863609
-0.05512394 0.11731505 0.80231869
-0.053220514 0.11938656 0.81648576
-0.051249076 0.12153352 0.83116883
-0.13387497 0.11978287 0.79992086
-0.13095033 0.11968578 0.79927254
-0.12803043 0.11958887 0.79862535
-0.12511526 0.11949211 0.79797918
-0.12220482 0.11939551 0.79733407
-0.11929905 0.11929905 0.79668993
-0.11639799 0.11920276 0.79604691
-0.11350161 0.11910663 0.79540491
-0.1106099 0.11901066 0.79476398
-0.10772284 0.11891482 0.79412401
-0.10484044 0.11881916 0.79348516
-0.10196265 0.11872363 0.79284722
-0.099089496 0.11862827 0.7922104
-0.096220948 0.11853305 0.79157454
-0.093357004 0.11843799 0.79093969
-0.090497658 0.11834309 0.79030591
-0.087642878 0.11824833 0.78967309
-0.084792674 0.11815373 0.78904134
-0.081947021 0.11805927 0.78841054
-0.079105929 0.11796498 0.78778088
-0.076269351 0.11787082 0.78715205
-0.073452003 0.11780038 0.78668165
-0.070646048 0.11774341 0.7863012
-0.067842804 0.11768649 0.7859211
-0.065042265 0.11762962 0.78554136
-0.062244438 0.11757282 0.78516203
-0.059449304 0.11751607 0.78478301
-0.057021089 0.11821446 0.78944689
-0.055181604 0.1202676 0.80315799
-0.053277209 0.12239359 0.81735551
-0.05130465 0.12459701 0.83207017
-0.1343471 0.12303366 0.80274194
-0.13141179 0.12293361 0.80208915
-0.12848124 0.12283371 0.80143732
-0.12555544 0.12273397 0.80078661
-0.1226344 0.1226344 0.80013692
-0.1197181 0.122535 0.79948837
-0.11680651 0.12243574 0.79884076
-0.11389965 0.12233666 0.79819429
-0.11099747 0.12223772 0.79754877
-0.1081 0.12213895 0.79690439
-0.10520719 0.12204034 0.79626095
-0.10231905 0.12194189 0.79561859
-0.099435583 0.1218436 0.79497731
-0.096556753 0.12174547 0.79433703
-0.09368255 0.12164749 0.79369777
-0.090812966 0.12154966 0.79305947
-0.087948002 0.121452 0.79242229
-0.085087635 0.1213545 0.79178613
-0.082231864 0.12125716 0.79115099
-0.079380661 0.12115996 0.79051685
-0.076534033 0.12106293 0.78988373
-0.073691957 0.12096605 0.78925163
-0.070854425 0.12086932 0.78862053
-0.068021432 0.12077275 0.78799045
-0.065192953 0.12067632 0.78736132
-0.062368996 0.12058006 0.78673327
-0.059549555 0.12048399 0.78610641
-0.057079781 0.12112051 0.79025948
-0.055239383 0.12322631 0.80399895
-0.053334024 0.12540703 0.81822717
-0.051360346 0.12766714 0.83297348
-0.13482259 0.12630747 0.80558306
-0.1318765 0.12620439 0.80492556
-0.12893522 0.12610148 0.80426919
-0.12599872 0.12599872 0.80361384
-0.12306702 0.12589616 0.80295962
-0.12014008 0.12579374 0.80230641
-0.11721791 0.12569149 0.80165428
-0.11430046 0.1255894 0.80100316
-0.11138777 0.12548749 0.80035323
-0.10847979 0.12538573 0.79970419
-0.10557653 0.12528415 0.79905629
-0.10267796 0.12518272 0.7984094
-0.099784099 0.12508148 0.79776365
-0.096894898 0.12498038 0.79711884
-0.094010368 0.12487944 0.79647511
-0.091130488 0.12477867 0.7958324
-0.088255256 0.12467806 0.79519069
-0.085384667 0.12457763 0.79455012
-0.082518682 0.12447734 0.7939105
-0.079657324 0.12437722 0.79327196
-0.076800548 0.12427726 0.79263437
-0.073948376 0.12417746 0.79199791
-0.071100779 0.12407783 0.79136246
-0.068257757 0.12397838 0.79072815
-0.065419301 0.1238791 0.79009497
-0.062585384 0.12377998 0.7894628
-0.059755992 0.12368101 0.78883153
-0.057138588 0.12403254 0.79107362
-0.055297285 0.12619124 0.8048417
-0.053390961 0.12842691 0.81910068
-0.05141617 0.13074398 0.83387882
-0.13530146 0.12960456 0.80844438
-0.13234453 0.12949841 0.80778223
-0.12939242 0.12939242 0.8071211
-0.12644516 0.12928662 0.80646116
-0.1235027 0.12918098 0.80580223
-0.12056506 0.12907553 0.80514443
-0.1176322 0.12897024 0.80448765
-0.11470412 0.12886514 0.80383199
-0.11178082 0.12876019 0.80317736
-0.10886227 0.12865542 0.80252385
-0.10594846 0.1285508 0.8018713
-0.10303941 0.12844639 0.80121994
-0.10013506 0.12834212 0.80056953
-0.097235419 0.12823802 0.7999202
-0.094340488 0.12813409 0.79927194
-0.091450244 0.12803034 0.79862475
-0.088564672 0.12792675 0.79797858
-0.085683756 0.12782331 0.79733336
-0.082807519 0.12772007 0.79668933
-0.079935923 0.127617 0.79604644
-0.07706897 0.12751412 0.79540467
-0.074206635 0.1274114 0.79476392
-0.071348913 0.12730885 0.79412425
-0.06849578 0.12720644 0.79348552
-0.065647244 0.12710424 0.79284793
-0.062803268 0.12700216 0.79221123
-0.059963867 0.12690027 0.79157567
-0.057197515 0.12695059 0.79188949
-0.055355314 0.1291624 0.8056863
-0.053448021 0.13145323 0.81997603
-0.051472109 0.13382749 0.83478606
-0.13281588 0.13281588 0.81065923
-0.12985289 0.13270679 0.80999339
-0.12689476 0.13259789 0.80932868
-0.12394148 0.13248917 0.8086651
-0.12099304 0.13238062 0.80800253
-0.11804944 0.13227226 0.80734116
-0.11511064 0.13216408 0.8066808
-0.11217666 0.13205607 0.80602157
-0.10924745 0.13194823 0.80536336
-0.10632304 0.13184057 0.80470628
-0.10340339 0.13173309 0.80405021
-0.1004885 0.13162579 0.80339527
-0.097578347 0.13151865 0.80274135
-0.094672933 0.13141169 0.8020885
-0.091772243 0.1313049 0.80143672
-0.088876277 0.13119832 0.8007862
-0.085985027 0.13109192 0.8001368
-0.083098449 0.13098569 0.79948843
-0.080216549 0.13087963 0.79884106
-0.077339321 0.13077375 0.79819483
-0.074466728 0.13066803 0.79754955
-0.071598783 0.13056248 0.79690534
-0.068735465 0.13045712 0.79626215
-0.065876774 0.13035192 0.79562008
-0.063022681 0.13024688 0.79497898
-0.060173191 0.13014202 0.79433894
-0.05732828 0.13003731 0.79369986
-0.055413458 0.13213979 0.80653256
-0.053505197 0.13448603 0.82085323
-0.051528171 0.13691771 0.83569527
-0.1332906 0.13615707 0.81355673
-0.13031664 0.13604484 0.81288618
-0.12734757 0.1359328 0.8122167
-0.12438339 0.13582094 0.81154835
-0.12142409 0.13570929 0.81088114
-0.11846964 0.13559778 0.81021494
-0.11552006 0.13548648 0.80954993
-0.1125753 0.13537537 0.80888593
-0.10963538 0.13526443 0.80822313
-0.10670026 0.13515367 0.80756128
-0.10376996 0.1350431 0.80690062
-0.10084444 0.13493271 0.80624104
-0.097923741 0.13482255 0.80558276
-0.095007792 0.13471255 0.8049255
-0.092096604 0.13460273 0.80426937
-0.089190155 0.1344931 0.80361426
-0.086288445 0.13438365 0.80296028
-0.083391435 0.13427435 0.80230725
-0.08049915 0.13416524 0.80165535
-0.077611551 0.13405631 0.80100447
-0.074728645 0.13394758 0.80035472
-0.071850412 0.133839 0.79970598
-0.068976842 0.13373061 0.79905832
-0.066107914 0.13362238 0.79841161
-0.063243635 0.13351434 0.79776609
-0.060383983 0.13340648 0.79712158
-0.057528943 0.13329877 0.79647803
-0.055471726 0.13512343 0.80738062
-0.0535625 0.13752533 0.82173234
-0.051584356 0.14001468 0.8366065
-0.13376872 0.13952222 0.81647503
-0.13078371 0.13940682 0.81579965
-0.12780362 0.1392916 0.81512541
-0.12482847 0.13917656 0.81445229
-0.1218582 0.13906172 0.81378019
-0.11889286 0.13894708 0.81310934
-0.11593239 0.13883261 0.8124395
-0.1129768 0.13871835 0.8117708
-0.11002609 0.1386043 0.8111034
-0.10708024 0.13849044 0.81043708
-0.10413922 0.13837677 0.80977196
-0.10120302 0.13826329 0.80910784
-0.098271653 0.13815001 0.80844492
-0.095345065 0.13803689 0.80778295
-0.092423275 0.13792396 0.80712211
-0.089506254 0.13781121 0.80646235
-0.086594008 0.13769867 0.80580372
-0.083686508 0.1375863 0.8051461
-0.080783755 0.1374741 0.80448961
-0.077885717 0.13736209 0.80383408
-0.074992418 0.13725027 0.80317974
-0.072103813 0.13713863 0.80252641
-0.06921991 0.13702717 0.80187416
-0.066340685 0.13691588 0.80122292
-0.063466139 0.13680479 0.80057281
-0.06059625 0.13669387 0.79992366
-0.057731017 0.13658313 0.7992757
-0.05553012 0.13811338 0.80823058
-0.053619929 0.14057116 0.82261336
-0.05164066 0.1431184 0.83751965
-0.1342503 0.1429116 0.81941432
-0.13125414 0.14279297 0.81873411
-0.12826295 0.14267452 0.81805497
-0.12527673 0.14255628 0.81737703
-0.12229546 0.14243825 0.81670022
-0.11931916 0.14232044 0.81602478
-0.11634776 0.14220281 0.81535035
-0.11338128 0.1420854 0.81467712
-0.11041969 0.14196818 0.81400496
-0.10746298 0.14185114 0.81333393
-0.10451114 0.14173429 0.81266397
-0.10156417 0.14161764 0.81199515
-0.098622039 0.14150119 0.8113274
-0.095684744 0.14138491 0.81066078
-0.092752263 0.14126883 0.80999517
-0.089824609 0.14115296 0.80933076
-0.086901747 0.14103726 0.80866736
-0.083983675 0.14092176 0.80800515
-0.081070378 0.14080645 0.80734396
-0.078161836 0.14069131 0.80668378
-0.075258054 0.14057636 0.80602473
-0.072359011 0.14046161 0.80536675
-0.069464698 0.14034705 0.80470991
-0.066575103 0.14023267 0.80405408
-0.063690223 0.14011848 0.80339938
-0.060810022 0.14000447 0.80274564
-0.057934515 0.13989066 0.80209309
-0.055588633 0.1411096 0.80908221
-0.053677473 0.14362352 0.82349622
-0.051697094 0.14622892 0.83843488
-0.13473535 0.14632548 0.82237488
-0.13172801 0.14620361 0.82168996
-0.12872568 0.14608194 0.82100618
-0.12572834 0.14596049 0.82032359
-0.12273598 0.14583921 0.81964201
-0.11974859 0.14571817 0.81896168
-0.11676615 0.14559731 0.81828243
-0.11378867 0.14547665 0.81760436
-0.11081611 0.14535619 0.81692731
-0.10784847 0.14523594 0.81625146
-0.10488573 0.14511587 0.81557667
-0.10192789 0.14499602 0.81490308
-0.098974928 0.14487635 0.8142305
-0.096026853 0.1447569 0.81355917
-0.093083613 0.14463761 0.8128888
-0.09014523 0.14451855 0.81221962
-0.087211676 0.14439966 0.81155145
-0.08428295 0.14428098 0.81088448
-0.081359036 0.14416251 0.81021857
-0.078439914 0.14404421 0.80955374
-0.075525582 0.1439261 0.80888999
-0.072616026 0.14380822 0.80822742
-0.069711231 0.1436905 0.80756581
-0.066811189 0.14357297 0.80690533
-0.063915879 0.14345564 0.80624592
-0.06102531 0.14333852 0.80558765
-0.058139451 0.14322157 0.80493039
-0.055647273 0.14411217 0.80993569
-0.053735148 0.14668244 0.82438105
-0.051753648 0.14934623 0.83935207
-0.10526301 0.14852178 0.81851035
-0.10229424 0.14839868 0.81783193
-0.099330366 0.14827576 0.81715453
-0.096371405 0.14815305 0.81647831
-0.093417332 0.14803053 0.81580311
-0.090468153 0.14790826 0.81512916
-0.087523833 0.14778614 0.81445622
-0.084584378 0.14766425 0.81378448
-0.081649758 0.14754255 0.81311375
-0.078719981 0.14742105 0.81244421
-0.075795017 0.14729975 0.81177568
-0.072874866 0.14717865 0.81110835
-0.069959514 0.14705776 0.81044203
-0.067048952 0.14693706 0.8097769
-0.064143151 0.14681654 0.80911273
-0.061242126 0.14669625 0.8084498
-0.058345839 0.14657614 0.80778784
-0.055706039 0.14712107 0.81079102
-0.053792946 0.14974792 0.82526773
-0.051810324 0.15247038 0.84027129
-0.07020957 0.15044908 0.81333882
-0.067288406 0.15032516 0.81266892
-0.064372048 0.15020144 0.81200004
-0.06146048 0.15007792 0.81133229
-0.058553699 0.1499546 0.81066561
-0.055764932 0.15013635 0.81164819
-0.053850867 0.15282002 0.82615632
