# .PCD v0.7 - Point Cloud Data file format
VERSION 0.7
FIELDS x y z
SIZE 4 4 4
TYPE F F F
COUNT 1 1 1
WIDTH 1085
HEIGHT 1
VIEWPOINT 0 0 0 1 0 0 0
POINTS 1085
DATA ascii
0.046398487 0.0044901762 0.84959781
0.049217593 0.0044743265 0.84659886
0.034516353 0.0075035547 0.85186017
0.037385099 0.0074770199 0.84884775
0.040233605 0.0074506677 0.84585601
0.043061998 0.0074244826 0.84288329
0.045870587 0.0073984819 0.83993149
0.048659563 0.007372661 0.83700013
0.025489492 0.010495673 0.85110575
0.028387604 0.01045859 0.8480987
0.031265307 0.01042177 0.8451128
0.034122787 0.010385197 0.84214705
0.036960203 0.010348857 0.83920026
0.039777834 0.010312771 0.83627403
0.042575885 0.010276938 0.83336824
0.045354556 0.010241351 0.83048248
0.04811405 0.010206011 0.82761669
0.050854564 0.010170913 0.82477057
0.016478607 0.013482497 0.8503527
0.019405974 0.013434905 0.84735101
0.022312742 0.013387646 0.84437031
0.025199132 0.013340717 0.84141052
0.028065326 0.013294102 0.8384704
0.030911501 0.013247787 0.83554929
0.033737913 0.013201793 0.8326484
0.036544774 0.013156119 0.8297677
0.039332271 0.013110758 0.82690674
0.04210062 0.013065709 0.82406551
0.04485001 0.013020971 0.82124382
0.04758063 0.012976536 0.81844127
0.050292678 0.012932403 0.81565779
0.0045061419 0.016522521 0.85261875
0.0074836551 0.016464042 0.84960103
0.010440165 0.016405974 0.84660453
0.013375894 0.016348315 0.84362912
0.01629106 0.01629106 0.84067458
0.019185876 0.016234202 0.83774054
0.022060523 0.016177718 0.83482569
0.024915202 0.016121602 0.83192992
0.027750142 0.016065871 0.82905412
0.030565549 0.016010525 0.82619804
0.033361629 0.015955562 0.82336175
0.036138576 0.015900973 0.82054478
0.038896583 0.015846757 0.817747
0.041635852 0.015792908 0.81496829
0.044356562 0.015739426 0.81220835
0.047139686 0.01571323 0.81085652
0.049964387 0.015703093 0.81033349
-0.0045021479 0.019509308 0.85186303
-0.0014954089 0.019440316 0.84885055
0.0014901396 0.019371815 0.84585947
0.0044547208 0.019303789 0.84288919
0.007398556 0.019236244 0.83993989
0.010321859 0.019169167 0.83701098
0.013224848 0.019102558 0.83410251
0.016107701 0.019036373 0.83121258
0.018970624 0.018970624 0.82834166
0.021813842 0.018905329 0.82549065
0.024637552 0.018840481 0.82265908
0.02744196 0.018776078 0.81984693
0.030227261 0.018712113 0.81705397
0.032993644 0.018648582 0.81427991
0.035741307 0.018585479 0.81152457
0.038571354 0.018571394 0.81090951
0.041401774 0.018559417 0.81038654
0.044228543 0.018547455 0.80986422
0.047051668 0.018535506 0.8093425
0.04987118 0.018523581 0.80882186
0.05268706 0.01851167 0.80830175
-0.013494483 0.022490805 0.85110867
-0.010458626 0.022411341 0.84810156
-0.0074441456 0.022332437 0.8451156
-0.0044508176 0.022254089 0.84215069
-0.0014784189 0.022176284 0.8392064
0.0014732684 0.022099026 0.83628273
0.0044044601 0.022022301 0.83337927
0.0073153689 0.021946106 0.83049589
0.010206182 0.02187039 0.82763058
0.013077106 0.021795178 0.82478434
0.015928352 0.02172048 0.82195765
0.018760124 0.021646297 0.81915033
0.021572614 0.021572614 0.81636202
0.024366025 0.021499434 0.81359267
0.027162112 0.021443773 0.8114863
0.030001905 0.021429932 0.81096256
0.032838035 0.021416111 0.81043953
0.035670511 0.021402307 0.80991715
0.038499337 0.021388521 0.80939543
0.041324515 0.021374749 0.80887431
0.044146065 0.021360999 0.80835396
0.046964001 0.021347273 0.80783451
0.049778316 0.021333564 0.80731577
0.052589018 0.021319874 0.80679762
-0.025557565 0.025557565 0.85337871
-0.022470905 0.025467025 0.85035557
-0.019406037 0.025377126 0.84735382
-0.016362732 0.025287859 0.84437311
-0.013340763 0.025199218 0.84141338
-0.010339905 0.025111197 0.83847427
-0.0073599373 0.025023786 0.83555561
-0.004400644 0.024936983 0.83265722
-0.0014618107 0.024850782 0.82977891
0.0014567748 0.024765171 0.82692033
0.0043553091 0.024680085 0.82407928
0.0072339927 0.024595575 0.82125747
0.010093029 0.024511641 0.81845486
0.012932617 0.024428276 0.81567127
0.015752958 0.02434548 0.81290668
0.01858582 0.024304535 0.81153947
0.021431336 0.024288848 0.81101567
0.024273179 0.024273179 0.81049252
0.027111361 0.024257533 0.80997008
0.029945882 0.024241906 0.80944824
0.032776754 0.024226299 0.80892712
0.035603989 0.024210712 0.80840671
0.038427584 0.024195144 0.8078869
0.041247554 0.0241796 0.80736786
0.044063911 0.024164081 0.80684966
0.046876658 0.024148582 0.80633211
0.049685799 0.024133103 0.80581528
0.052491341 0.024117643 0.8052991
-0.02526566 0.028238092 0.84363192
-0.022215154 0.028139194 0.84067732
-0.019185942 0.02804099 0.8377434
-0.016177798 0.02794347 0.83482987
-0.013190504 0.027846619 0.83193642
-0.010223848 0.027750444 0.82906312
-0.0072776116 0.027654925 0.82620943
-0.0043515894 0.027560066 0.82337546
-0.0014455671 0.027465774 0.82055843
0.0014406381 0.027372124 0.81776053
0.0043072281 0.027279112 0.81498176
0.0071544019 0.027186727 0.81222171
0.010008404 0.02716567 0.81159258
0.012859643 0.027148135 0.81106871
0.015707202 0.027130624 0.81054556
0.018551089 0.02711313 0.81002295
0.021391314 0.027095664 0.80950111
0.02422788 0.027078219 0.80897993
0.027060797 0.027060797 0.80845946
0.02989007 0.027043397 0.80793959
0.032715704 0.027026016 0.80742037
0.035537712 0.027008662 0.80690187
0.038356099 0.02699133 0.80638409
0.041170888 0.026974028 0.8058672
0.043982062 0.026956748 0.8053509
0.046789639 0.026939489 0.80483532
0.04959362 0.02692225 0.80432028
0.052394021 0.026905039 0.80380607
0.055190839 0.026887845 0.80329239
-0.024980351 0.030858081 0.83410531
-0.021965161 0.030751225 0.83121693
-0.018970778 0.030645104 0.82834846
-0.015996994 0.030539718 0.82549983
-0.013043594 0.03043505 0.82267064
-0.010110363 0.030331092 0.81986058
-0.0071970858 0.03022776 0.8170675
-0.0043035899 0.030125128 0.81429332
-0.0014307899 0.03004659 0.81217039
0.0014298657 0.030027181 0.81164575
0.004286828 0.030007798 0.81112182
0.0071401047 0.029988438 0.81059855
0.0099897012 0.029969104 0.81007594
0.012835626 0.029949794 0.80955398
0.015677886 0.029930511 0.80903274
0.01851649 0.029911254 0.80851221
0.02135144 0.029892016 0.80799222
0.02418275 0.029872809 0.807473
0.027010418 0.029853621 0.80695438
0.02983446 0.02983446 0.80643648
0.032654878 0.029815324 0.80591917
0.035471693 0.02979622 0.80540282
0.038284898 0.029777141 0.80488712
0.041094501 0.029758088 0.80437207
0.043900512 0.029739058 0.80385768
0.04670294 0.029720051 0.80334395
0.049501788 0.029701073 0.80283093
0.052297063 0.029682117 0.80231857
0.055088777 0.029663187 0.80180687
-0.024701409 0.033419553 0.82479131
-0.02172073 0.03330512 0.82196707
-0.018760391 0.033191461 0.81916201
-0.015820179 0.033078559 0.81637555
-0.012899873 0.032966342 0.81360608
-0.010016186 0.032910325 0.81222361
-0.0071497969 0.032889064 0.81169891
-0.0042871088 0.032867834 0.81117493
-0.0014281143 0.032846626 0.81065154
0.0014271934 0.032825451 0.81012887
0.0042788219 0.032804299 0.80960691
0.0071267779 0.032783177 0.80908561
0.0099710673 0.03276208 0.8085649
0.0128117 0.03274101 0.80804491
0.01564868 0.032719966 0.80752558
0.018482016 0.032698952 0.80700696
0.021311717 0.032677967 0.80648899
0.024137786 0.032657001 0.80597162
0.026960231 0.032636069 0.80545497
0.029779058 0.032615159 0.80493891
0.03259429 0.03259429 0.80442387
0.035405919 0.032573447 0.80390942
0.03821395 0.032552626 0.80339557
0.0410184 0.032531835 0.80288249
0.043819267 0.03251107 0.80237001
0.046616565 0.032490335 0.80185825
0.049410295 0.032469623 0.80134708
0.052200466 0.03244894 0.80083662
0.054987084 0.03242828 0.80032676
-0.024428634 0.035924461 0.81568319
-0.021481659 0.035802767 0.81292003
-0.018602708 0.03577444 0.8122769
-0.015730584 0.035751328 0.81175214
-0.012862167 0.035728242 0.81122798
-0.0099974535 0.035705194 0.81070459
-0.0071364339 0.035682172 0.81018186
-0.0042791013 0.035659175 0.80965978
-0.0014254486 0.035636216 0.80913842
0.0014245312 0.03561328 0.80861765
0.0042708451 0.035590377 0.8080976
0.0071135 0.0355675 0.80757821
0.0099525033 0.035544656 0.80705953
0.012787861 0.035521835 0.80654138
0.015619582 0.035499051 0.80602401
0.018447673 0.035476297 0.80550736
0.02127214 0.035453565 0.8049913
0.024092989 0.035430863 0.80447584
0.026910231 0.035408199 0.80396116
0.029723875 0.035385568 0.80344731
0.032533925 0.035362963 0.80293405
0.035340387 0.035340387 0.80242151
0.03814327 0.035317842 0.80190963
0.040942583 0.03529533 0.80139846
0.043738324 0.035272844 0.80088788
0.046530508 0.035250384 0.80037796
0.049319141 0.035227958 0.7998687
0.052104224 0.035205558 0.7993601
0.054885764 0.035183184 0.79885209
0.057663772 0.035160836 0.79834473
-0.021438349 0.038589031 0.81128109
-0.018567914 0.038564131 0.81075764
-0.015701182 0.038539264 0.81023484
-0.012838143 0.038514428 0.80971271
-0.0099787908 0.038489621 0.80919117
-0.0071231206 0.038464852 0.8086704
-0.0042711236 0.038440112 0.80815029
-0.0014227927 0.038415402 0.80763084
0.0014218787 0.038390726 0.80711204
0.0042628977 0.038366079 0.80659389
0.007100272 0.03834147 0.80607647
0.0099340081 0.038316887 0.80555969
0.012764114 0.038292341 0.80504364
0.015590592 0.038267817 0.80452806
0.018413456 0.038243335 0.80401331
0.021232709 0.038218878 0.80349916
0.02404836 0.038194451 0.80298567
0.026860418 0.038170069 0.80247301
0.029668892 0.038145717 0.80196106
0.032473784 0.038121402 0.80144984
0.035275105 0.038097113 0.8009392
0.038072854 0.038072854 0.80042922
0.040867042 0.038048625 0.79991984
0.043657679 0.038024429 0.79941118
0.04644477 0.038000267 0.79890317
0.049228314 0.037976127 0.79839569
0.052008331 0.037952024 0.79788893
0.054784823 0.037927955 0.79738289
0.057557788 0.037903909 0.79687738
-0.021398302 0.041370049 0.80976558
-0.01853325 0.041343406 0.80924404
-0.015671888 0.041316796 0.80872321
-0.012814207 0.041290224 0.80820304
-0.0099601969 0.041263673 0.80768341
-0.0071098567 0.041237168 0.80716461
-0.0042631752 0.041210696 0.80664641
-0.0014201468 0.041184258 0.80612892
0.0014192363 0.041157853 0.80561209
0.0042549805 0.041131478 0.80509585
0.0070870933 0.04110514 0.80458033
0.0099155819 0.041078839 0.80406547
0.012740452 0.041052569 0.80355126
0.01556171 0.041026328 0.80303764
0.018379366 0.041000124 0.80252475
0.021193426 0.040973958 0.80201256
0.024003902 0.040947832 0.80150121
0.026810797 0.04092174 0.80099052
0.029614117 0.040895686 0.80048048
0.032413866 0.040869657 0.79997104
0.035210058 0.040843669 0.79946232
0.038002692 0.040817708 0.79895419
0.040791783 0.040791783 0.79844677
0.043577325 0.040765885 0.79793984
0.046359342 0.040740028 0.79743367
0.049137827 0.040714201 0.79692817
0.051912792 0.040688407 0.79642326
0.054684248 0.040662646 0.79591906
0.057452194 0.040636919 0.79541546
-0.021358404 0.0441407 0.80825573
-0.018498715 0.044112321 0.8077361
-0.015642704 0.044083983 0.80721718
-0.012790359 0.044055678 0.80669892
-0.0099416748 0.044027414 0.80618137
-0.0070966422 0.04399918 0.80566436
-0.0042552566 0.043970987 0.80514812
-0.0014175107 0.043942831 0.80463254
0.0014166036 0.043914709 0.80411762
0.0042470922 0.043886621 0.80360329
0.0070739631 0.043858569 0.80308968
0.0098972227 0.043830559 0.80257672
0.012716878 0.043802578 0.80206442
0.015532936 0.043774638 0.80155277
0.018345404 0.043746732 0.80104184
0.021154296 0.043718874 0.80053174
0.023959609 0.04369105 0.80002224
0.026761357 0.043663267 0.79951346
0.02955954 0.043635514 0.79900527
0.032354169 0.043607794 0.79849774
0.035145253 0.043580111 0.79799086
0.037932791 0.043552462 0.79748458
0.040716793 0.04352485 0.79697895
0.043497272 0.043497272 0.79647398
0.04627423 0.043469731 0.79596967
0.049047671 0.043442223 0.79546601
0.051817611 0.043414753 0.794963
0.054584045 0.043387316 0.79446059
0.057346988 0.043359917 0.7939589
0.060106434 0.043332547 0.79345769
-0.021318654 0.04690104 0.80675149
-0.01846431 0.046870939 0.80623376
-0.015613628 0.046840884 0.80571675
-0.012766601 0.046810869 0.80520046
-0.0099232197 0.046780892 0.80468482
-0.0070834775 0.046750952 0.80416983
-0.0042473678 0.046721049 0.80365545
-0.0014148843 0.046691183 0.80314177
0.0014139805 0.046661358 0.8026287
0.0042392337 0.046631571 0.80211633
0.0070608817 0.046601817 0.80160457
0.0098789316 0.046572108 0.80109352
0.012693391 0.046542436 0.80058312
0.015504269 0.046512805 0.80007344
0.018311571 0.046483219 0.79956454
0.021115307 0.046453677 0.79905635
0.023915479 0.046424165 0.79854876
0.026712097 0.046394695 0.79804182
0.029505165 0.046365257 0.79753548
0.032294691 0.046335861 0.79702979
0.035080682 0.046306502 0.79652476
0.037863147 0.046277177 0.79602039
0.040642086 0.046247892 0.79551661
0.043417513 0.046218645 0.79501355
0.046189435 0.046189435 0.79451108
0.048957851 0.046160262 0.79400927
0.051722772 0.046131123 0.79350805
0.0544842 0.046102013 0.79300737
0.057242159 0.046072956 0.79250753
0.059996635 0.046043929 0.79200822
-0.018430034 0.049619321 0.80473709
-0.01558466 0.049587555 0.80422193
-0.01274293 0.049555838 0.80370754
-0.0099048326 0.049524162 0.80319381
-0.0070703607 0.049492527 0.80268073
-0.0042395075 0.049460925 0.80216819
-0.0014122677 0.049429368 0.80165642
0.0014113672 0.049397852 0.80114532
0.004231404 0.049366381 0.80063486
0.0070478488 0.049334943 0.800125
0.0098607074 0.049303539 0.79961568
0.012669994 0.049272198 0.79910743
0.015475711 0.049240898 0.79859978
0.018277865 0.049209636 0.79809272
0.021076463 0.049178414 0.79758638
0.023871511 0.04914723 0.79708064
0.026663017 0.049116082 0.79657549
0.029450988 0.04908498 0.79607105
0.032235432 0.049053919 0.79556727
0.03501635 0.049022891 0.79506409
0.037793756 0.048991907 0.79456156
0.040567655 0.048960961 0.79405969
0.043338045 0.048930053 0.79355842
0.046104945 0.048899185 0.7930578
0.048868351 0.048868351 0.79255772
0.051628277 0.048837561 0.79205835
0.054384727 0.048806805 0.79155958
0.05715875 0.048794053 0.79135275
0.059959147 0.048803959 0.79151338
-0.01839588 0.052357506 0.80324584
-0.015555801 0.052324057 0.80273271
-0.012719347 0.052290648 0.80222017
-0.0098865135 0.052257285 0.80170828
-0.0070572924 0.052223966 0.80119711
-0.0042316774 0.052190688 0.8006866
-0.0014096607 0.052157447 0.80017662
0.0014087636 0.052124251 0.79966736
0.0042236028 0.052091099 0.79915875
0.0070348633 0.052057989 0.7986508
0.009842555 0.052024934 0.79814368
0.012646684 0.051991925 0.79763728
0.015447257 0.051958956 0.79713148
0.018244281 0.051926032 0.79662633
0.021037761 0.051893141 0.79612178
0.023827704 0.051860295 0.79561788
0.026614118 0.051827494 0.79511464
0.029397011 0.051794734 0.79461205
0.03217639 0.051762018 0.79411012
0.034952257 0.05172934 0.79360878
0.037724622 0.051696703 0.79310811
0.040493488 0.051664107 0.79260802
0.043258864 0.051631548 0.79210854
0.046020761 0.051599033 0.7916097
0.048811156 0.051600367 0.79163015
0.051610846 0.051610846 0.7917909
0.054411665 0.051621322 0.79195166
0.057213631 0.051631812 0.79211259
0.060016736 0.051642306 0.79227358
0.062820971 0.0516528 0.79243457
-0.018361857 0.05508557 0.8017602
-0.015527047 0.05505044 0.80124891
-0.012695852 0.055015355 0.80073828
-0.0098682623 0.054980319 0.8002283
-0.0070442725 0.054945324 0.79971898
-0.0042238752 0.054910377 0.79921031
-0.0014070634 0.054875474 0.7987023
0.0014061695 0.054840609 0.79819489
0.0042158305 0.054805797 0.79768819
0.0070219287 0.054771043 0.79718232
0.0098244697 0.054736331 0.79667711
0.01262346 0.05470166 0.7961725
0.015418908 0.054667037 0.79566854
0.018210819 0.054632459 0.79516524
0.020999201 0.054597922 0.79466259
0.023784058 0.054563429 0.79416054
0.026565401 0.054528981 0.79365915
0.029343233 0.054494575 0.79315841
0.032117561 0.054460213 0.79265827
0.034888394 0.054425895 0.79215878
0.03765988 0.054397602 0.79174697
0.040457711 0.054408647 0.79190773
0.043256685 0.0544197 0.7920686
0.046056796 0.054430757 0.79222953
0.048858043 0.054441817 0.79239053
0.051660426 0.054452885 0.79255158
0.054463953 0.054463953 0.79271269
0.057268627 0.054475036 0.79287398
0.06007443 0.054486111 0.79303521
0.06288138 0.054497194 0.7931965
-0.018327957 0.057803556 0.80027997
-0.0154984 0.057766762 0.79977059
-0.012672443 0.057730019 0.79926187
-0.0098500783 0.057693318 0.79875374
-0.0070313006 0.057656664 0.79824632
-0.004216102 0.05762006 0.79773951
-0.0014044755 0.0575835 0.79723334
0.0014035852 0.057546992 0.7967279
0.0042080884 0.05751054 0.79622322
0.007009041 0.05747414 0.79571927
0.0098064486 0.057437774 0.79521579
0.012600321 0.057401463 0.79471308
0.015390663 0.057365201 0.79421103
0.018177481 0.05732898 0.79370958
0.020960782 0.057292804 0.79320872
0.023740573 0.057256673 0.79270852
0.02651686 0.057220593 0.79220897
0.029301288 0.057207275 0.79202461
0.032098405 0.057218898 0.79218549
0.034896664 0.057230528 0.79234654
0.037696056 0.057242159 0.79250753
0.040496588 0.057253793 0.79266864
0.043298256 0.057265434 0.79282981
0.046101063 0.05727708 0.79299104
0.048905015 0.057288732 0.79315233
0.051710106 0.057300389 0.79331374
0.054516342 0.057312053 0.79347521
0.057323717 0.057323717 0.79363668
0.060132232 0.05733538 0.79379821
0.062941894 0.057347059 0.79395986
-0.015469857 0.060473077 0.7982977
-0.01264912 0.060434684 0.79779088
-0.0098319612 0.060396332 0.7972846
-0.0070183761 0.060358036 0.79677904
-0.0042083571 0.060319781 0.79627407
-0.0014018974 0.06028159 0.79576987
0.0014010106 0.060243454 0.79526645
0.0042003742 0.060205363 0.79476362
0.0069962004 0.060167324 0.79426146
0.0097884955 0.06012933 0.79375994
0.012577267 0.060091391 0.79325908
0.015362522 0.060053494 0.79275882
0.018144265 0.060015649 0.79225922
0.020936834 0.060018927 0.79230249
0.023733236 0.060031127 0.79246354
0.026530772 0.060043324 0.79262459
0.029329445 0.060055532 0.7927857
0.032129262 0.060067747 0.79294699
0.034930211 0.060079962 0.79310822
0.037732303 0.060092185 0.79326957
0.040535536 0.060104415 0.79343104
0.043339904 0.060116645 0.79359245
0.046145421 0.060128879 0.79375398
0.048952084 0.060141135 0.79391575
0.051759884 0.06015338 0.7940774
0.054568827 0.060165629 0.7942391
0.05737891 0.060177881 0.79440087
0.060190145 0.060190145 0.79456276
0.063002519 0.060202409 0.79472464
-0.01544142 0.063169442 0.79683024
-0.012625882 0.06312941 0.79632527
-0.0098139113 0.06308943 0.79582089
-0.0070054987 0.063049488 0.79531711
-0.0042006415 0.063009627 0.79481423
-0.0013993289 0.062969804 0.79431194
0.0013984453 0.06293004 0.79381037
0.0041926885 0.062890328 0.79330939
0.0069834068 0.062850662 0.79280907
0.0097719664 0.062819786 0.79241955
0.012566511 0.062832549 0.7925806
0.01536219 0.062845327 0.79274172
0.018159008 0.062858097 0.79290289
0.020956961 0.06287089 0.79306418
0.023756055 0.062883675 0.79322547
0.026556285 0.062896468 0.79338682
0.029357659 0.062909268 0.79354835
0.03216017 0.062922075 0.79370987
0.034963824 0.062934883 0.7938714
0.037768621 0.062947698 0.79403311
0.040574558 0.06296052 0.79419482
0.043381635 0.062973343 0.79435658
0.046189871 0.062986188 0.79451859
0.048999239 0.062999018 0.79468048
0.05180975 0.063011862 0.79484242
0.054621413 0.063024707 0.79500449
0.057434216 0.063037552 0.79516655
0.06024817 0.063050412 0.79532874
0.063063271 0.063063271 0.79549092
0.065879531 0.063076146 0.79565334
-0.015413088 0.06585592 0.79536819
-0.012602729 0.065814249 0.79486495
-0.0097959265 0.065772645 0.79436249
-0.0069926712 0.065731108 0.79386079
-0.0041929544 0.065689623 0.79335976
-0.00139677 0.065648191 0.79285938
0.0013964851 0.065634802 0.79269767
0.0041903071 0.065648146 0.79285884
0.0069852662 0.065661505 0.79302013
0.0097813616 0.065674856 0.79318142
0.012578594 0.065688215 0.79334277
0.015376966 0.065701582 0.79350424
0.018176477 0.065714955 0.79366571
0.020977126 0.065728329 0.79382724
0.023778917 0.06574171 0.79398888
0.026581852 0.065755107 0.79415065
0.029385924 0.065768495 0.79431236
0.032191139 0.065781899 0.79447418
0.034997504 0.065795302 0.79463613
0.037805006 0.065808713 0.79479808
0.040613655 0.065822124 0.79496008
0.043423455 0.065835558 0.79512233
0.046234395 0.065848984 0.79528445
0.049046483 0.065862417 0.79544669
0.051859714 0.065875851 0.79560894
0.054674096 0.065889299 0.7957713
0.05748963 0.065902747 0.79593372
0.060306311 0.065916196 0.79609621
0.063124143 0.065929659 0.79625881
0.065943122 0.065943122 0.79642141
-0.012579663 0.068489276 0.79341012
-0.0097780107 0.06844607 0.79290968
-0.0069848779 0.068451807 0.79297608
-0.0041917791 0.068465725 0.79313731
-0.0013975439 0.06847965 0.79329866
0.0013978282 0.068493582 0.79346007
0.0041943383 0.06850753 0.7936216
0.0069919876 0.068521477 0.79378319
0.0097907754 0.068535425 0.79394478
0.012590703 0.06854938 0.79410642
0.015391771 0.068563342 0.79426819
0.018193979 0.068577304 0.79442996
0.020997332 0.068591289 0.7945919
0.023801828 0.068605267 0.79475385
0.026607463 0.068619244 0.7949158
0.029414244 0.068633236 0.79507786
0.032222174 0.068647236 0.79524004
0.035031244 0.068661243 0.79540229
0.037841462 0.06867525 0.79556453
0.040652834 0.068689264 0.79572695
0.043465346 0.068703286 0.79588938
0.046279009 0.068717316 0.79605186
0.049093816 0.068731338 0.79621434
0.051909775 0.068745375 0.79637694
0.054726884 0.068759419 0.7965396
0.057545144 0.068773463 0.79670233
0.060364563 0.06878753 0.79686522
0.063185126 0.068801582 0.79702806
0.066006847 0.068815649 0.79719102
-0.012579756 0.071285285 0.79341602
-0.0097862454 0.071299791 0.79357749
-0.0069915983 0.071314305 0.79373902
-0.0041958131 0.071328819 0.79390061
-0.0013988891 0.071343347 0.79406226
0.0013991741 0.071357876 0.79422402
0.0041983775 0.071372412 0.79438579
0.006998721 0.071386956 0.79454762
0.0098002059 0.071401507 0.79470956
0.012602833 0.07141605 0.79487151
0.015406603 0.071430616 0.79503357
0.018211517 0.071445189 0.79519576
0.021017576 0.071459755 0.79535794
0.023824777 0.071474336 0.79552019
0.026633127 0.071488917 0.79568249
0.029442621 0.071503513 0.79584491
0.032253262 0.071518101 0.79600734
0.035065051 0.071532704 0.79616988
0.037877996 0.071547329 0.7963326
0.04069208 0.071561933 0.7964952
0.043507319 0.071576558 0.79665792
0.046323705 0.071591184 0.7968207
0.049141243 0.071605809 0.79698354
0.051959932 0.071620449 0.79714644
0.054779772 0.07163509 0.7973094
0.057600774 0.071649745 0.79747254
0.060422927 0.0716644 0.79763567
0.063246228 0.071679063 0.79779881
0.066070691 0.071693726 0.79796207
0.068896309 0.071708404 0.79812539
-0.012591866 0.074152097 0.7941798
-0.0097956685 0.074167199 0.79434156
-0.0069983313 0.074182309 0.79450339
-0.0041998546 0.074197426 0.79466528
-0.001400237 0.074212559 0.79482734
0.0014005223 0.074227683 0.79498935
0.0042024236 0.074242815 0.79515141
0.007005468 0.074257962 0.7953136
0.0098096561 0.074273109 0.79547584
0.012614987 0.074288256 0.79563808
0.015421466 0.074303426 0.79580057
0.01822909 0.074318595 0.79596299
0.021037858 0.074333765 0.79612547
0.023847774 0.074348941 0.79628801
0.026658839 0.074364126 0.79645067
0.029471053 0.074379325 0.7966134
0.032284416 0.074394524 0.79677624
0.035098929 0.074409731 0.79693907
0.037914593 0.074424937 0.79710197
0.040731404 0.074440159 0.79726493
0.04354937 0.074455373 0.79742795
0.046368487 0.074470602 0.79759103
0.049188763 0.074485838 0.79775423
0.052010186 0.074501075 0.79791743
0.054832771 0.074516334 0.7980808
0.057656512 0.074531585 0.79824418
0.060481399 0.074546844 0.79840755
0.063307449 0.07456211 0.79857105
0.066134654 0.074577376 0.79873461
0.068963021 0.074592657 0.79889822
-0.012603999 0.077024437 0.79494506
-0.0098051094 0.077040143 0.79510713
-0.0070050773 0.077055849 0.79526925
-0.004203904 0.077071577 0.79543155
-0.0014015873 0.077087298 0.7955938
0.0014018733 0.077103026 0.79575616
0.0042064781 0.077118769 0.79591858
0.0070122276 0.077134505 0.79608101
0.009819123 0.077150255 0.79624355
0.012627167 0.077166021 0.79640627
0.015436356 0.077181779 0.79656893
0.018246694 0.077197544 0.79673165
0.021058178 0.077213317 0.79689443
0.023870815 0.077229105 0.79705739
0.026684601 0.0772449 0.79722035
0.02949954 0.077260695 0.79738343
0.03231563 0.077276506 0.79754657
0.03513287 0.077292316 0.7977097
0.037951261 0.077308126 0.7978729
0.040770806 0.077323943 0.79803616
0.043591507 0.077339768 0.79819947
0.046413362 0.077355601 0.79836291
0.049236372 0.077371441 0.79852635
0.052060541 0.077387296 0.79868996
0.054885868 0.077403143 0.79885358
0.05771235 0.077419005 0.79901725
0.060539987 0.077434868 0.79918098
0.06336879 0.077450737 0.79934478
0.066198751 0.077466622 0.79950869
0.069029868 0.077482507 0.7996726
-0.0098145679 0.079918623 0.79587418
-0.0070118369 0.07993494 0.79603666
-0.0042079613 0.079951264 0.7961992
-0.0014029403 0.079967588 0.7963618
0.0014032267 0.079983927 0.79652447
0.0042105401 0.080000266 0.79668719
0.0070190011 0.080016613 0.79684997
0.0098286103 0.080032967 0.79701287
0.012639368 0.080049336 0.79717582
0.015451275 0.080065697 0.79733878
0.018264333 0.080082074 0.79750186
0.02107854 0.08009845 0.797665
0.0238939 0.080114841 0.7978282
0.026710413 0.08013124 0.79799151
0.02952808 0.080147646 0.79815489
0.032346901 0.08016406 0.79831833
0.035166871 0.080180466 0.79848176
0.037988 0.080196887 0.79864526
0.040810283 0.080213316 0.79880887
0.043633722 0.080229744 0.79897249
0.046458319 0.080246188 0.79913622
0.049284078 0.080262639 0.79930007
0.052110992 0.080279097 0.79946393
0.054939065 0.080295555 0.79962784
0.0577683 0.080312029 0.79979187
0.06059869 0.080328494 0.7999559
0.06343025 0.080344982 0.80012006
0.066262968 0.080361471 0.80028427
0.069096856 0.080377974 0.8004486
0.071931899 0.080394469 0.80061293
-0.0098240459 0.082802668 0.79664272
-0.0070186094 0.082819588 0.7968055
-0.004212026 0.082836516 0.79696834
-0.0014042957 0.082853444 0.79713124
0.0014045828 0.082870387 0.7972942
0.0042146104 0.082887337 0.79745728
0.0070257876 0.082904294 0.79762042
0.0098381145 0.082921252 0.79778361
0.012651592 0.082938217 0.79794681
0.015466223 0.082955189 0.79811013
0.018282006 0.082972176 0.79827356
0.021098942 0.082989164 0.798437
0.023917031 0.083006166 0.79860055
0.026736278 0.083023176 0.79876423
0.029556677 0.083040185 0.79892784
0.03237823 0.083057195 0.79909152
0.035200942 0.08307422 0.79925531
0.038024809 0.083091252 0.79941916
0.040849838 0.083108291 0.79958308
0.043676019 0.083125323 0.79974699
0.046503369 0.083142385 0.79991114
0.049331874 0.083159447 0.80007523
0.052161541 0.083176509 0.80023944
0.054992367 0.083193578 0.80040365
0.057824358 0.083210662 0.80056798
0.060657509 0.083227746 0.80073237
0.063491821 0.08324483 0.80089676
0.066327311 0.083261944 0.80106139
0.069163956 0.083279051 0.80122596
0.07200177 0.083296165 0.80139059
-0.0098335417 0.085692294 0.79741275
-0.0070253946 0.085709818 0.79757583
-0.0042160992 0.085727349 0.79773897
-0.0014056539 0.085744888 0.79790223
0.0014059416 0.085762434 0.79806548
0.0042186882 0.085779995 0.79822892
0.0070325872 0.085797563 0.79839236
0.0098476373 0.085815124 0.79855579
0.012663841 0.0858327 0.79871935
0.0154812 0.085850291 0.79888302
0.018299714 0.085867882 0.79904675
0.021119382 0.085885487 0.79921055
0.023940209 0.085903101 0.79937446
0.026762187 0.085920706 0.79953831
0.029585326 0.085938327 0.79970229
0.03240962 0.085955948 0.79986626
0.035235077 0.085973591 0.80003041
0.038061693 0.085991234 0.80019456
0.040889468 0.086008877 0.80035877
0.043718405 0.086026534 0.8005231
0.046548504 0.0860442 0.80068749
0.049379762 0.086061873 0.80085188
0.052212186 0.086079545 0.80101639
0.055045772 0.086097233 0.80118096
0.057880525 0.086114921 0.80134559
0.060716439 0.086132623 0.80151027
0.063553527 0.086150341 0.80167514
0.066391774 0.086168051 0.80183995
0.06923119 0.086185768 0.80200481
0.072071776 0.086203493 0.8021698
-0.0070321932 0.088605635 0.79834765
-0.0042201802 0.088623777 0.79851115
-0.0014070147 0.088641927 0.79867464
0.001407303 0.088660091 0.79883832
0.0042227739 0.088678256 0.79900199
0.0070393994 0.088696428 0.79916573
0.0098571796 0.088714615 0.79932958
0.012676114 0.088732801 0.79949343
0.015496206 0.088750996 0.7996574
0.018317455 0.088769205 0.79982144
0.021139862 0.088787422 0.79998559
0.023963427 0.088805638 0.80014974
0.026788151 0.08882387 0.80031395
0.029614033 0.088842101 0.80047822
0.032441076 0.08886034 0.80064255
0.035269279 0.088878579 0.80080694
0.038098648 0.088896848 0.80097151
0.040929176 0.088915102 0.80113602
0.043760866 0.088933378 0.80130064
0.046593722 0.088951655 0.80146533
0.049427744 0.088969938 0.80163008
0.052262928 0.08898823 0.80179489
0.055099279 0.089006528 0.80195975
0.057936795 0.089024834 0.80212468
0.060775489 0.089043155 0.80228978
0.063615344 0.089061484 0.80245489
0.066563137 0.08922293 0.80390954
0.069547929 0.089418769 0.80567408
0.072545834 0.089615442 0.80744612
-0.0070390049 0.091507062 0.79912096
-0.0042242687 0.091525823 0.79928476
-0.0014083782 0.091544591 0.79944867
0.0014086671 0.091563359 0.79961258
0.0042268676 0.091582134 0.79977655
0.007046225 0.091600925 0.79994065
0.0098667396 0.091619723 0.8001048
0.012688411 0.091638528 0.80026901
0.015511244 0.091657348 0.8004334
0.018335233 0.091676161 0.80059767
0.021160381 0.091694988 0.80076206
0.02398669 0.091713816 0.80092651
0.026814163 0.091732658 0.80109107
0.029642794 0.091751508 0.80125564
0.032472588 0.091770358 0.80142027
0.035303548 0.091789231 0.80158508
0.038135674 0.091808103 0.80174989
0.040968958 0.091826983 0.80191475
0.043803412 0.091845863 0.80207968
0.046639029 0.091864757 0.80224466
0.049475819 0.091883667 0.80240977
0.052313771 0.091902569 0.80257487
0.055171322 0.091952205 0.80300832
0.058127787 0.09215381 0.80476892
0.061097257 0.092356317 0.80653739
0.064079791 0.092559695 0.80831349
0.067075476 0.09276396 0.81009728
0.0700844 0.092969105 0.81188881
0.073106684 0.09317518 0.81368846
0.076142378 0.093382157 0.81549597
-0.0070458301 0.094414122 0.79989582
-0.0042283656 0.094433501 0.80005997
-0.0014097444 0.094452873 0.80022413
0.0014100337 0.094472259 0.80038834
0.0042309701 0.094491661 0.80055273
0.0070530642 0.094511054 0.80071706
0.0098763173 0.094530471 0.80088151
0.012700733 0.094549902 0.80104613
0.015526307 0.094569325 0.8012107
0.018353041 0.094588757 0.80137533
0.021180941 0.094608203 0.80154008
0.024010001 0.094627649 0.80170482
0.026840225 0.09464711 0.80186969
0.029671613 0.09466657 0.80203462
0.032504167 0.094686054 0.80219966
0.035337888 0.094705537 0.80236471
0.03817277 0.09472502 0.80252981
0.041008823 0.094744518 0.80269498
0.043846041 0.094764024 0.80286026
0.046733279 0.094882719 0.80386585
0.049674392 0.095090978 0.80563027
0.052628439 0.095300145 0.80740237
0.055595517 0.095510244 0.80918241
0.058575705 0.095721275 0.81097025
0.061569083 0.095933229 0.81276596
0.064575732 0.096146084 0.81456935
0.06759575 0.096359894 0.8163808
0.070629239 0.096574672 0.81820041
0.073676273 0.096790396 0.82002807
0.076736949 0.097007088 0.82186395
-0.0042324699 0.097346812 0.80083656
-0.0014111132 0.09736681 0.80100107
0.0014114031 0.097386815 0.80116564
0.004235079 0.097406819 0.80133027
0.0070599159 0.097426839 0.80149496
0.0098859165 0.097446889 0.80165988
0.012713077 0.097466923 0.80182469
0.0155414 0.097486965 0.80198956
0.018370887 0.097507015 0.80215454
0.02120154 0.097527079 0.80231959
0.024033356 0.097547151 0.80248469
0.026866337 0.09756723 0.80264986
0.029700488 0.097587317 0.80281514
0.032535803 0.097607411 0.80298042
0.035372287 0.097627513 0.80314583
0.038277198 0.0978195 0.80472523
0.041202877 0.098034434 0.8064934
0.044141442 0.098250307 0.80826932
0.047092985 0.098467156 0.81005323
0.050057579 0.098684944 0.81184489
0.053035319 0.098903701 0.81364453
0.05602628 0.099123418 0.8154521
0.059030551 0.099344097 0.81726754
0.062048223 0.099565759 0.81909102
0.065079391 0.099788405 0.82092267
0.068124153 0.10001206 0.82276255
0.071182594 0.10023671 0.82461077
0.074254803 0.10046238 0.82646722
-0.0042365827 0.10026579 0.8016147
-0.0014124846 0.10028641 0.80177957
0.001412775 0.10030703 0.80194443
0.0042391974 0.10032767 0.80210948
0.007066783 0.10034832 0.80227453
0.0098955324 0.10036897 0.80243963
0.012725445 0.10038962 0.80260473
0.015556523 0.10041028 0.80276996
0.018388767 0.10043096 0.80293524
0.021222178 0.10045164 0.80310059
0.024056755 0.10047233 0.80326599
0.026905579 0.1005419 0.80382222
0.029803013 0.10076257 0.80558646
0.032713193 0.1009842 0.80735838
0.035636205 0.10120682 0.80913818
0.038572129 0.10143042 0.81092578
0.041521061 0.10165501 0.81272143
0.044483077 0.1018806 0.81452495
0.047458265 0.10210718 0.81633645
0.050446723 0.10233478 0.81815612
0.053448521 0.10256338 0.81998372
0.056463748 0.10279298 0.82181937
0.059492506 0.10302361 0.82366323
0.062534891 0.10325529 0.82551545
0.065590985 0.103488 0.82737595
-0.0042407033 0.10319044 0.80239439
-0.0014138587 0.10321169 0.80255955
0.0014141498 0.10323294 0.80272478
0.0042433231 0.1032542 0.80289012
0.0070736618 0.10327546 0.80305547
0.009905166 0.10329673 0.80322087
0.012737837 0.10331801 0.80338633
0.015571675 0.1033393 0.80355185
0.01842876 0.10348457 0.80468148
0.02131067 0.10371193 0.80644941
0.024205279 0.10394032 0.80822527
0.027112659 0.10416969 0.81000888
0.030032901 0.10440008 0.81180036
0.032966085 0.10463149 0.81359977
0.035912309 0.10486394 0.81540728
0.038871646 0.10509741 0.81722271
0.041844189 0.10533193 0.81904626
0.044830035 0.10556751 0.82087809
0.047829259 0.10580412 0.82271796
0.050841942 0.10604177 0.82456589
0.053868189 0.10628048 0.8264221
0.056908097 0.10652029 0.82828677
-0.0014152356 0.10614266 0.80334109
0.0014155272 0.10616454 0.80350667
0.0042474568 0.10618642 0.80367225
0.0070805536 0.1062083 0.8038379
0.0099337967 0.10643354 0.80554259
0.012800116 0.10666764 0.80731434
0.015679073 0.10690277 0.80909395
0.018570751 0.10713895 0.81088144
0.021475231 0.10737616 0.81267679
0.024392601 0.10761442 0.81448007
0.02732295 0.10785375 0.81629145
0.030266361 0.10809415 0.81811088
0.033222921 0.10833561 0.81993842
0.036192719 0.10857816 0.82177413
0.039175849 0.1088218 0.82361817
0.042172395 0.10906654 0.82547045
0.04518244 0.10931236 0.82733089
-0.0014175198 0.10914902 0.80463773
0.0014206341 0.10938883 0.80640554
0.0042712865 0.10962968 0.80818111
0.0071345204 0.10987161 0.8099646
0.010010419 0.11011461 0.81175596
0.012899066 0.11035868 0.81355518
0.015800547 0.11060383 0.81536245
0.018714948 0.11085008 0.81717777
0.021642357 0.11109743 0.81900126
0.024582859 0.11134589 0.82083285
0.027536543 0.11159546 0.82267267
0.030503495 0.11184615 0.82452071
0.033483807 0.11209796 0.82637709
0.036477573 0.11235093 0.82824188
0.039484881 0.11260504 0.83011514
-0.0014284455 0.11284719 0.81083953
0.0014316082 0.11309705 0.81263483
0.0043043541 0.11334799 0.81443793
0.0071898773 0.11360006 0.81624913
0.010088264 0.11385326 0.81806844
0.012999599 0.11410759 0.81989586
0.015923969 0.11436305 0.82173145
0.018861465 0.11461967 0.82357532
0.021812173 0.11487744 0.82542747
0.024776179 0.11513636 0.82728791
0.027753582 0.11539647 0.82915688
0.030744463 0.11565775 0.83103418
0.033748921 0.11592021 0.83292007
0.036767047 0.11618387 0.83481455
0.039798927 0.11644871 0.83671749
0.045600988 0.12422338 0.89258075
0.001442753 0.11686299 0.81896102
0.004337938 0.11712433 0.82079244
0.0072461008 0.11738683 0.82263207
0.010167329 0.11765052 0.82447994
0.013101711 0.11791539 0.82633615
0.016049335 0.11818147 0.82820076
0.019010292 0.11844875 0.83007383
0.021984672 0.11871723 0.83195531
0.024972567 0.11898693 0.83384538
0.027974069 0.11925787 0.83574408
0.030989269 0.11953004 0.83765137
0.034018267 0.11980346 0.83956748
0.037061144 0.12007811 0.84149218
0.040118009 0.12035403 0.84342575
0.043188952 0.1206312 0.84536821
0.0014540728 0.12068804 0.82538658
0.0043720501 0.12096006 0.8272469
0.0073032109 0.1212333 0.82911563
0.010247644 0.12150779 0.83099282
0.01320544 0.1217835 0.83287847
0.016176691 0.12206049 0.83477277
0.019161487 0.12233873 0.83667564
0.022159923 0.12261824 0.83858722
0.025172092 0.12289904 0.84050763
0.028198084 0.1231811 0.84243667
0.031238003 0.12346449 0.84437472
0.034291938 0.12374917 0.84632164
0.037359986 0.12403515 0.84827751
0.040442243 0.12432245 0.85024238
0.04353882 0.12461111 0.85221648
0.0044067032 0.1248566 0.83380371
0.0073612281 0.12514088 0.83570218
0.010329237 0.12542646 0.83760929
0.013310825 0.12571335 0.83952522
0.016306084 0.12600155 0.84144986
0.019315105 0.12629107 0.84338325
0.02233799 0.12658194 0.84532571
0.025374828 0.12687413 0.84727705
0.02842572 0.1271677 0.84923744
0.031490758 0.1274626 0.85120684
0.034570049 0.12775888 0.85318542
0.037663687 0.12805653 0.85517317
0.040771771 0.12835558 0.85717022
0.043894406 0.12865601 0.85917658
0.00444191 0.12881538 0.84046525
0.0074201748 0.12911104 0.84239423
0.010412141 0.12940803 0.84433198
0.013417904 0.12970641 0.84627879
0.01643756 0.13000616 0.84823453
0.019471208 0.13030732 0.8501994
0.02251894 0.13060986 0.85217333
0.025580859 0.13091381 0.85415649
0.028657058 0.13121916 0.85614884
0.031747639 0.13152593 0.85815042
0.03485271 0.13183416 0.86016142
0.037972361 0.13214383 0.86218184
0.041106705 0.13245493 0.86421174
0.044255849 0.13276754 0.86625135
0.047419887 0.13308161 0.86830056
0.0074800719 0.13314529 0.84919423
0.010496385 0.13345404 0.85116351
0.013526722 0.13376425 0.85314196
0.016571179 0.13407589 0.85512966
0.019629853 0.134389 0.85712659
0.02270285 0.13470358 0.85913295
0.025790261 0.1350196 0.86114854
0.028892189 0.1353371 0.86317354
0.032008745 0.13565612 0.86520821
0.03514003 0.13597664 0.86725247
0.038286142 0.13629866 0.86930633
0.041447192 0.13662222 0.87137002
0.044623293 0.13694735 0.8734436
0.047814533 0.13727398 0.87552691
0.007540945 0.13724519 0.85610497
0.010582005 0.13756606 0.85810649
0.013637318 0.13788843 0.86011738
0.016706984 0.13821232 0.86213773
0.019791106 0.13853773 0.86416757
0.022889782 0.13886468 0.86620694
0.026003115 0.13919315 0.86825585
0.029131215 0.13952319 0.8703146
0.032274183 0.13985479 0.87238306
0.035432126 0.14018798 0.87446135
0.03860515 0.14052275 0.8765496
0.041793365 0.14085911 0.8786478
0.044996884 0.14119712 0.8807562
0.010669033 0.14174573 0.86516368
0.013749738 0.14208063 0.86720783
0.016845036 0.14241713 0.86926168
0.019955028 0.1427552 0.87132514
0.023079818 0.14309487 0.87339836
0.026219517 0.14343618 0.87548161
0.029374223 0.1437791 0.87757462
0.032544058 0.14412369 0.87967789
0.010757504 0.14599469 0.87233788
0.013864026 0.1463425 0.87441605
0.016985385 0.14669196 0.87650412
0.020121686 0.14704308 0.87860215
0.023273038 0.14739591 0.8807103
0.013980229 0.1506758 0.8817451
