# .PCD v0.7 - Point Cloud Data file format
VERSION 0.7
FIELDS x y z
SIZE 4 4 4
TYPE F F F
COUNT 1 1 1
WIDTH 751
HEIGHT 1
VIEWPOINT 0 0 0 1 0 0 0
POINTS 751
DATA ascii
0.18634476 -0.21855249 1.3058804
0.19028845 -0.21780004 1.3013844
0.19420522 -0.21705291 1.2969202
0.19859205 -0.2168534 1.2957281
0.20412418 -0.21788538 1.3018943
0.20970926 -0.21892725 1.3081197
0.21534796 -0.21997909 1.3144046
0.22104131 -0.22104131 1.3207514
0.17841533 -0.21548864 1.3152633
0.18241502 -0.21474174 1.3107045
0.18638664 -0.21399949 1.306174
0.19033112 -0.21326257 1.3016762
0.19424872 -0.21253096 1.2972107
0.19813946 -0.21180426 1.2927752
0.20200372 -0.21108253 1.28837
0.20694454 -0.21149278 1.290874
0.21249546 -0.21249546 1.296994
0.21809927 -0.2135077 1.3031723
0.22375754 -0.21453041 1.3094146
0.22947028 -0.215563 1.3157171
0.17037113 -0.21238045 1.324782
0.17442775 -0.211639 1.3201569
0.17845614 -0.21090271 1.3155642
0.18245658 -0.21017151 1.3110031
0.18642838 -0.20944422 1.3064665
0.19037379 -0.20872308 1.3019681
0.19429223 -0.20800698 1.2975012
0.19818372 -0.20729561 1.2930639
0.20204864 -0.20658906 1.2886566
0.20588733 -0.20588733 1.2842793
0.20971756 -0.2052075 1.2800387
0.2152347 -0.20617218 1.2860562
0.22080456 -0.20714656 1.292134
0.22642753 -0.20813036 1.2982708
0.23210415 -0.20912355 1.3044661
0.16632409 -0.20849076 1.3297441
0.17041045 -0.20776069 1.3250878
0.17446767 -0.20703498 1.3204591
0.17849697 -0.20631468 1.3158652
0.18249726 -0.20559819 1.3112954
0.18647048 -0.20488732 1.3067615
0.19041649 -0.20418154 1.30226
0.19433577 -0.20348099 1.297792
0.19822796 -0.20278491 1.2933525
0.20209362 -0.20209362 1.2889434
0.20593299 -0.20140699 1.2845641
0.20974639 -0.20072503 1.2802147
0.21353404 -0.20004769 1.2758945
0.21815938 -0.20016685 1.2766546
0.2234848 -0.20091058 1.2813981
0.22905247 -0.20183831 1.2873151
0.23469338 -0.20279332 1.293406
0.24038792 -0.20375738 1.2995548
0.16636218 -0.20385227 1.3300487
0.17044874 -0.20313755 1.3253855
0.17450652 -0.20242755 1.3207531
0.17864886 -0.20185001 1.3169849
0.18382093 -0.2024357 1.3208063
0.18901713 -0.2030184 1.3246081
0.19045921 -0.19963796 1.3025522
0.1943793 -0.19895294 1.2980827
0.19827224 -0.19827224 1.2936414
0.20213859 -0.19759615 1.2892302
0.20597878 -0.19692476 1.2848498
0.20979278 -0.19625776 1.2804978
0.21358092 -0.19559516 1.2761747
0.21785037 -0.19539157 1.2748463
0.22316708 -0.19611652 1.2795763
0.2285234 -0.1968469 1.2843417
0.23391977 -0.19758272 1.2891426
0.23935659 -0.19832404 1.2939794
0.24483441 -0.19907096 1.2988528
0.16228414 -0.19991523 1.3350521
0.16640031 -0.19921164 1.3303535
0.17048824 -0.1985137 1.3256925
0.17454688 -0.1978198 1.3210586
0.17955935 -0.19821487 1.323697
0.18481228 -0.19884865 1.3279294
0.19009432 -0.1994817 1.3321569
0.19541091 -0.20011961 1.336417
0.19442211 -0.19442211 1.2983686
0.19831659 -0.19375758 1.2939308
0.20218326 -0.19309637 1.2895151
0.20602438 -0.19244035 1.2851342
0.20983896 -0.1917883 1.2807797
0.21362782 -0.19114067 1.2764548
0.21754232 -0.19062987 1.2730436
0.22285026 -0.19133608 1.2777598
0.22819778 -0.19204764 1.2825116
0.23358518 -0.19276448 1.2872987
0.239013 -0.19348672 1.2921219
0.24448161 -0.19421436 1.2969812
0.16232146 -0.19525625 1.3353592
0.16643846 -0.1945689 1.3306584
0.17052658 -0.19388638 1.3259907
0.17478505 -0.19342878 1.3228612
0.18004306 -0.19407238 1.3272628
0.18533568 -0.19471976 1.3316902
0.19066364 -0.19537137 1.3361466
0.19602494 -0.19602494 1.3406163
0.19446693 -0.18989125 1.2986679
0.19836049 -0.18924047 1.2942172
0.20222862 -0.18859524 1.2898045
0.20606992 -0.18795389 1.2854183
0.20988519 -0.18731689 1.2810619
0.21367471 -0.18668422 1.2767351
0.2174387 -0.18605579 1.2724372
0.22253439 -0.18656923 1.2759486
0.22787306 -0.18726201 1.2806866
0.23325159 -0.18796001 1.2854602
0.23867035 -0.18866323 1.2902695
0.24412981 -0.18937172 1.2951149
0.1582118 -0.19127099 1.3404028
0.16235882 -0.19059514 1.3356665
0.16647661 -0.18992402 1.3309635
0.17056553 -0.18925764 1.3262936
0.17494363 -0.18893911 1.3240614
0.18022852 -0.18959104 1.32863
0.18554734 -0.19024475 1.3332111
0.19090153 -0.19090153 1.3378137
0.1962928 -0.19156286 1.3424482
0.19451068 -0.18535724 1.2989601
0.19840515 -0.18472204 1.2945086
0.20227346 -0.18409158 1.2900904
0.20611548 -0.18346542 1.2857025
0.20993145 -0.18284351 1.2813442
0.21372163 -0.18222582 1.2770154
0.21748628 -0.18161225 1.2727157
0.22221942 -0.18181589 1.2741427
0.2275493 -0.18249004 1.278867
0.2329189 -0.18316923 1.2836268
0.2383287 -0.18385357 1.2884225
0.24377903 -0.18454301 1.293254
0.15824834 -0.18659131 1.3407123
0.16239618 -0.18593185 1.3359739
0.1665148 -0.18527703 1.3312688
0.1706043 -0.18462658 1.3265951
0.17482467 -0.18414865 1.3231611
0.18012539 -0.18480396 1.3278697
0.18546346 -0.18546346 1.3326083
0.19083489 -0.18612292 1.3373468
0.19624433 -0.18678677 1.3421167
0.19455373 -0.18082052 1.2992475
0.19844931 -0.18020111 1.2947968
0.20231836 -0.17958595 1.2903768
0.20616105 -0.17897499 1.2859868
0.20997772 -0.17836817 1.2816266
0.21376856 -0.17776544 1.2772958
0.21753389 -0.17716677 1.2729943
0.22190534 -0.17707598 1.2723418
0.22722648 -0.1777316 1.2770528
0.23258722 -0.17839214 1.2817988
0.237988 -0.17905764 1.2865807
0.24342924 -0.17972814 1.2913984
0.24891138 -0.18040366 1.2962523
0.1582849 -0.18190952 1.3410221
0.16243355 -0.18126641 1.3362813
0.16655302 -0.18062791 1.3315743
0.17064448 -0.17999487 1.3269075
0.17470668 -0.17936553 1.3222681
0.17964317 -0.17964317 1.3243148
0.18499582 -0.18031238 1.3292482
0.19038133 -0.18097979 1.3341683
0.19580723 -0.1816525 1.3391274
0.19459569 -0.17628081 1.2995278
0.19849351 -0.17567816 1.2950852
0.20236325 -0.17507832 1.2906631
0.20620666 -0.17448255 1.2862712
0.210024 -0.17389084 1.2819091
0.21381553 -0.17330311 1.2775764
0.21758151 -0.17271934 1.273273
0.22159216 -0.17234945 1.2705462
0.22690462 -0.17298669 1.2752438
0.23225647 -0.17362863 1.2799761
0.23764828 -0.17427541 1.2847441
0.24308048 -0.17492707 1.2895482
0.24855344 -0.17558362 1.2943882
0.15414244 -0.17785665 1.3461087
0.15832183 -0.17722592 1.3413349
0.16247098 -0.17659891 1.3365893
0.16659099 -0.1759764 1.3318779
0.17068224 -0.17535847 1.3272011
0.17474487 -0.17474487 1.3225571
0.17878057 -0.17413692 1.3179559
0.18351479 -0.1742229 1.3186066
0.1867646 -0.17293018 1.3088226
0.19071639 -0.17233407 1.304311
0.19464111 -0.17174216 1.299831
0.19853805 -0.17115349 1.2953757
0.20240816 -0.17056867 1.2909496
0.20625228 -0.16998814 1.2865558
0.21007031 -0.16941154 1.2821918
0.21386251 -0.16883883 1.2778572
0.21762918 -0.16826999 1.2735519
0.22137053 -0.16770494 1.2692754
0.22658364 -0.16825518 1.2734399
0.23192674 -0.16887869 1.2781589
0.23730958 -0.16950685 1.2829131
0.24273269 -0.17013974 1.2877032
0.24819647 -0.1707774 1.2925292
0.15417822 -0.173154 1.3464211
0.15835804 -0.17253935 1.3416418
0.16250829 -0.17192908 1.3368963
0.16662931 -0.17132309 1.3321843
0.17072137 -0.17072137 1.3275054
0.17478478 -0.17012386 1.3228592
0.17882164 -0.16953219 1.3182585
0.18282861 -0.16894288 1.3136761
0.18680675 -0.1683567 1.309118
0.19075985 -0.16777673 1.3046083
0.19468428 -0.16719945 1.3001194
0.19858243 -0.16662663 1.2956653
0.20245332 -0.16605721 1.2912376
0.2062979 -0.16549173 1.2868404
0.21011664 -0.16493025 1.2824745
0.21390952 -0.16437258 1.278138
0.21767685 -0.16381866 1.2738309
0.22141887 -0.16326846 1.2695526
0.22626357 -0.16353704 1.271641
0.2315979 -0.16414221 1.2763467
0.23697187 -0.16475187 1.2810874
0.24238592 -0.1653661 1.2858635
0.24784058 -0.16598497 1.2906759
0.15421405 -0.16844921 1.3467342
0.15839472 -0.16785112 1.3419526
0.16254582 -0.16725729 1.3372049
0.16666764 -0.16666764 1.3324907
0.1707605 -0.16608211 1.3278096
0.17482471 -0.16550073 1.3231614
0.17886211 -0.1649248 1.3185569
0.18287005 -0.16435155 1.3139739
0.18684894 -0.16378117 1.3094137
0.19080138 -0.16321564 1.3048923
0.1947279 -0.16265507 1.3004106
0.19862631 -0.16209733 1.2959516
0.20249769 -0.1615431 1.2915206
0.20634356 -0.16099334 1.2871252
0.21016298 -0.160447 1.2827574
0.21395653 -0.15990436 1.278419
0.21772455 -0.15936539 1.27411
0.22146721 -0.15883002 1.2698298
0.22594441 -0.15883221 1.2698473
0.23127002 -0.15941913 1.2745397
0.2366351 -0.16001041 1.2792668
0.24204016 -0.16060609 1.2840292
0.24748567 -0.16120626 1.2888275
0.2529721 -0.16181098 1.2936622
0.15843141 -0.16316071 1.3422635
0.16258335 -0.16258335 1.3375137
0.16670598 -0.16201004 1.3327973
0.17079964 -0.16144076 1.328114
0.17486465 -0.16087548 1.3234637
0.17890219 -0.16031495 1.3188524
0.18291137 -0.15975803 1.3142709
0.18689103 -0.15920347 1.3097087
0.19084452 -0.15865387 1.3051873
0.1947711 -0.15810831 1.3006991
0.19867073 -0.15756644 1.2962414
0.20254312 -0.15702783 1.2918104
0.20638818 -0.15649213 1.2874035
0.21020934 -0.15596177 1.2830404
0.21400358 -0.15543418 1.2787001
0.21777225 -0.15491016 1.2743891
0.2215156 -0.15438965 1.2701072
0.22562614 -0.15414064 1.2680585
0.23094304 -0.15470941 1.2727377
0.23629934 -0.15528242 1.2774516
0.24169543 -0.15585966 1.2822005
0.24713181 -0.15644124 1.2869848
0.25260901 -0.15702723 1.2918055
0.15846816 -0.15846816 1.3425747
0.1626209 -0.15790726 1.3378227
0.16674435 -0.1573503 1.333104
0.17083883 -0.15679729 1.3284187
0.17490461 -0.15624812 1.3237661
0.17894217 -0.15570292 1.3191471
0.18295273 -0.15516244 1.314568
0.18693279 -0.15462342 1.3100013
0.19088738 -0.15408981 1.3054805
0.19481553 -0.15356047 1.3009958
0.19871515 -0.15303349 1.2965312
0.20258829 -0.15251029 1.2920984
0.20643501 -0.15199061 1.2876956
0.2102561 -0.15147483 1.2833258
0.21405067 -0.15096205 1.2789814
0.21781997 -0.15045297 1.2746685
0.22156397 -0.14994733 1.2703846
0.22530878 -0.14946227 1.2662749
0.23061697 -0.15001298 1.2709408
0.23596448 -0.1505678 1.2756413
0.24135166 -0.15112674 1.2803768
0.24677901 -0.15168986 1.2851475
0.25224695 -0.15225717 1.2899539
0.15850487 -0.1537734 1.3428859
0.16265847 -0.153229 1.3381317
0.16678272 -0.15268841 1.3334109
0.17087799 -0.15215164 1.3287233
0.17494459 -0.15161864 1.3240687
0.17898419 -0.15109055 1.3194569
0.18299411 -0.15056477 1.3148654
0.18697476 -0.15004148 1.3102955
0.19093025 -0.14952368 1.3057736
0.19485812 -0.14900915 1.3012803
0.19875948 -0.14849846 1.2968205
0.20263343 -0.1479907 1.2923863
0.20648088 -0.14748634 1.2879817
0.21030216 -0.14698538 1.2836069
0.21409775 -0.14648794 1.2792628
0.21786775 -0.14599386 1.274948
0.22161236 -0.14550307 1.2706621
0.22533192 -0.1450156 1.266405
0.23029186 -0.14532982 1.2691491
0.2356306 -0.14586656 1.2738364
0.24100889 -0.14640728 1.2785584
0.24642722 -0.14695202 1.2833155
0.25188601 -0.14750081 1.2881081
0.15854163 -0.14907646 1.3431972
0.16269605 -0.14854856 1.3384408
0.16682114 -0.1480244 1.3337179
0.1709172 -0.14750388 1.3290281
0.17498457 -0.14698705 1.3243713
0.17902486 -0.14647488 1.3197567
0.18303551 -0.14596502 1.3151628
0.18701696 -0.14545764 1.3105912
0.19097313 -0.14495552 1.306067
0.19490176 -0.1444566 1.3015717
0.19880341 -0.14396109 1.2971071
0.20267861 -0.14346913 1.2926744
0.20652674 -0.14298005 1.2882679
0.21034874 -0.14249431 1.2838912
0.21414514 -0.14201204 1.2795459
0.21791551 -0.14153275 1.2752274
0.22166081 -0.14105688 1.2709398
0.225381 -0.14058419 1.2666808
0.22996765 -0.14065982 1.2673624
0.23529765 -0.14117859 1.2720364
0.24066709 -0.14170119 1.2767451
0.24607642 -0.14222765 1.2814887
0.25152609 -0.14275806 1.2862676
0.2570166 -0.14329244 1.2910825
0.26254773 -0.14383051 1.2959305
0.26812053 -0.14437258 1.3008147
0.27373549 -0.14491878 1.3057361
0.27939308 -0.14546913 1.3106947
0.28509384 -0.14602368 1.3156912
0.16273366 -0.14386599 1.3387502
0.16685957 -0.14335822 1.3340251
0.17095643 -0.14285401 1.3293332
0.17502558 -0.14235413 1.3246816
0.17906551 -0.1418571 1.3200564
0.18307692 -0.14136319 1.3154603
0.18705933 -0.14087184 1.3108881
0.19101605 -0.14038529 1.3063605
0.19494541 -0.139902 1.3018632
0.19884792 -0.1394221 1.2973975
0.2027238 -0.13894552 1.2929627
0.20657265 -0.13847178 1.2885542
0.21039532 -0.13800123 1.2841755
0.21419212 -0.13753389 1.2798266
0.21796268 -0.13706931 1.2755035
0.22170925 -0.13660873 1.2712176
0.22543012 -0.13615085 1.2669568
0.22964436 -0.13600297 1.2655807
0.23496565 -0.13650386 1.2702416
0.24032626 -0.13700843 1.2749369
0.24572663 -0.13751674 1.279667
0.25116724 -0.13802883 1.2844324
0.25664845 -0.13854474 1.2892331
0.26217076 -0.13906449 1.2940698
0.2677342 -0.13958792 1.2989405
0.2733396 -0.14011526 1.3038477
0.27898747 -0.14064658 1.3087919
0.28467834 -0.14118195 1.3137738
0.16277127 -0.13918123 1.3390596
0.16689798 -0.13868988 1.3343323
0.17099568 -0.13820198 1.3296384
0.1750655 -0.1377182 1.3249838
0.17910618 -0.13723719 1.3203561
0.18311834 -0.13675927 1.315758
0.18710157 -0.13628386 1.3111842
0.19105898 -0.13581301 1.3066541
0.19498906 -0.13534534 1.3021547
0.19889218 -0.1348809 1.2976862
0.20276889 -0.13441983 1.2932503
0.20661855 -0.13396148 1.2888405
0.21044193 -0.13350618 1.2844601
0.21423939 -0.13305393 1.280109
0.21801122 -0.13260476 1.2757876
0.22175778 -0.13215868 1.2714958
0.22547923 -0.1317156 1.2672329
0.22932197 -0.13135919 1.263804
0.23463455 -0.13184227 1.2684517
0.23998637 -0.13232894 1.2731339
0.24537784 -0.13281919 1.2778506
0.25080934 -0.13331307 1.2826022
0.25628138 -0.13381062 1.2873892
0.26179439 -0.1343119 1.2922119
0.26734886 -0.13481694 1.297071
0.27294487 -0.13532561 1.3019648
0.27858305 -0.13583802 1.3068947
0.28426409 -0.13635431 1.311862
0.1628089 -0.1344943 1.3393692
0.16693644 -0.1340194 1.3346398
0.17103493 -0.13354781 1.3299435
0.17510554 -0.13308021 1.3252869
0.17914686 -0.13261521 1.3206561
0.18315978 -0.13215326 1.3160558
0.18714461 -0.13169435 1.3114856
0.19110192 -0.13123867 1.3069477
0.19503273 -0.13078666 1.3024464
0.19893658 -0.13033776 1.297976
0.20281415 -0.1298922 1.2935389
0.2066645 -0.12944919 1.2891271
0.21048856 -0.12900911 1.2847446
0.21428671 -0.12857203 1.2803918
0.2180592 -0.12813787 1.2760683
0.2218063 -0.12770666 1.2717741
0.22552837 -0.12727839 1.2675091
0.22922565 -0.12685303 1.2632731
0.23430443 -0.12719384 1.266667
0.23964745 -0.12766266 1.2713358
0.24503 -0.12813495 1.2760392
0.25045246 -0.12861073 1.2807772
0.25591534 -0.12909004 1.2855505
0.26141909 -0.12957294 1.2903595
0.26696414 -0.13005945 1.2952044
0.27255103 -0.13054965 1.3000861
0.27817979 -0.13104337 1.3050029
0.28385106 -0.13154073 1.3099558
0.28956553 -0.13204189 1.3149467
0.16284655 -0.12980522 1.339679
0.16697493 -0.12934677 1.3349475
0.17107421 -0.12889153 1.3302491
0.1751449 -0.12843959 1.3255847
0.17918755 -0.12799111 1.3209561
0.18320127 -0.12754518 1.3163538
0.18718708 -0.12710233 1.3117833
0.1911449 -0.12666228 1.3072417
0.19507645 -0.12622593 1.3027383
0.198981 -0.12579259 1.2982658
0.20285884 -0.1253622 1.293824
0.20671046 -0.12493489 1.2894138
0.2105352 -0.12451006 1.2850293
0.21433403 -0.12408812 1.2806746
0.21810719 -0.12366902 1.2763492
0.22185498 -0.12325276 1.2720531
0.22557759 -0.12283928 1.2677857
0.22927547 -0.12242865 1.2635477
0.2339752 -0.12255844 1.2648872
0.23930949 -0.12300955 1.2695429
0.24468313 -0.12346397 1.2742329
0.25009659 -0.12392174 1.2789574
0.25555035 -0.12438291 1.283717
0.26104486 -0.12484754 1.2885122
0.26658055 -0.12531564 1.2933434
0.27215791 -0.12578726 1.2982109
0.27777743 -0.12626247 1.3031154
0.28343922 -0.12674111 1.3080553
0.28914383 -0.12722328 1.3130316
0.16288424 -0.12511398 1.3399889
0.16701341 -0.12467198 1.3352551
0.17111351 -0.1242331 1.3305546
0.17518565 -0.12379786 1.3258932
0.17922828 -0.12336492 1.3212563
0.18324274 -0.122935 1.3166518
0.18722934 -0.12250808 1.3120794
0.19118789 -0.12208383 1.3075356
0.19512017 -0.12166316 1.3030303
0.19902544 -0.12124538 1.2985557
0.202904 -0.12083047 1.294112
0.20675628 -0.1204185 1.2896997
0.21058188 -0.12000903 1.2853142
0.21438138 -0.11960224 1.2809575
0.21815522 -0.11919822 1.2766303
0.22190365 -0.11879691 1.2723322
0.22562693 -0.11839829 1.2680629
0.22932532 -0.11800236 1.2638224
0.23364691 -0.11793606 1.2631124
0.23897247 -0.11836953 1.267755
0.24433723 -0.11880618 1.2724315
0.24974173 -0.11924605 1.2771426
0.25518638 -0.11968919 1.2818887
0.26067168 -0.12013565 1.2866703
0.26619804 -0.12058544 1.2914877
0.27176595 -0.12103861 1.2963412
0.27737585 -0.1214952 1.3012314
0.28302824 -0.12195526 1.3061587
0.28872329 -0.12241868 1.3111219
0.16705191 -0.11999504 1.3355629
0.17115282 -0.11957252 1.3308603
0.1752256 -0.1191534 1.3261955
0.17926902 -0.11873662 1.3215566
0.18328425 -0.11832274 1.3169501
0.18727158 -0.11791174 1.3123755
0.19123091 -0.11750333 1.3078299
0.19516391 -0.11709834 1.3033223
0.1990699 -0.11669615 1.2988459
0.20294915 -0.11629671 1.2944
0.2068025 -0.1159003 1.2899879
0.21062855 -0.11550599 1.2855991
0.21442875 -0.11511438 1.2812406
0.21820326 -0.11472543 1.2769114
0.22195236 -0.1143391 1.2726115
0.22567627 -0.11395534 1.2683402
0.2293753 -0.11357418 1.2640978
0.23331954 -0.11332663 1.2613426
0.23863634 -0.11374255 1.2659719
0.24399231 -0.11416154 1.2706352
0.24938788 -0.11458362 1.275333
0.25482351 -0.11500883 1.2800658
0.26029959 -0.11543721 1.2848337
0.26581663 -0.11586879 1.2896372
0.27137509 -0.11630362 1.2944769
0.27697545 -0.11674172 1.299353
0.28261814 -0.11718313 1.304266
0.28830364 -0.11762789 1.3092163
0.16709045 -0.11531594 1.335871
0.17119215 -0.11490981 1.3311661
0.17526558 -0.11450685 1.3264982
0.17930977 -0.11410622 1.3218571
0.18332578 -0.11370839 1.3172485
0.18731387 -0.11331333 1.3126719
0.19127393 -0.11292075 1.3081241
0.19520767 -0.11253148 1.3036146
0.1991144 -0.11214489 1.2991362
0.20299436 -0.11176094 1.2946883
0.20684786 -0.11137962 1.2902709
0.21067527 -0.11100095 1.2858843
0.21447614 -0.11062454 1.2815237
0.21825133 -0.11025067 1.2771927
0.22200108 -0.10987932 1.2728908
0.22572567 -0.10951047 1.2686179
0.22942531 -0.10914408 1.2643734
0.2340381 -0.10921778 1.2652272
0.23935701 -0.10961208 1.2697951
0.2447145 -0.11000927 1.2743962
0.25011092 -0.11040933 1.2790307
0.25554681 -0.11081233 1.2836992
0.26102245 -0.11121827 1.2884017
0.26653838 -0.11162718 1.2931389
0.27209505 -0.11203913 1.297911
0.27769285 -0.11245413 1.3027185
0.28333229 -0.11287221 1.3075618
0.28901392 -0.11329346 1.3124417
0.16712898 -0.11063468 1.3361791
0.17123151 -0.11024494 1.3314722
0.17530556 -0.10985816 1.3268007
0.17935054 -0.10947371 1.3221576
0.18336731 -0.10909195 1.317547
0.18735616 -0.10871284 1.3129683
0.19131696 -0.10833611 1.3084184
0.19525146 -0.10796257 1.303907
0.19915889 -0.10759158 1.2994264
0.20303957 -0.10722315 1.2949767
0.20689379 -0.10685723 1.2905574
0.21072188 -0.10649385 1.2861687
0.21452357 -0.10613271 1.2818071
0.2182994 -0.10577394 1.277474
0.22204983 -0.10541759 1.2731704
0.22577505 -0.10506363 1.2688954
0.22948878 -0.10471818 1.2647232
0.23478918 -0.10509611 1.2692876
0.24012795 -0.10547676 1.2738849
0.24550557 -0.1058602 1.2785158
0.25092238 -0.10624642 1.2831804
0.25637889 -0.10663547 1.2878791
0.26187551 -0.10702739 1.2926124
0.26741269 -0.1074222 1.2973807
0.27299088 -0.10781992 1.3021842
0.27861059 -0.10822064 1.3070239
0.2842724 -0.10862441 1.3119004
0.16716754 -0.10595126 1.3364874
0.17127086 -0.10557793 1.3317782
0.17534558 -0.10520735 1.3271036
0.17939134 -0.10483909 1.3224584
0.18340887 -0.10447341 1.3178456
0.18739848 -0.10411027 1.3132648
0.19136001 -0.1037494 1.3087128
0.19529524 -0.1033916 1.3041995
0.19920342 -0.10303625 1.2997169
0.20308481 -0.10268333 1.2952652
0.20693971 -0.10233282 1.2908438
0.21076837 -0.1019847 1.2864525
0.21457098 -0.10163889 1.2820904
0.21834752 -0.10129524 1.2777556
0.22209859 -0.10095391 1.2734499
0.22582449 -0.10061487 1.2691733
0.23022497 -0.10058372 1.2687804
0.23554508 -0.10094789 1.2733741
0.24090387 -0.10131471 1.2780012
0.24630171 -0.1016842 1.2826619
0.25173911 -0.1020564 1.287357
0.25721645 -0.10243133 1.2920864
0.2627342 -0.10280903 1.2968508
0.26829281 -0.10318954 1.3016506
0.27389291 -0.10357295 1.306487
0.27953479 -0.10395922 1.3113594
0.28521889 -0.10434838 1.3162683
0.17131038 -0.10090886 1.3320855
0.17538561 -0.10055441 1.3274065
0.17943215 -0.10020237 1.3227593
0.18345048 -0.099852785 1.3181444
0.18744081 -0.099505611 1.3135614
0.191403 -0.099160589 1.3090068
0.19533907 -0.098818593 1.3044921
0.19924796 -0.098478876 1.3000076
0.20313007 -0.098141491 1.2955538
0.20698567 -0.097806416 1.2911305
0.21081504 -0.097473621 1.2867373
0.21461844 -0.097143091 1.282374
0.21839564 -0.096814565 1.2780372
0.22214739 -0.09648826 1.2737297
0.2258739 -0.096164137 1.269451
0.23096587 -0.096422642 1.2728635
0.23630589 -0.096772887 1.277487
0.24168478 -0.097125657 1.282144
0.24710308 -0.097481035 1.2868352
0.25256115 -0.097839005 1.2915608
0.2580595 -0.098199628 1.2963213
0.26359871 -0.098562993 1.301118
0.26917908 -0.098929062 1.3059504
0.27480105 -0.099297851 1.3108188
0.28046507 -0.099669404 1.3157237
0.28617167 -0.10004375 1.3206654
0.17134979 -0.096237555 1.3323919
0.17542566 -0.095899358 1.3277097
0.17947298 -0.095563538 1.3230603
0.18349205 -0.09523005 1.3184432
0.18748318 -0.094898894 1.3138584
0.19144621 -0.094569817 1.3093023
0.19538291 -0.094243526 1.3047849
0.19929254 -0.093919471 1.3002985
0.20317535 -0.093597636 1.2958426
0.20703165 -0.093277998 1.2914174
0.2108617 -0.092960536 1.2870221
0.2146658 -0.092645235 1.2826569
0.2184438 -0.092331916 1.278319
0.22219618 -0.092020638 1.2740095
0.22639035 -0.091901034 1.2723535
0.2317116 -0.092234708 1.2769732
0.23707159 -0.092570812 1.2816265
0.24247082 -0.092909381 1.2863139
0.24790968 -0.093250424 1.2910357
0.25338876 -0.093594052 1.2957931
0.25890845 -0.093940228 1.3005859
0.26446912 -0.09428899 1.3054143
0.27007121 -0.094640344 1.3102788
0.27571523 -0.094994321 1.3151796
0.28140163 -0.095350966 1.3201172
0.17138906 -0.091564022 1.3326973
0.17546573 -0.091242179 1.3280129
0.17951384 -0.090922594 1.3233614
0.18353367 -0.090605229 1.3187423
0.18752556 -0.090290084 1.3141553
0.19148977 -0.089977123 1.3096002
0.19542678 -0.089666404 1.3050778
0.1993371 -0.089358009 1.3005892
0.20322064 -0.089051738 1.2961315
0.20707764 -0.088747561 1.2917042
0.2109084 -0.088445455 1.2873071
0.21471314 -0.08814539 1.2829398
0.21849196 -0.087847278 1.2786008
0.22224504 -0.087551072 1.2742896
0.22712098 -0.087700181 1.2764598
0.23246212 -0.088019639 1.2811095
0.23784231 -0.08834143 1.2857931
0.24326207 -0.088665612 1.2905115
0.24872185 -0.088992223 1.2952652
0.25422204 -0.089321256 1.3000542
0.25976303 -0.089652725 1.3048787
0.26534528 -0.08998666 1.3097391
0.2709693 -0.090323098 1.3146359
0.2766355 -0.090662055 1.3195693
0.2823444 -0.091003567 1.32454
0.17550582 -0.086582869 1.3283163
0.1795547 -0.086279534 1.3236626
0.18357532 -0.085978314 1.3190415
0.18756795 -0.085679188 1.3144524
0.19153289 -0.085382134 1.3098952
0.19547065 -0.085087225 1.3053708
0.19938172 -0.084794521 1.3008803
0.20326596 -0.084503829 1.2964206
0.20712365 -0.084215112 1.2919912
0.2109551 -0.083928369 1.2875922
0.21476053 -0.083643571 1.2832229
0.21854018 -0.083360687 1.278883
0.22253408 -0.083169304 1.2759469
0.22785637 -0.083472133 1.2805928
0.23321758 -0.083777189 1.2852728
0.23861828 -0.084084541 1.289988
0.24405876 -0.084394149 1.2947379
0.24953945 -0.084706053 1.299523
0.25506079 -0.085020259 1.3043435
0.26062325 -0.085336819 1.3091999
0.26622728 -0.085655734 1.3140926
0.27187335 -0.085977048 1.3190221
0.27756196 -0.086300775 1.3239886
0.17959559 -0.081634358 1.3239641
0.18361698 -0.081349291 1.3193408
0.18761036 -0.081066206 1.3147496
0.19157606 -0.080785088 1.3101904
0.19551454 -0.080505989 1.3056639
0.19942634 -0.080228984 1.3011714
0.20331129 -0.079953879 1.2967097
0.20716971 -0.079680659 1.2922785
0.21100183 -0.079409294 1.2878774
0.21480794 -0.079139769 1.2835063
0.21858831 -0.07887207 1.2791647
0.22325431 -0.078928292 1.2800765
0.22859672 -0.079216681 1.2847537
0.23397826 -0.079507172 1.289465
0.23939945 -0.079799816 1.294211
0.24486068 -0.080094613 1.2989922
0.2503624 -0.080391593 1.3038087
0.25590509 -0.080690794 1.3086611
0.26148918 -0.080992222 1.3135498
0.26711515 -0.081295915 1.3184751
0.27278349 -0.081601895 1.3234376
0.27849463 -0.081910186 1.3284374
0.1876528 -0.076451138 1.315047
0.19161925 -0.076185964 1.3104857
0.19555846 -0.075922698 1.3059572
0.19947097 -0.075661406 1.3014627
0.20335665 -0.075401902 1.296999
0.20721577 -0.075144179 1.2925658
0.21104857 -0.0748882 1.2881627
0.21527819 -0.074780844 1.286316
0.22067279 -0.075074248 1.2913629
0.22610989 -0.075369962 1.2964495
0.23159 -0.075668022 1.3015765
0.23711364 -0.075968452 1.3067442
0.24268129 -0.076271266 1.3119529
0.2482935 -0.076576501 1.3172034
0.25395083 -0.076884195 1.3224961
0.25965297 -0.077194132 1.3278273
0.26540089 -0.077506453 1.3331996
0.27119547 -0.077821307 1.3386155
0.19166245 -0.071584769 1.3107811
0.1956024 -0.07133735 1.3062507
0.19951564 -0.071091779 1.3017541
0.20340203 -0.070847899 1.2972884
0.20866753 -0.071084544 1.3016216
0.21410033 -0.071366772 1.3067895
0.21957645 -0.071651265 1.3119987
0.22509608 -0.071937926 1.3172477
0.23065929 -0.072226651 1.3225346
0.23626734 -0.0725177 1.3278639
0.24192077 -0.072811104 1.3332365
0.24762014 -0.0731069 1.3386527
0.25336599 -0.073405102 1.3441131
0.25915891 -0.073705748 1.3496182
