# .PCD v0.7 - Point Cloud Data file format
VERSION 0.7
FIELDS x y z
SIZE 4 4 4
TYPE F F F
COUNT 1 1 1
WIDTH 1347
HEIGHT 1
VIEWPOINT 0 0 0 1 0 0 0
POINTS 1347
DATA ascii
-0.1029334 -0.22137731 0.80039567
-0.099978708 -0.22107968 0.79931957
-0.097031966 -0.22078288 0.79824644
-0.094093122 -0.22048688 0.79717624
-0.09116216 -0.22019167 0.79610896
-0.088239029 -0.21989726 0.79504448
-0.085323706 -0.21960363 0.79398286
-0.082416154 -0.21931078 0.79292405
-0.079516344 -0.2190187 0.79186803
-0.076624244 -0.21872739 0.79081482
-0.073739849 -0.2184369 0.78976452
-0.07086309 -0.21814714 0.78871691
-0.067993954 -0.21785817 0.7876721
-0.065132409 -0.21756995 0.78663003
-0.062278427 -0.2172825 0.78559077
-0.059431981 -0.21699584 0.7845543
-0.056593027 -0.2167099 0.78352046
-0.053761549 -0.2164247 0.78248936
-0.050937515 -0.21614026 0.78146094
-0.048120894 -0.21585657 0.78043526
-0.045311652 -0.21557361 0.77941221
-0.042509779 -0.21529146 0.77839208
-0.03971523 -0.21501005 0.77737463
-0.036927976 -0.21472934 0.77635974
-0.034147993 -0.21444941 0.77534759
-0.031375252 -0.2141702 0.77433813
-0.028609715 -0.21389169 0.77333117
-0.025899621 -0.21401265 0.77376854
-0.023217248 -0.21441811 0.77523446
-0.020524692 -0.21482511 0.77670598
-0.017821904 -0.21523376 0.77818346
-0.015108814 -0.21564397 0.7796666
-0.12403232 -0.23162661 0.84825814
-0.1156837 -0.22137004 0.81069672
-0.11156617 -0.21889564 0.80163503
-0.1085953 -0.21860094 0.80055577
-0.10563241 -0.21830699 0.79947925
-0.10267748 -0.21801382 0.79840565
-0.099730477 -0.21772146 0.79733497
-0.096791372 -0.21742989 0.79626715
-0.093860127 -0.21713911 0.79520226
-0.090936713 -0.21684909 0.79414016
-0.088021107 -0.21655987 0.79308099
-0.085113265 -0.21627142 0.79202461
-0.082213156 -0.2159837 0.79097098
-0.079320751 -0.21569678 0.78992021
-0.07643602 -0.21541061 0.78887218
-0.073558941 -0.2151252 0.78782701
-0.07068947 -0.21484055 0.78678453
-0.067827582 -0.21455665 0.78574485
-0.064973257 -0.2142735 0.7847079
-0.062126443 -0.21399109 0.78367364
-0.059287127 -0.21370941 0.78264213
-0.056455284 -0.21342851 0.78161341
-0.05363087 -0.21314833 0.78058732
-0.050813869 -0.2128689 0.77956402
-0.048004247 -0.21259023 0.77854347
-0.045201968 -0.21231228 0.77752554
-0.042407013 -0.21203506 0.77651036
-0.039619349 -0.21175858 0.77549785
-0.036838938 -0.21148279 0.77448785
-0.034065768 -0.21120775 0.77348059
-0.0312998 -0.21093343 0.77247596
-0.028549518 -0.21072264 0.77170402
-0.025879323 -0.2111208 0.77316213
-0.023199018 -0.21152046 0.77462578
-0.020508545 -0.21192162 0.77609491
-0.017807854 -0.21232441 0.77757001
-0.01509688 -0.21272877 0.77905083
-0.01237556 -0.21313463 0.78053719
-0.009643835 -0.21354207 0.78202927
-0.12067517 -0.22244941 0.82529855
-0.11425947 -0.21582344 0.80071586
-0.11128836 -0.21553317 0.79963893
-0.10832526 -0.21524368 0.79856497
-0.10537009 -0.21495499 0.79749388
-0.10242283 -0.21466704 0.79642558
-0.099483468 -0.21437986 0.79536015
-0.09655197 -0.21409349 0.7942977
-0.09362828 -0.21380787 0.79323798
-0.090712383 -0.213523 0.79218113
-0.087804258 -0.21323891 0.79112715
-0.084903859 -0.21295558 0.79007596
-0.082011156 -0.21267299 0.78902757
-0.07912612 -0.21239115 0.78798193
-0.076248713 -0.21211006 0.78693902
-0.073378921 -0.21182971 0.78589892
-0.070516706 -0.21155012 0.78486162
-0.06766203 -0.21127124 0.78382701
-0.064814873 -0.2109931 0.78279507
-0.061975203 -0.2107157 0.78176588
-0.059142996 -0.21043903 0.78073943
-0.056318227 -0.21016315 0.7797159
-0.053500846 -0.20988794 0.77869487
-0.050690845 -0.20961349 0.77767664
-0.047888178 -0.20933974 0.77666104
-0.045092817 -0.2090667 0.77564806
-0.042304747 -0.2087944 0.77463776
-0.039523929 -0.2085228 0.77363014
-0.036750332 -0.20825186 0.77262497
-0.033983935 -0.20798168 0.77162254
-0.031224709 -0.20771219 0.77062273
-0.028527208 -0.20784108 0.77110094
-0.025859062 -0.20823349 0.77255678
-0.02318082 -0.20862737 0.77401811
-0.020492427 -0.20902275 0.77548498
-0.017793829 -0.20941967 0.77695757
-0.015084966 -0.20981817 0.77843601
-0.012365775 -0.21021819 0.7799201
-0.0096361963 -0.21061972 0.7814098
-0.0068961694 -0.21102279 0.78290522
-0.12584966 -0.22356825 0.84043556
-0.11749494 -0.21375585 0.80354893
-0.11397528 -0.21247242 0.79872429
-0.11101194 -0.21218738 0.79765272
-0.10805655 -0.2119031 0.79658407
-0.10510907 -0.21161959 0.79551828
-0.10216945 -0.21133681 0.79445529
-0.099237695 -0.21105482 0.79339522
-0.096313745 -0.21077356 0.79233789
-0.093397573 -0.21049303 0.79128337
-0.090489164 -0.21021329 0.79023176
-0.087588474 -0.20993428 0.7891829
-0.084695488 -0.20965604 0.78813696
-0.081810147 -0.2093785 0.78709364
-0.078932434 -0.20910171 0.78605312
-0.076062322 -0.20882565 0.78501534
-0.073199779 -0.2085503 0.78398031
-0.070344776 -0.20827571 0.78294802
-0.067497283 -0.20800184 0.78191847
-0.064657286 -0.20772871 0.78089178
-0.061824724 -0.20745631 0.77986771
-0.058999594 -0.20718463 0.77884644
-0.056181852 -0.20691365 0.7778278
-0.053371463 -0.20664336 0.77681172
-0.050568417 -0.20637381 0.77579844
-0.047772668 -0.20610495 0.77478772
-0.044984195 -0.20583677 0.77377963
-0.042202972 -0.20556931 0.77277416
-0.039428968 -0.20530255 0.77177137
-0.03666215 -0.20503646 0.77077109
-0.033902496 -0.20477107 0.76977342
-0.03116101 -0.2045788 0.76905066
-0.02850493 -0.20496401 0.77049875
-0.025838826 -0.20535068 0.77195227
-0.023162648 -0.20573881 0.77341133
-0.020476332 -0.20612842 0.77487594
-0.017779823 -0.2065195 0.77634609
-0.01507307 -0.20691215 0.77782214
-0.012356005 -0.20730631 0.77930385
-0.0096285688 -0.20770198 0.78079128
-0.0068907002 -0.20809916 0.78228432
-0.0041423412 -0.20849784 0.78378308
-0.12247393 -0.21468958 0.81789201
-0.11665605 -0.20941868 0.79781175
-0.1136925 -0.20913805 0.79674262
-0.11073688 -0.20885818 0.79567641
-0.10778917 -0.20857905 0.794613
-0.10484932 -0.20830067 0.79355246
-0.10191731 -0.20802301 0.79249471
-0.098993115 -0.20774612 0.79143983
-0.09607669 -0.20746996 0.79038775
-0.093167998 -0.20719451 0.78933841
-0.090267032 -0.20691982 0.78829193
-0.087373756 -0.20664586 0.78724825
-0.084488124 -0.20637262 0.78620732
-0.081610121 -0.20610014 0.78516924
-0.078739703 -0.20582834 0.78413379
-0.075876839 -0.20555727 0.78310108
-0.073021531 -0.20528695 0.78207129
-0.070173718 -0.20501733 0.78104413
-0.067333378 -0.20474842 0.7800197
-0.064500481 -0.20448025 0.77899802
-0.061674986 -0.20421274 0.7779789
-0.058856882 -0.20394595 0.77696252
-0.056046136 -0.20367986 0.77594882
-0.053242706 -0.20341444 0.77493769
-0.050446577 -0.20314974 0.77392924
-0.047657713 -0.2028857 0.77292335
-0.044876095 -0.20262237 0.77192014
-0.042101689 -0.20235972 0.77091956
-0.039334457 -0.20209773 0.76992148
-0.036574386 -0.20183644 0.76892602
-0.033821445 -0.20157582 0.76793313
-0.03113674 -0.20171192 0.76845169
-0.028482687 -0.20209144 0.76989752
-0.025818627 -0.20247239 0.77134877
-0.023144504 -0.20285477 0.77280551
-0.020460263 -0.20323861 0.77426779
-0.017765842 -0.20362388 0.77573556
-0.015061194 -0.20401073 0.77720928
-0.012346251 -0.20439905 0.77868867
-0.0096209524 -0.20478885 0.78017366
-0.0068852403 -0.20518015 0.78166443
-0.0041390527 -0.20557295 0.78316081
-0.0013823307 -0.20596726 0.78466302
0.001384987 -0.20636307 0.7861709
-0.12763381 -0.21565713 0.83275598
-0.11933069 -0.2063719 0.79690123
-0.11636694 -0.20609567 0.79583454
-0.11341111 -0.20582017 0.79477072
-0.11046319 -0.20554543 0.79370981
-0.10752311 -0.20527139 0.79265165
-0.10459086 -0.20499809 0.79159629
-0.10166642 -0.20472553 0.79054379
-0.098749742 -0.20445369 0.7894941
-0.095840797 -0.20418257 0.78844714
-0.092939556 -0.20391217 0.78740299
-0.090045996 -0.20364249 0.78636163
-0.087160088 -0.20337354 0.78532308
-0.084281787 -0.20310529 0.78428727
-0.081411093 -0.20283781 0.78325438
-0.07854794 -0.202571 0.78222412
-0.075692311 -0.2023049 0.78119659
-0.072844177 -0.20203952 0.78017181
-0.07000351 -0.20177482 0.77914965
-0.06717027 -0.20151082 0.77813023
-0.064344436 -0.2012475 0.77711344
-0.061525978 -0.20098487 0.77609926
-0.058714867 -0.20072292 0.77508777
-0.055911068 -0.20046164 0.77407885
-0.053114571 -0.20020106 0.77307266
-0.050325327 -0.19994116 0.77206904
-0.047543313 -0.19968192 0.77106798
-0.044768512 -0.19942337 0.7700696
-0.042000886 -0.19916549 0.76907378
-0.039240405 -0.19890825 0.76808047
-0.036487043 -0.19865167 0.76708972
-0.033754602 -0.19847706 0.76641542
-0.031112505 -0.19884948 0.76785356
-0.028460475 -0.19922332 0.76929712
-0.025798459 -0.1995986 0.77074623
-0.023126388 -0.19997524 0.77220064
-0.020444218 -0.20035334 0.77366066
-0.017751886 -0.20073286 0.77512616
-0.015049336 -0.20111385 0.77659738
-0.012336512 -0.20149636 0.77807444
-0.0096133491 -0.20188034 0.77955711
-0.0068797879 -0.20226575 0.78104544
-0.0041357689 -0.20265268 0.78253949
-0.0013812317 -0.20304106 0.78403926
0.0013838841 -0.20343097 0.78554487
0.0041596396 -0.20382234 0.78705615
-0.12424069 -0.20706782 0.81061727
-0.1190353 -0.20306022 0.79492861
-0.11607927 -0.20278908 0.79386717
-0.11313114 -0.2025187 0.79280865
-0.11019085 -0.20224902 0.79175293
-0.10725836 -0.20198004 0.79069996
-0.10433368 -0.20171177 0.78964978
-0.10141677 -0.20144427 0.78860253
-0.098507561 -0.20117742 0.7875579
-0.095606059 -0.20091128 0.78651607
-0.092712231 -0.20064588 0.78547704
-0.089826062 -0.20038122 0.78444099
-0.086947501 -0.20011726 0.78340763
-0.084076509 -0.19985399 0.782377
-0.081213064 -0.19959143 0.78134912
-0.078357123 -0.19932953 0.78032386
-0.075508684 -0.19906834 0.7793014
-0.072667688 -0.19880784 0.77828157
-0.069834113 -0.19854797 0.7772643
-0.067007951 -0.19828883 0.77624983
-0.064189143 -0.19803035 0.77523792
-0.061377686 -0.19777255 0.77422869
-0.058573537 -0.19751541 0.77322209
-0.055776659 -0.19725892 0.77221799
-0.05298705 -0.19700313 0.77121663
-0.050204661 -0.19674799 0.77021784
-0.047429468 -0.19649351 0.7692216
-0.044661444 -0.19623968 0.76822793
-0.041900568 -0.19598652 0.76723689
-0.039146796 -0.19573398 0.76624823
-0.036400121 -0.19548213 0.76526231
-0.033728402 -0.19562474 0.76582056
-0.031088309 -0.19599152 0.76725644
-0.028438302 -0.19635971 0.7686978
-0.025778318 -0.19672927 0.77014452
-0.023108302 -0.19710022 0.77159673
-0.020428197 -0.19747259 0.77305442
-0.017737951 -0.19784637 0.77451771
-0.015037497 -0.19822155 0.77598643
-0.012326788 -0.19859825 0.77746111
-0.0096057579 -0.19897641 0.77894151
-0.0068743443 -0.19935599 0.78042746
-0.0041324906 -0.19973704 0.78191918
-0.0013801348 -0.20011955 0.78341663
0.0013827828 -0.20050351 0.78491974
0.0041563236 -0.20088896 0.78642869
0.0069405478 -0.20127589 0.78794336
0.0097355172 -0.20166428 0.78946388
-0.12938565 -0.20788932 0.82521552
-0.1216976 -0.20003168 0.79402471
-0.11874138 -0.19976491 0.79296571
-0.11579302 -0.19949882 0.79190952
-0.11285252 -0.19923347 0.79085618
-0.10991983 -0.19896881 0.78980565
-0.10699492 -0.19870485 0.78875786
-0.10407776 -0.19844159 0.78771287
-0.10116833 -0.19817905 0.78667068
-0.098266579 -0.19791719 0.78563124
-0.095372491 -0.19765602 0.78459454
-0.092744626 -0.19794747 0.78575146
-0.09031871 -0.19870116 0.7887432
-0.087331332 -0.19822825 0.78686601
-0.084357984 -0.19775724 0.78499633
-0.08139883 -0.19728869 0.78313643
-0.078453667 -0.19682236 0.78128529
-0.0755224 -0.19635825 0.77944303
-0.072604917 -0.1958963 0.77760929
-0.069701135 -0.19543651 0.77578419
-0.066846408 -0.19508238 0.77437848
-0.064034604 -0.19482867 0.7733714
-0.061230104 -0.19457567 0.77236706
-0.058432877 -0.1943233 0.77136528
-0.055642895 -0.19407156 0.77036601
-0.052860133 -0.19382049 0.76936942
-0.050084569 -0.19357009 0.76837546
-0.04731616 -0.1933203 0.76738393
-0.044554889 -0.19307119 0.76639503
-0.041800722 -0.19282269 0.76540864
-0.039053638 -0.19257484 0.7644248
-0.03633048 -0.19241698 0.76379818
-0.033702239 -0.19277681 0.76522654
-0.031064155 -0.193138 0.76666027
-0.028416164 -0.19350053 0.76809937
-0.025758212 -0.19386445 0.76954389
-0.023090245 -0.19422971 0.77099377
-0.020412205 -0.19459635 0.7724492
-0.017724035 -0.19496439 0.77391011
-0.015025678 -0.19533382 0.77537656
-0.01231708 -0.19570473 0.77684885
-0.0095981779 -0.19607706 0.77832687
-0.0068689105 -0.19645083 0.77981055
-0.004129217 -0.19682601 0.78129983
-0.0013790396 -0.19720267 0.78279495
0.0013816835 -0.19758074 0.78429568
0.0041530118 -0.19796024 0.78580213
0.0069350083 -0.19834124 0.78731447
0.0097318869 -0.19880854 0.78916943
-0.12597631 -0.19958046 0.80347091
-0.12139743 -0.19674756 0.79206622
-0.11844889 -0.1964858 0.79101247
-0.11550818 -0.19622475 0.78996152
-0.11257529 -0.1959644 0.78891337
-0.10965015 -0.1957047 0.7878679
-0.10673277 -0.19544572 0.7868253
-0.1038231 -0.19518743 0.7857855
-0.10092109 -0.19492979 0.78474826
-0.098026782 -0.19467291 0.78371412
-0.09514007 -0.19441667 0.78268254
-0.092870608 -0.19544412 0.78681886
-0.09061303 -0.19656058 0.79131347
-0.087815113 -0.19653858 0.79122496
-0.084824234 -0.19606912 0.78933501
-0.081847616 -0.19560194 0.78745419
-0.07888519 -0.19513705 0.78558266
-0.075936817 -0.19467437 0.78372002
-0.073002376 -0.19421388 0.78186613
-0.070081793 -0.19375555 0.78002101
-0.067174971 -0.1932994 0.77818465
-0.064281799 -0.19284539 0.77635688
-0.061402176 -0.19239348 0.77453762
-0.058536023 -0.19194371 0.77272689
-0.055683244 -0.19149603 0.77092463
-0.052843735 -0.19105043 0.76913071
-0.050017416 -0.19060692 0.76734525
-0.047204189 -0.19016545 0.76556796
-0.044448838 -0.18991776 0.76457083
-0.041701354 -0.1896739 0.76358908
-0.038960919 -0.18943068 0.76260996
-0.036302377 -0.18957908 0.76320738
-0.033676121 -0.18993331 0.76463348
-0.031040035 -0.1902889 0.766065
-0.028394055 -0.1906458 0.76750177
-0.025738135 -0.19100405 0.76894403
-0.023072217 -0.19136368 0.77039182
-0.020396236 -0.19172463 0.77184492
-0.017710144 -0.19208695 0.77330357
-0.015013879 -0.19245064 0.7747677
-0.012307388 -0.19281575 0.77623755
-0.0095906099 -0.19318229 0.77771318
-0.0068634842 -0.19355026 0.77919453
-0.0041259495 -0.19391963 0.78068155
-0.001377946 -0.19429038 0.78217417
0.0013805857 -0.19466259 0.78367257
0.0041497061 -0.1950362 0.78517663
0.0069294767 -0.19541124 0.78668648
0.0097486172 -0.196365 0.79052615
0.012624742 -0.19778764 0.79625338
-0.13110605 -0.20026089 0.81781036
-0.12404747 -0.19373706 0.79116881
-0.12109873 -0.19347958 0.79011738
-0.11815784 -0.19322282 0.78906882
-0.11522474 -0.19296674 0.78802305
-0.1122994 -0.19271132 0.78697997
-0.10938179 -0.19245657 0.78593969
-0.1064719 -0.19220251 0.78490216
-0.10356968 -0.19194913 0.78386742
-0.10067511 -0.19169645 0.78283554
-0.097788155 -0.19144441 0.78180629
-0.095231295 -0.19184276 0.78343302
-0.092996947 -0.19293396 0.78788918
-0.090737015 -0.19403762 0.79239619
-0.088304393 -0.19483033 0.79563344
-0.085295714 -0.19436236 0.79372239
-0.082301445 -0.19389664 0.79182047
-0.079321533 -0.19343323 0.78992802
-0.076355793 -0.19297192 0.78804415
-0.073404215 -0.19251293 0.78616983
-0.070466645 -0.19205615 0.78430444
-0.067542978 -0.1916015 0.78244781
-0.064633116 -0.19114901 0.78059995
-0.061736971 -0.19069865 0.77876079
-0.058854442 -0.1902504 0.77693027
-0.055985436 -0.18980429 0.77510846
-0.053129848 -0.18936023 0.77329504
-0.050287589 -0.18891825 0.7714901
-0.04745857 -0.18847834 0.76969361
-0.044642694 -0.18804045 0.76790541
-0.041839879 -0.18760462 0.76612562
-0.03905002 -0.18717079 0.76435399
-0.036274318 -0.18674555 0.76261747
-0.033650044 -0.18709424 0.76404136
-0.031015953 -0.18744424 0.76547068
-0.028371986 -0.18779553 0.76690525
-0.025718091 -0.18814814 0.76834524
-0.023054212 -0.18850209 0.76979065
-0.020380292 -0.18885738 0.77124155
-0.017696273 -0.18921399 0.77269787
-0.015002099 -0.18957198 0.77415979
-0.01229771 -0.18993132 0.7756272
-0.009583055 -0.19029209 0.7771005
-0.0068580667 -0.19065425 0.77857947
-0.0041226866 -0.19101781 0.78006417
-0.0013768541 -0.19138274 0.7815544
0.0013794897 -0.19174907 0.78305042
0.004146406 -0.19211681 0.78455216
0.0069254092 -0.19252637 0.78622472
0.0097654052 -0.19391306 0.79188752
0.012646646 -0.19532043 0.79763484
-0.13642202 -0.20096576 0.83266973
-0.12768158 -0.19222392 0.7964493
-0.1237426 -0.19048019 0.78922439
-0.12080152 -0.19022767 0.78817815
-0.11786822 -0.18997584 0.78713471
-0.11494268 -0.18972468 0.78609407
-0.11202487 -0.18947417 0.78505611
-0.10911475 -0.18922432 0.7840209
-0.10621232 -0.18897516 0.78298855
-0.10331752 -0.18872668 0.781959
-0.10043032 -0.18847883 0.78093207
-0.097571738 -0.18827224 0.78007609
-0.095360287 -0.18933854 0.78449416
-0.093123607 -0.19041693 0.7889623
-0.090861328 -0.19150773 0.79348183
-0.088572882 -0.19261087 0.79805255
-0.085772462 -0.19263652 0.79815882
-0.082760356 -0.19217235 0.79623562
-0.079762734 -0.19171043 0.79432172
-0.076779813 -0.19125155 0.79242039
-0.073810779 -0.19079389 0.79052418
-0.070855737 -0.19033796 0.78863508
-0.067915037 -0.18988489 0.78675789
-0.064988308 -0.18943401 0.7848897
-0.062075447 -0.18898526 0.78303039
-0.059176348 -0.1885386 0.78117973
-0.056290925 -0.18809406 0.77933788
-0.053419072 -0.1876516 0.77750462
-0.050560702 -0.18721125 0.77568007
-0.047715716 -0.18677294 0.77386403
-0.044884019 -0.18633668 0.77205646
-0.04206552 -0.18590246 0.77025729
-0.039260127 -0.18547025 0.76846653
-0.036467753 -0.18504007 0.76668417
-0.033688273 -0.18461174 0.76490939
-0.030991908 -0.18460397 0.76487726
-0.028349949 -0.18494967 0.76630956
-0.025698081 -0.18529668 0.7677474
-0.02303624 -0.185645 0.76919055
-0.020364376 -0.18599463 0.77063918
-0.017682426 -0.18634556 0.77209324
-0.014990336 -0.18669783 0.77355278
-0.012288051 -0.18705143 0.77501792
-0.0095755113 -0.18740644 0.77648878
-0.0068526585 -0.18776284 0.77796549
-0.0041194288 -0.18812057 0.77944773
-0.0013757643 -0.18847971 0.7809357
0.0013783955 -0.18884018 0.78242928
0.0041431105 -0.18920206 0.78392863
0.006937271 -0.19008122 0.78757137
0.0097822528 -0.19145265 0.79325366
0.012668625 -0.19284463 0.79902107
-0.13279584 -0.19276816 0.81053686
-0.1263805 -0.18748756 0.78833342
-0.12343924 -0.18723929 0.78728956
-0.12050576 -0.18699169 0.78624845
-0.11758003 -0.18674475 0.78521013
-0.11466201 -0.18649845 0.7841745
-0.1117517 -0.18625283 0.78314173
-0.10884903 -0.18600784 0.78211164
-0.10595401 -0.18576352 0.78108436
-0.10306658 -0.18551984 0.78005975
-0.10018672 -0.18527681 0.77903783
-0.09770333 -0.18577394 0.78112811
-0.095489599 -0.18682748 0.78555799
-0.093250632 -0.18789306 0.79003847
-0.090985976 -0.18897088 0.79457039
-0.088695101 -0.19006093 0.79915375
-0.086254574 -0.19089127 0.80264509
-0.083224408 -0.19042873 0.80070025
-0.08020889 -0.18996844 0.79876482
-0.077207915 -0.18951035 0.7968387
-0.074221388 -0.18905449 0.79492193
-0.071249261 -0.18860099 0.79301512
-0.068291217 -0.18814927 0.79111576
-0.065347426 -0.18770005 0.78922689
-0.062417645 -0.18725294 0.7873469
-0.05950179 -0.18680795 0.78547585
-0.056599766 -0.18636508 0.78361374
-0.053711463 -0.18592429 0.78176033
-0.050836798 -0.18548562 0.77991581
-0.047975659 -0.18504898 0.77807987
-0.045127962 -0.18461439 0.77625257
-0.042293608 -0.18418184 0.77443379
-0.039472502 -0.18375131 0.77262354
-0.036664661 -0.18332331 0.7708239
-0.033869669 -0.18289621 0.76902807
-0.031087747 -0.18247156 0.76724255
-0.028327951 -0.18210825 0.76571494
-0.025678096 -0.18244964 0.76715034
-0.023018293 -0.18279232 0.76859128
-0.02034848 -0.18313631 0.77003765
-0.017668599 -0.1834816 0.7714895
-0.014978593 -0.18382819 0.77294677
-0.012278406 -0.18417609 0.77440959
-0.0095679788 -0.18452531 0.77587801
-0.0068472577 -0.18487597 0.77735239
-0.0041161762 -0.18522793 0.77883232
-0.0013746758 -0.18558122 0.78031784
0.001377303 -0.1859359 0.78180915
0.0041398206 -0.18629192 0.78330612
0.0069491733 -0.18762767 0.78892261
0.0097991591 -0.18898378 0.79462463
0.012690681 -0.19036022 0.80041218
0.015624632 -0.19175684 0.80628461
-0.1380941 -0.19333173 0.82513076
-0.12935732 -0.18499488 0.78954941
-0.12607102 -0.18425764 0.78640294
-0.12313735 -0.18401425 0.78536415
-0.12021143 -0.18377149 0.7843281
-0.11729323 -0.18352941 0.78329486
-0.11438272 -0.18328798 0.78226447
-0.11147986 -0.18304719 0.78123677
-0.10858462 -0.18280701 0.78021175
-0.10569696 -0.18256748 0.77918941
-0.10281686 -0.18232857 0.77816975
-0.10002636 -0.1822398 0.7777909
-0.097835273 -0.18326889 0.78218299
-0.095619284 -0.18430963 0.78662485
-0.093378 -0.18536229 0.79111755
-0.09111096 -0.18642704 0.79566181
-0.088817671 -0.18750396 0.8002581
-0.086497679 -0.1885933 0.80490732
-0.083693691 -0.18866545 0.80521524
-0.080660075 -0.18820684 0.80325794
-0.077641174 -0.18775047 0.80131018
-0.074636869 -0.1872963 0.79937178
-0.07164707 -0.18684432 0.79744273
-0.068671674 -0.18639456 0.79552317
-0.065711081 -0.18594837 0.79361892
-0.062763639 -0.18550143 0.79171133
-0.05983083 -0.18505815 0.78981948
-0.056912012 -0.18461701 0.78793675
-0.054007076 -0.18417798 0.78606296
-0.051115919 -0.18374102 0.78419799
-0.048238449 -0.18330611 0.78234184
-0.045374572 -0.18287326 0.78049451
-0.042524189 -0.18244249 0.77865595
-0.039687198 -0.18201371 0.7768259
-0.036863718 -0.18158795 0.7750088
-0.03405311 -0.18116255 0.77319324
-0.031255651 -0.18073921 0.77138644
-0.028471313 -0.18031831 0.76959008
-0.025699908 -0.17989936 0.767802
-0.023000378 -0.17994413 0.76799309
-0.02033261 -0.18028247 0.76943713
-0.017654793 -0.18062212 0.77088666
-0.014966867 -0.18096302 0.77234167
-0.012268774 -0.18130523 0.77380216
-0.0095604602 -0.18164875 0.77526832
-0.0068418658 -0.18199363 0.77674025
-0.0041129286 -0.18233985 0.77821785
-0.0013735892 -0.18268736 0.77970105
0.0013762121 -0.18303621 0.78118992
0.0041468628 -0.18384424 0.78463858
0.0069611166 -0.1851657 0.79027849
0.009816125 -0.18650638 0.79600042
0.012712813 -0.18786713 0.80180806
0.015652081 -0.18924789 0.80770111
-0.13445584 -0.18540753 0.8033917
-0.12869687 -0.18128268 0.78551829
-0.12576304 -0.18104351 0.78448188
-0.12283695 -0.18080494 0.78344816
-0.11991857 -0.18056704 0.7824173
-0.11700787 -0.18032977 0.78138918
-0.11410481 -0.18009312 0.7803638
-0.11120934 -0.17985709 0.77934098
-0.10832147 -0.17962168 0.77832097
-0.10544115 -0.17938688 0.77730358
-0.10256836 -0.17915273 0.77628893
-0.10016086 -0.17974073 0.77883679
-0.097967565 -0.18075706 0.78324068
-0.095749326 -0.18178494 0.78769463
-0.09350571 -0.1828246 0.79219955
-0.091236293 -0.18387622 0.79675633
-0.088940568 -0.18493991 0.80136544
-0.086618066 -0.18601584 0.80602759
-0.0841683 -0.18688217 0.80978143
-0.081116363 -0.18642533 0.8078019
-0.078079306 -0.18597071 0.80583203
-0.07505703 -0.18551832 0.80387175
-0.072049424 -0.18506813 0.80192101
-0.069056369 -0.1846201 0.79997963
-0.066077784 -0.18417424 0.79804772
-0.063113503 -0.18373042 0.79612458
-0.060163882 -0.18328996 0.79421604
-0.057227727 -0.18284957 0.79230773
-0.054305956 -0.18241231 0.79041308
-0.051398125 -0.18197714 0.78852743
-0.048504133 -0.18154405 0.78665078
-0.045623891 -0.18111303 0.78478312
-0.042757291 -0.18068403 0.78292423
-0.039904233 -0.18025705 0.78107411
-0.037064694 -0.17983241 0.77923405
-0.034238424 -0.17940934 0.77740085
-0.031425372 -0.17898799 0.7755751
-0.028625561 -0.17856897 0.77375948
-0.025838818 -0.17815186 0.77195203
-0.023065064 -0.17773667 0.77015299
-0.020316768 -0.1774331 0.76883763
-0.01764101 -0.1777671 0.77028483
-0.01495516 -0.17810236 0.77173758
-0.012259161 -0.17843889 0.7731958
-0.0095529528 -0.1787767 0.77465951
-0.0068364823 -0.17911583 0.77612907
-0.0041096862 -0.17945629 0.77760434
-0.0013725044 -0.17979807 0.77908528
0.001375123 -0.18014112 0.78057176
0.0041539506 -0.18138918 0.78597975
0.0069731008 -0.18269524 0.79163903
0.0098331487 -0.18402036 0.79738092
0.012735023 -0.18536535 0.80320889
0.015679626 -0.18673009 0.8091225
-0.13973618 -0.18583471 0.81772709
-0.13131683 -0.17831443 0.78463566
-0.12838285 -0.17807943 0.78360158
-0.12545657 -0.17784503 0.78257018
-0.12253803 -0.17761131 0.78154171
-0.11962714 -0.17737818 0.78051585
-0.11672389 -0.17714566 0.77949274
-0.11382823 -0.17691375 0.77847224
-0.11094014 -0.17668246 0.7774545
-0.10805961 -0.17645176 0.77643937
-0.10518659 -0.17622168 0.77542698
-0.10246664 -0.17624263 0.77551913
-0.10029572 -0.1772349 0.77988541
-0.098100223 -0.17823842 0.78430122
-0.095879704 -0.17925335 0.78876722
-0.093633771 -0.18027996 0.79328454
-0.091361962 -0.18131836 0.79785383
-0.089063808 -0.18236876 0.80247587
-0.086738795 -0.18343122 0.80715102
-0.084386528 -0.18450613 0.81188095
-0.081577837 -0.18462352 0.81239754
-0.078522421 -0.18417077 0.81040525
-0.075481951 -0.18372022 0.80842268
-0.072456315 -0.18327186 0.80644977
-0.069445409 -0.18282567 0.80448645
-0.066449136 -0.18238167 0.80253273
-0.063467383 -0.18193983 0.80058849
-0.06050026 -0.18150078 0.79865652
-0.057547443 -0.18106391 0.79673415
-0.054608107 -0.18062681 0.79481083
-0.051683467 -0.18019371 0.79290503
-0.048772763 -0.17976247 0.79100746
-0.045875963 -0.1793333 0.78911901
-0.042992961 -0.1789062 0.78723961
-0.04012366 -0.17848112 0.7853691
-0.03726818 -0.17805909 0.78351206
-0.034425974 -0.17763802 0.78165931
-0.031597111 -0.17721859 0.77981365
-0.028781489 -0.17680058 0.77797425
-0.025979236 -0.17638533 0.77614707
-0.023190113 -0.17597203 0.77432841
-0.020414032 -0.17556068 0.77251834
-0.0176509 -0.17515123 0.77071667
-0.014943472 -0.17524618 0.77113444
-0.012249561 -0.17557704 0.77259034
-0.0095454585 -0.17590916 0.77405179
-0.0068311077 -0.17624258 0.77551889
-0.004106449 -0.17657731 0.77699184
-0.001371421 -0.17691332 0.77847034
0.0013771593 -0.17765354 0.78172755
0.0041610636 -0.17892574 0.78732556
0.006985127 -0.18021628 0.79300433
0.0098502319 -0.18152571 0.7987662
0.01275731 -0.18285477 0.80461448
0.015707269 -0.18420345 0.81054902
0.018701067 -0.18557213 0.81657165
-0.13608684 -0.17817554 0.79637134
-0.13099676 -0.17512198 0.78272319
-0.12807034 -0.17489175 0.78169417
-0.12515163 -0.17466217 0.78066802
-0.12224057 -0.17443317 0.77964449
-0.11933713 -0.17420477 0.77862364
-0.11644128 -0.17397697 0.77760547
-0.113553 -0.17374976 0.77658993
-0.11067225 -0.17352316 0.77557713
-0.10779901 -0.17329714 0.77456689
-0.10493324 -0.17307171 0.77355933
-0.10260402 -0.1737428 0.77655882
-0.10043095 -0.17472234 0.78093696
-0.098233238 -0.17571297 0.78536469
-0.096010454 -0.1767149 0.78984284
-0.093762197 -0.17772834 0.79437256
-0.091487989 -0.17875345 0.79895437
-0.089187391 -0.17979045 0.80358934
-0.086859852 -0.18083936 0.80827755
-0.084504999 -0.18190059 0.81302077
-0.082044594 -0.18280111 0.81704575
-0.078970589 -0.18235026 0.81503063
-0.075911701 -0.18190162 0.81302541
-0.072867833 -0.18145519 0.81103003
-0.069838867 -0.18101095 0.80904442
-0.066824697 -0.18056886 0.80706847
-0.063825212 -0.18012893 0.80510217
-0.060840305 -0.17969114 0.80314541
-0.057870187 -0.17925642 0.80120248
-0.0549137 -0.17882153 0.79925865
-0.05197252 -0.17839216 0.79733956
-0.049044386 -0.17796105 0.79541266
-0.046130836 -0.17753384 0.79350317
-0.043231245 -0.17710865 0.79160279
-0.040345512 -0.17668551 0.78971153
-0.037473749 -0.17626542 0.78783387
-0.034615315 -0.17584582 0.78595841
-0.031770516 -0.17542851 0.78409326
-0.028939338 -0.17501409 0.78224099
-0.02612119 -0.17459953 0.78038806
-0.023316527 -0.17418817 0.77854943
-0.020525051 -0.17377877 0.77671957
-0.017746666 -0.17337129 0.77489829
-0.014981282 -0.17296571 0.77308553
-0.012239976 -0.17271967 0.77198583
-0.0095379753 -0.17304613 0.77344495
-0.0068257418 -0.17337385 0.77490973
-0.0041032173 -0.17370287 0.7763803
-0.0013703395 -0.17403314 0.77785647
0.0013795046 -0.17519708 0.78305882
0.0041682003 -0.17645381 0.78867596
0.0069971937 -0.17772871 0.79437423
0.0098673757 -0.17902239 0.80015641
0.012779676 -0.18033543 0.80602515
0.015735012 -0.18166785 0.81198055
0.018734341 -0.18302011 0.81802458
-0.14134906 -0.17847103 0.81045514
-0.13399255 -0.17267081 0.78411573
-0.13088731 -0.17222016 0.78206927
-0.12779813 -0.17177168 0.78003269
-0.12484816 -0.17149472 0.77877504
-0.12194454 -0.17127043 0.77775645
-0.11904852 -0.17104672 0.77674061
-0.11616004 -0.17082359 0.77572733
-0.1132791 -0.17060106 0.77471679
-0.11040565 -0.17037907 0.77370876
-0.10753966 -0.17015769 0.77270341
-0.1048927 -0.17028037 0.77326047
-0.10274176 -0.17123628 0.77760136
-0.10056654 -0.17220299 0.7819913
-0.098366603 -0.17318064 0.78643095
-0.096141554 -0.17416948 0.79092139
-0.09389095 -0.17516968 0.79546338
-0.091614358 -0.17618145 0.80005795
-0.089311302 -0.17720497 0.8047058
-0.086981252 -0.17824027 0.80940723
-0.084623799 -0.1792877 0.81416374
-0.082238473 -0.18034753 0.81897652
-0.079423904 -0.18050887 0.81970918
-0.076346375 -0.1800622 0.81768084
-0.073284045 -0.17961776 0.81566256
-0.070236802 -0.17917551 0.81365424
-0.06720452 -0.17873542 0.81165576
-0.064187095 -0.17829749 0.80966705
-0.061184425 -0.17786171 0.80768812
-0.058196396 -0.17742804 0.80571878
-0.055222902 -0.17699647 0.80375904
-0.052264184 -0.1765682 0.80181414
-0.049319178 -0.17613992 0.79986936
-0.046388917 -0.1757156 0.7979424
-0.043472193 -0.17529109 0.79601473
-0.040569831 -0.17486995 0.79410231
-0.037681464 -0.17445123 0.7922008
-0.03480709 -0.17403544 0.79031271
-0.031946216 -0.17362075 0.7884295
-0.02909869 -0.17320649 0.78654832
-0.026264636 -0.17279366 0.78467363
-0.023444327 -0.17238475 0.78281677
-0.020637285 -0.17197737 0.78096676
-0.017843479 -0.17157193 0.77912557
-0.015062816 -0.17116836 0.77729297
-0.012295201 -0.1707667 0.77546895
-0.0095405467 -0.17036691 0.77365351
-0.0068203849 -0.17050962 0.77430159
-0.0040999898 -0.1708329 0.77576965
-0.0013720688 -0.1715086 0.77883804
0.0013818577 -0.1727322 0.78439456
0.0041753617 -0.1739734 0.79003096
0.0070093023 -0.17523256 0.79574889
0.0098845791 -0.17651035 0.80155146
0.012802118 -0.17780721 0.80744064
0.015762851 -0.1791233 0.81341714
0.018767735 -0.18045899 0.81948268
-0.14680076 -0.17877716 0.825046
-0.13795118 -0.17139389 0.79097265
-0.13480853 -0.17094277 0.78889078
-0.13168263 -0.17049435 0.78682137
-0.12857269 -0.17004775 0.7847603
-0.12547894 -0.16960341 0.78270972
-0.12240132 -0.16916138 0.78066975
-0.1193397 -0.16872165 0.77864045
-0.11629396 -0.16828419 0.77662164
-0.11326396 -0.167849 0.77461326
-0.11024961 -0.16741608 0.77261531
-0.10728157 -0.16703333 0.77084893
-0.10503293 -0.16777988 0.7742942
-0.10287989 -0.16872302 0.77864677
-0.10070249 -0.16967681 0.78304845
-0.098500349 -0.17064145 0.7875002
-0.096273012 -0.17161712 0.79200286
-0.094020076 -0.17260402 0.79655737
-0.091741078 -0.17360234 0.80116457
-0.089435548 -0.17461227 0.80582529
-0.087102994 -0.17563391 0.81054008
-0.084742934 -0.17666747 0.81530994
-0.082354933 -0.17771329 0.82013631
-0.07988245 -0.17864621 0.82444167
-0.076786056 -0.1782016 0.8223899
-0.073705047 -0.17775923 0.82034838
-0.07063929 -0.17731903 0.81831688
-0.067588679 -0.17688102 0.81629544
-0.064553112 -0.17644517 0.81428403
-0.061532456 -0.17601144 0.81228244
-0.05852662 -0.17557986 0.81029069
-0.055535492 -0.17515039 0.80830872
-0.052558951 -0.174723 0.80633634
-0.049597174 -0.17429863 0.80437791
-0.04664908 -0.17387384 0.80241752
-0.043716528 -0.17345591 0.80048877
-0.040796574 -0.17303374 0.79854053
-0.037891574 -0.17261717 0.79661804
-0.035826862 -0.17626816 0.81346714
-0.033138797 -0.17722051 0.81786221
-0.030372538 -0.17789629 0.82098091
-0.026409771 -0.17096852 0.78900963
-0.023573535 -0.17056146 0.78713107
-0.020750754 -0.17015618 0.78526074
-0.017941354 -0.16975282 0.78339922
-0.015145241 -0.16935134 0.78154641
-0.012362325 -0.16895176 0.77970243
-0.0095925089 -0.16855408 0.77786714
-0.0068357019 -0.16815828 0.77604049
-0.0040967679 -0.16796748 0.77516001
-0.0013743967 -0.1690508 0.78015947
0.0013842192 -0.17025895 0.78573501
0.0041825473 -0.17148444 0.7913906
0.0070214532 -0.17272775 0.79712838
0.0099018421 -0.17398952 0.80295134
0.012824642 -0.17527013 0.80886126
0.015790788 -0.17656973 0.81485885
0.018801248 -0.17788872 0.82094598
-0.1429335 -0.17123716 0.80331135
-0.13879867 -0.16964281 0.79583192
-0.13563453 -0.16919358 0.79372448
-0.13248736 -0.16874705 0.79162973
-0.12935664 -0.16830273 0.7895453
-0.12624206 -0.16786033 0.78746986
-0.12314378 -0.16742019 0.78540516
-0.1200617 -0.16698237 0.78335118
-0.1169957 -0.16654682 0.78130794
-0.11394565 -0.16611354 0.7792753
-0.11091141 -0.16568248 0.77725315
-0.1078929 -0.16525368 0.77524155
-0.10517353 -0.1652727 0.77533072
-0.10301837 -0.16620296 0.77969486
-0.10083883 -0.16714381 0.78410852
-0.098634452 -0.16809534 0.78857237
-0.096404836 -0.16905776 0.7930873
-0.094149552 -0.17003128 0.79765433
-0.09186814 -0.17101608 0.80227423
-0.089560151 -0.17201234 0.80694795
-0.087225072 -0.17302021 0.81167608
-0.084862404 -0.17403984 0.81645936
-0.082471728 -0.17507155 0.82129937
-0.080052532 -0.17611557 0.82619709
-0.077230833 -0.17631945 0.8271535
-0.074130908 -0.17587921 0.82508826
-0.071046419 -0.17544116 0.82303327
-0.067977265 -0.1750053 0.82098854
-0.064923324 -0.17457159 0.81895393
-0.06188447 -0.17414002 0.81692934
-0.058860619 -0.1737106 0.81491482
-0.055851635 -0.17328328 0.81291014
-0.052857418 -0.17285804 0.81091529
-0.049877867 -0.17243491 0.80893028
-0.04691286 -0.17201382 0.80695486
-0.043962721 -0.17159642 0.80499673
-0.041026104 -0.17117788 0.80303329
-0.038475826 -0.1724287 0.80890113
-0.035872079 -0.17362086 0.81449383
-0.033150166 -0.17439871 0.81814283
-0.030366793 -0.17497058 0.82082564
-0.027542654 -0.17540322 0.82285529
-0.024687111 -0.17571415 0.82431388
-0.021808263 -0.17591998 0.82527953
-0.018040596 -0.16791631 0.78773254
-0.01522875 -0.16751626 0.78585577
-0.012430218 -0.16711737 0.78398454
-0.0096450755 -0.16672201 0.78212982
-0.0068730502 -0.16632782 0.78028053
-0.0041141221 -0.16593625 0.77844363
-0.0013767326 -0.16658464 0.78148538
0.0013865884 -0.1677772 0.78707993
0.0041897586 -0.16898693 0.79275507
0.0070336466 -0.17021425 0.79851264
0.0099191666 -0.17145987 0.80435616
0.012847246 -0.17272408 0.81028682
0.015818823 -0.17400706 0.81630558
-0.14836456 -0.17141147 0.81764388
-0.14285962 -0.16831976 0.8028962
-0.13965663 -0.16787009 0.80075127
-0.13647071 -0.16742283 0.79861778
-0.13330193 -0.16697821 0.79649693
-0.13015005 -0.16653609 0.794388
-0.12701452 -0.16609591 0.7922883
-0.12389529 -0.16565776 0.79019827
-0.12079249 -0.16522191 0.78811926
-0.11770596 -0.16478834 0.78605109
-0.11463557 -0.16435704 0.78399372
-0.11158123 -0.16392799 0.78194714
-0.10854278 -0.16350114 0.7799111
-0.10552012 -0.16307655 0.77788574
-0.10315724 -0.16367614 0.78074586
-0.10097552 -0.16460393 0.78517145
-0.09876892 -0.16554227 0.7896474
-0.096537031 -0.1664914 0.79417479
-0.094279386 -0.16745144 0.79875427
-0.091995575 -0.16842265 0.80338705
-0.089685097 -0.16940519 0.80807376
-0.087347485 -0.1703992 0.81281525
-0.084982216 -0.17140481 0.81761205
-0.082588851 -0.17242233 0.82246578
-0.080166906 -0.17345203 0.8273775
-0.077680796 -0.17441536 0.83197266
-0.07456173 -0.17397736 0.82988334
-0.07145828 -0.17354153 0.82780439
-0.068370342 -0.17310789 0.82573593
-0.065297805 -0.17267641 0.82367772
-0.062240541 -0.17224708 0.82162976
-0.059198447 -0.17181988 0.819592
-0.056171399 -0.17139478 0.81756425
-0.053159297 -0.1709718 0.81554657
-0.050162025 -0.17055088 0.81353879
-0.047179472 -0.17013203 0.81154084
-0.044211533 -0.16971524 0.80955273
-0.041257989 -0.16930002 0.80757213
-0.038561251 -0.16995513 0.81069708
-0.03589775 -0.17087328 0.81507671
-0.033151831 -0.17152469 0.8181839
-0.030355215 -0.17201288 0.82051265
-0.027522214 -0.17237596 0.82224458
-0.024661444 -0.1726301 0.82345682
-0.021779152 -0.17278127 0.82417792
-0.018879473 -0.17281979 0.82436168
-0.015312972 -0.16565852 0.7902019
-0.012498948 -0.16526388 0.78831941
-0.0096981702 -0.16486889 0.78643537
-0.0069108447 -0.16447809 0.78457123
-0.0041366788 -0.16408825 0.78271163
-0.0013790764 -0.16411009 0.78281581
0.0013889658 -0.16528693 0.78842938
0.0041969945 -0.16648079 0.79412419
0.0070458828 -0.16769201 0.79990178
0.0099365506 -0.16892137 0.80576587
0.012869927 -0.17016904 0.81171739
0.01584696 -0.1714353 0.81775749
-0.14699334 -0.16697302 0.81008708
-0.14375059 -0.16652296 0.80790359
-0.14052527 -0.16607532 0.80573177
-0.13731724 -0.16563007 0.80357164
-0.13412659 -0.16518748 0.80142432
-0.13095306 -0.1647474 0.79928923
-0.12779629 -0.16430953 0.79716486
-0.12465604 -0.16387367 0.79505026
-0.12153222 -0.16343988 0.79294568
-0.11842488 -0.16300836 0.79085213
-0.11533391 -0.16257912 0.7887696
-0.11225916 -0.16215213 0.78669798
-0.10920054 -0.16172737 0.78463727
-0.10615788 -0.16130483 0.78258723
-0.10329647 -0.1611425 0.78179967
-0.10111257 -0.16205715 0.78623718
-0.098903753 -0.16298224 0.79072541
-0.09666957 -0.16391796 0.79526514
-0.094409578 -0.1648645 0.79985732
-0.092123345 -0.16582203 0.8045029
-0.089810394 -0.16679072 0.80920267
-0.087470248 -0.1677708 0.81395763
-0.085102357 -0.1687623 0.81876796
-0.08270631 -0.16976559 0.82363552
-0.080281608 -0.17078087 0.82856125
-0.077827714 -0.17180836 0.83354622
-0.074997574 -0.17205326 0.83473438
-0.071874939 -0.17161974 0.83263117
-0.068767995 -0.17118841 0.83053851
-0.06567663 -0.17075925 0.82845634
-0.062600724 -0.17033221 0.82638454
-0.059540171 -0.16990732 0.82432312
-0.056494843 -0.16948454 0.82227194
-0.05346464 -0.16906387 0.82023102
-0.050449435 -0.16864526 0.81820011
-0.047449127 -0.16822873 0.81617928
-0.044463605 -0.16781425 0.81416839
-0.041492756 -0.16740181 0.81216741
-0.038609866 -0.16730942 0.81171918
-0.035909891 -0.16805829 0.81535238
-0.033145595 -0.1686102 0.81803006
-0.030338448 -0.16902849 0.82005942
-0.027497748 -0.16932824 0.82151365
-0.024632184 -0.16952738 0.82247984
-0.021746587 -0.16962339 0.82294559
-0.018845178 -0.1696066 0.82286417
-0.015932061 -0.16945919 0.82214898
-0.012568235 -0.16338706 0.79268944
-0.0097518805 -0.16299573 0.7907908
-0.0069490341 -0.1626074 0.78890681
-0.0041594836 -0.16221985 0.78702658
-0.001383198 -0.16183417 0.78515536
0.0013913515 -0.16278812 0.7897836
0.0042042555 -0.16396596 0.79549801
0.0070581608 -0.16516097 0.8012957
0.0099539952 -0.16637392 0.80718046
0.01289269 -0.16760497 0.81315303
-0.15120175 -0.16560192 0.81740785
-0.14791834 -0.16515154 0.81518477
-0.14465272 -0.16470361 0.81297374
-0.14140479 -0.16425809 0.81077468
-0.13817437 -0.16381498 0.80858749
-0.13496152 -0.16337445 0.80641311
-0.13176605 -0.16293651 0.80425143
-0.12858766 -0.1625009 0.80210125
-0.12542599 -0.16206731 0.79996103
-0.12228107 -0.16163589 0.79783159
-0.11915264 -0.16120651 0.79571217
-0.1160408 -0.16077942 0.79360402
-0.11294539 -0.16035457 0.79150701
-0.10986631 -0.15993196 0.78942102
-0.1068034 -0.15951158 0.78734601
-0.10375655 -0.15909339 0.78528184
-0.10125002 -0.15950345 0.78730589
-0.099038951 -0.1604152 0.79180628
-0.096802473 -0.16133747 0.79635853
-0.094540134 -0.16227038 0.8009634
-0.092251472 -0.16321415 0.8056218
-0.08993604 -0.16416895 0.81033474
-0.087593347 -0.165135 0.81510311
-0.08522284 -0.16611232 0.81992716
-0.082824096 -0.16710125 0.82480848
-0.08039663 -0.16810204 0.82974839
-0.077939898 -0.16911487 0.83474767
-0.075438552 -0.17010653 0.83964252
-0.072296485 -0.16967541 0.83751452
-0.069170304 -0.16924648 0.8353973
-0.06605988 -0.1688197 0.8332907
-0.06296511 -0.16839506 0.8311947
-0.059885871 -0.16797256 0.82910925
-0.056822043 -0.16755217 0.82703424
-0.053773511 -0.16713388 0.82496959
-0.050740164 -0.16671768 0.8229152
-0.047721885 -0.16630355 0.820871
-0.044718567 -0.16589145 0.81883699
-0.041730493 -0.165483 0.8168208
-0.038756251 -0.16507292 0.81479669
-0.035912234 -0.16519627 0.81540555
-0.033133138 -0.1656657 0.81772262
-0.030316066 -0.16601655 0.81945443
-0.027469322 -0.16626169 0.82066441
-0.024599534 -0.16640861 0.82138962
-0.021710781 -0.16644932 0.8215906
-0.018807648 -0.16637535 0.82122546
-0.015893023 -0.16615434 0.82013452
-0.012969027 -0.16571535 0.81796771
-0.0098062661 -0.16110294 0.79520094
-0.0069876486 -0.16071592 0.79329062
-0.0041825413 -0.16033076 0.79138947
-0.0013908473 -0.15994743 0.78949738
0.0013937453 -0.1602807 0.7911424
0.0042115413 -0.16144241 0.79687661
0.0070704822 -0.1626211 0.8026945
0.0099715022 -0.16381754 0.80860013
0.012915533 -0.16503182 0.81459379
-0.14885506 -0.16330701 0.82034707
-0.14556627 -0.16286126 0.81810796
-0.14229536 -0.16241795 0.81588101
-0.13904224 -0.16197704 0.81366622
-0.13580689 -0.16153872 0.81146437
-0.13258918 -0.16110298 0.80927551
-0.12938879 -0.1606696 0.80709845
-0.12620553 -0.16023849 0.80493289
-0.12303903 -0.15980932 0.80277699
-0.11988942 -0.1593824 0.80063242
-0.1167564 -0.15895751 0.79849809
-0.11364006 -0.1585349 0.79637516
-0.11054025 -0.15811452 0.79426348
-0.10745683 -0.15769638 0.79216301
-0.10438967 -0.15728045 0.79007357
-0.10138783 -0.1569428 0.78837752
-0.099174537 -0.15784116 0.79289025
-0.096935764 -0.15874986 0.79745501
-0.094671048 -0.15966909 0.80207253
-0.092379957 -0.16059901 0.80674386
-0.090062037 -0.16153985 0.81147003
-0.087716788 -0.16249175 0.81625181
-0.085343666 -0.16345483 0.82108963
-0.082942225 -0.16442932 0.82598484
-0.080511972 -0.16541551 0.83093882
-0.078052402 -0.16641362 0.83595264
-0.075562961 -0.16742383 0.84102726
-0.072723001 -0.16770814 0.84245551
-0.069577336 -0.16728169 0.84031326
-0.066447631 -0.16685738 0.83818179
-0.063333757 -0.16643523 0.83606118
-0.060235605 -0.16601521 0.83395129
-0.057153046 -0.16559729 0.83185196
-0.054085974 -0.16518149 0.82976323
-0.051034261 -0.16476776 0.82768494
-0.047997799 -0.1643561 0.82561702
-0.044976845 -0.16394787 0.82356632
-0.041969955 -0.1635381 0.82150793
-0.038978703 -0.16313308 0.81947345
-0.036002576 -0.16273165 0.81745684
-0.033115052 -0.16269568 0.81727618
-0.030289294 -0.16298525 0.81873077
-0.027436981 -0.16317783 0.81969821
-0.024563251 -0.16327338 0.82017815
-0.021671623 -0.16325955 0.82010871
-0.018766413 -0.16312343 0.81942493
-0.01584949 -0.16281749 0.81788808
-0.01291996 -0.16221727 0.81487298
-0.009861174 -0.15918751 0.79965347
-0.0070266947 -0.1588033 0.79772341
-0.0042058565 -0.15842061 0.79580098
-0.0013985819 -0.15803975 0.79388785
0.0013961474 -0.15776466 0.79250598
0.0042188526 -0.15891011 0.79825997
0.007082846 -0.16007231 0.80409813
0.0099890707 -0.16125214 0.8100248
-0.1498037 -0.16143893 0.82557505
-0.14649141 -0.16099551 0.82330745
-0.14319725 -0.1605545 0.82105219
-0.1399211 -0.1601159 0.81880927
-0.13666293 -0.15967984 0.81657934
-0.13342267 -0.15924643 0.81436288
-0.13019997 -0.15881534 0.81215841
-0.12699465 -0.15838659 0.80996579
-0.12380642 -0.15795992 0.8077839
-0.12063517 -0.15753534 0.80561268
-0.1174809 -0.15711302 0.80345291
-0.11434333 -0.15669271 0.80130357
-0.11122251 -0.15627468 0.79916579
-0.1081183 -0.15585884 0.79703927
-0.10503055 -0.15544522 0.79492408
-0.10195916 -0.1550338 0.7928201
-0.09931048 -0.15526004 0.79397714
-0.09706939 -0.15615511 0.79855436
-0.094802327 -0.15706056 0.80318475
-0.092508815 -0.15797658 0.80786914
-0.090188392 -0.15890336 0.81260848
-0.087840579 -0.15984106 0.81740373
-0.085464843 -0.16078979 0.82225543
-0.083060689 -0.16174977 0.82716459
-0.080627657 -0.16272128 0.83213276
-0.078165226 -0.16370453 0.83716094
-0.075672857 -0.16469975 0.84225041
-0.073149987 -0.16570711 0.84740192
-0.06998919 -0.16529362 0.84528738
-0.066839956 -0.16487189 0.84313071
-0.063706748 -0.1644523 0.840985
-0.060589444 -0.16403484 0.83885014
-0.057487935 -0.1636195 0.83672619
-0.054402087 -0.16320626 0.83461291
-0.051331785 -0.16279508 0.83251023
-0.048277188 -0.16238689 0.83042282
-0.045237124 -0.1619781 0.82833225
-0.042212993 -0.16157387 0.8262651
-0.039203912 -0.16117163 0.82420814
-0.036209513 -0.16077024 0.82215542
-0.033230327 -0.16037244 0.82012117
-0.030265512 -0.15997484 0.81808794
-0.027400898 -0.16007893 0.8186202
-0.024523111 -0.16012149 0.81883782
-0.021628831 -0.16005334 0.81848937
-0.018720815 -0.15984695 0.81743389
-0.01579983 -0.15943463 0.81532538
-0.012854921 -0.15854403 0.81077093
-0.0099167023 -0.15725057 0.80415636
-0.007066159 -0.15686873 0.80220371
-0.0042294334 -0.15648904 0.80026203
-0.0014064028 -0.15611072 0.79832733
0.0014030109 -0.15573421 0.79640192
0.0042261891 -0.156369 0.79964817
0.007095254 -0.15751463 0.80550677
0.010006702 -0.1586777 0.81145447
-0.14742838 -0.15910588 0.82857341
-0.14411063 -0.15866727 0.82628924
-0.14081113 -0.15823106 0.82401764
-0.13752982 -0.15779737 0.8217591
-0.1342667 -0.15736635 0.81951451
-0.13102137 -0.15693767 0.81728208
-0.12779364 -0.15651132 0.81506175
-0.12458343 -0.15608728 0.81285352
-0.12139028 -0.15566517 0.8106553
-0.1182143 -0.15524529 0.80846864
-0.11505537 -0.15482759 0.80629343
-0.11191325 -0.15441194 0.80412889
-0.10878795 -0.15399854 0.80197597
-0.10567935 -0.15358733 0.79983449
-0.10258731 -0.1531783 0.79770446
-0.099511683 -0.15277146 0.79558575
-0.097203411 -0.15355322 0.79965687
-0.094933972 -0.15444481 0.80430007
-0.092638016 -0.15534683 0.80899745
-0.090315104 -0.15625946 0.81375015
-0.087964714 -0.15718284 0.81855887
-0.085586362 -0.15811718 0.82342458
-0.083179496 -0.15906255 0.82834774
-0.080743678 -0.16001929 0.83333015
-0.078278378 -0.16098762 0.83837289
-0.075783066 -0.16196772 0.84347701
-0.073257171 -0.16295983 0.8486436
-0.070405953 -0.16328189 0.85032076
-0.067236938 -0.16286281 0.84813833
-0.064084157 -0.16244589 0.84596711
-0.060947474 -0.16203108 0.84380698
-0.057826765 -0.1616184 0.84165782
-0.054721918 -0.16120781 0.83951962
-0.051632941 -0.16079974 0.83739448
-0.048559155 -0.16039236 0.83527303
-0.045501485 -0.15998909 0.83317292
-0.042458549 -0.15958558 0.83107156
-0.039431639 -0.15918699 0.82899576
-0.036419414 -0.15878864 0.82692134
-0.033422243 -0.15839237 0.82485765
-0.030439992 -0.15799806 0.82280421
-0.027472438 -0.15760504 0.82075751
-0.024519708 -0.1572146 0.81872422
-0.021582048 -0.15682955 0.816719
-0.018670278 -0.15654309 0.81522721
-0.015748605 -0.15605436 0.81268209
-0.012853656 -0.15567206 0.81069112
-0.0099728554 -0.1552916 0.80870986
-0.0071060397 -0.15491167 0.80673128
-0.0042532752 -0.15453567 0.80477321
-0.0014143118 -0.15415999 0.80281675
0.0014108818 -0.15378611 0.8008697
0.0042335512 -0.15381904 0.80104119
0.0071077067 -0.15494801 0.80692053
-0.14503574 -0.15675581 0.83159357
-0.14171256 -0.15632211 0.82929277
-0.1384078 -0.15589088 0.82700515
-0.13512148 -0.15546235 0.82473177
-0.13185319 -0.15503618 0.8224709
-0.12860279 -0.15461233 0.82022238
-0.12537009 -0.15419079 0.81798607
-0.12215486 -0.15377142 0.81576127
-0.11895686 -0.15335403 0.81354707
-0.11577619 -0.15293892 0.81134486
-0.11261261 -0.15252595 0.80915403
-0.10946596 -0.15211503 0.80697411
-0.10633621 -0.15170632 0.80480593
-0.10322323 -0.15129982 0.80264938
-0.1001269 -0.15089548 0.80050433
-0.097337797 -0.15094411 0.80076241
-0.095065974 -0.15182178 0.80541843
-0.092767589 -0.15270972 0.81012899
-0.090442151 -0.1536081 0.81489491
-0.088089205 -0.15451713 0.81971735
-0.085708223 -0.15543695 0.824597
-0.083298646 -0.15636763 0.82953429
-0.080860034 -0.15730952 0.83453101
-0.078391865 -0.15826282 0.83958834
-0.075893603 -0.15922776 0.84470731
-0.073364682 -0.16020451 0.84988904
-0.070804544 -0.16119333 0.85513473
-0.067638673 -0.16082974 0.85320586
-0.064466059 -0.16041555 0.85100859
-0.061309751 -0.1600035 0.84882265
-0.058169618 -0.15959357 0.84664798
-0.05504553 -0.15918572 0.84448433
-0.051937297 -0.15877974 0.84233057
-0.048845176 -0.15837678 0.84019285
-0.045768637 -0.15797563 0.83806473
-0.042707499 -0.15757595 0.83594441
-0.03966184 -0.1571784 0.83383542
-0.036631506 -0.15678285 0.83173704
-0.033616394 -0.15638931 0.82964927
-0.030616375 -0.15599771 0.82757187
-0.027631342 -0.15560809 0.8255049
-0.024660956 -0.15521896 0.82344055
-0.021705685 -0.15483388 0.82139772
-0.018764865 -0.15444927 0.81935734
-0.015838679 -0.15406716 0.81733018
-0.012926963 -0.15368724 0.81531471
-0.010029573 -0.1533092 0.81330919
-0.0071464018 -0.152933 0.81131345
-0.0042773369 -0.15255834 0.80932593
-0.0014222997 -0.15218605 0.80735093
0.0014188412 -0.15181601 0.80538779
0.0042461674 -0.15144664 0.80342829
0.0071202032 -0.15237236 0.80833924
-0.1459728 -0.15481964 0.8369664
-0.1426256 -0.15438853 0.83463579
-0.13929704 -0.15395989 0.83231848
-0.13598722 -0.15353397 0.8300159
-0.13269566 -0.15311037 0.82772595
-0.1294222 -0.15268911 0.82544863
-0.12616672 -0.15227017 0.82318377
-0.12292905 -0.15185353 0.82093138
-0.11970881 -0.15143886 0.81868964
-0.11650605 -0.15102635 0.8164596
-0.11332066 -0.15061608 0.81424159
-0.11015247 -0.15020791 0.81203502
-0.10700129 -0.14980181 0.80983961
-0.10386711 -0.14939789 0.80765599
-0.10074977 -0.14899614 0.80548412
-0.097649179 -0.14859657 0.80332404
-0.095198348 -0.14919144 0.80653995
