# .PCD v0.7 - Point Cloud Data file format
VERSION 0.7
FIELDS x y z
SIZE 4 4 4
TYPE F F F
COUNT 1 1 1
WIDTH 928
HEIGHT 1
VIEWPOINT 0 0 0 1 0 0 0
POINTS 928
DATA ascii
0.15375341 -0.040461425 0.91869724
0.15717515 -0.04050906 0.91977888
0.16060498 -0.040556811 0.92086309
0.16404288 -0.04060467 0.92194974
0.13984822 -0.036971368 0.91244972
0.14323039 -0.037014596 0.91351658
0.14662051 -0.037057929 0.91458607
0.15001857 -0.037101366 0.91565806
0.15342461 -0.037144903 0.91673255
0.15683864 -0.037188545 0.91780961
0.16026069 -0.03723228 0.91888905
0.16369082 -0.037276126 0.91997117
0.16814679 -0.037547342 0.92666471
0.12613083 -0.033528451 0.90628636
0.12947424 -0.033567395 0.90733904
0.1328254 -0.033606425 0.9083941
0.13618436 -0.033645548 0.9094516
0.13955115 -0.03368476 0.91051149
0.1429258 -0.033724066 0.91157395
0.14630835 -0.033763465 0.9126389
0.14969879 -0.033802953 0.9137063
0.15309717 -0.033842534 0.91477615
0.15650354 -0.033882208 0.91584861
0.15991789 -0.033921976 0.91692352
0.16334027 -0.033961836 0.918001
0.16677071 -0.034001794 0.91908103
0.17279512 -0.034559023 0.93414313
0.17950381 -0.03522972 0.95227236
0.12004402 -0.030411152 0.90855354
0.12303218 -0.030358588 0.9069832
0.12601002 -0.030306205 0.90541822
0.12920073 -0.030306343 0.90542233
0.13254453 -0.030341519 0.90647322
0.13589604 -0.030376762 0.90752614
0.13925536 -0.030412091 0.90858161
0.14262252 -0.030447504 0.9096396
0.14599752 -0.030482998 0.91070002
0.14938039 -0.030518573 0.91176283
0.15277116 -0.030554233 0.91282821
0.15616989 -0.030589977 0.91389608
0.15957655 -0.030625803 0.9149664
0.16299121 -0.030661713 0.91603923
0.16641389 -0.030697709 0.91711462
0.17092094 -0.03092855 0.92401117
0.17751908 -0.03152208 0.94174331
0.1843759 -0.032138918 0.9601717
0.11395088 -0.027284013 0.91102564
0.11695771 -0.027236728 0.90944672
0.11995414 -0.027189605 0.90787327
0.12294021 -0.027142644 0.90630525
0.12591599 -0.027095847 0.90474266
0.12892829 -0.027059024 0.90351313
0.13226478 -0.027090378 0.90456003
0.13560894 -0.02712179 0.90560889
0.13896084 -0.027153267 0.90665996
0.14232051 -0.027184816 0.90771341
0.145688 -0.027216438 0.90876925
0.14906333 -0.027248135 0.90982765
0.15244654 -0.027279906 0.91088849
0.15583764 -0.027311752 0.91195184
0.15923667 -0.02734367 0.91301757
0.16264364 -0.027375663 0.91408587
0.16605861 -0.027407732 0.91515666
0.16948161 -0.027439877 0.91623002
0.17557776 -0.027895533 0.93144453
0.18232055 -0.028435316 0.94946814
0.18932945 -0.028996402 0.96820307
0.1078245 -0.024139816 0.91351134
0.11085018 -0.024097865 0.91192383
0.11386535 -0.024056058 0.9103418
0.11687008 -0.024014398 0.90876526
0.1198644 -0.023972882 0.90719414
0.1228484 -0.023931505 0.90562838
0.12582211 -0.023890276 0.90406811
0.12878561 -0.023849186 0.90251321
0.13198616 -0.023852918 0.90265447
0.13532299 -0.023880528 0.90369928
0.13866752 -0.023908194 0.90474623
0.14201976 -0.023935916 0.90579528
0.1453798 -0.023963701 0.90684676
0.14874762 -0.023991551 0.90790069
0.15212329 -0.024019465 0.908957
0.1555068 -0.024047444 0.91001576
0.15889823 -0.024075489 0.91107708
0.16229758 -0.024103599 0.91214085
0.16570486 -0.024131777 0.91320711
0.1691201 -0.024160014 0.91427577
0.17367963 -0.024347613 0.92137492
0.18031056 -0.02481338 0.93900073
0.18720146 -0.025297495 0.95732081
0.19436659 -0.025800874 0.97637004
0.10470927 -0.020941854 0.91441435
0.10774334 -0.020905424 0.91282368
0.11076687 -0.020869121 0.91123849
0.11377992 -0.020832943 0.90965885
0.11678255 -0.020796893 0.90808469
0.1197748 -0.020760965 0.90651596
0.12275673 -0.020725161 0.90495259
0.12572838 -0.020689482 0.90339464
0.12868984 -0.020653924 0.90184206
0.13170871 -0.020629076 0.90075707
0.13503821 -0.020652903 0.90179747
0.1383754 -0.020676784 0.90284026
0.14172031 -0.020700719 0.9038853
0.14507289 -0.020724699 0.90493238
0.14843322 -0.020748731 0.90598172
0.15180138 -0.02077282 0.90703362
0.15517737 -0.020796968 0.90808797
0.15856121 -0.020821171 0.90914476
0.16195296 -0.02084543 0.91020405
0.16535258 -0.020869743 0.91126567
0.16876017 -0.020894116 0.91232991
0.17217572 -0.020918544 0.9133966
0.17834441 -0.021270435 0.92876166
0.18512078 -0.021680811 0.94668055
0.19216375 -0.022107333 0.96530437
0.19948941 -0.022550978 0.98467582
0.098534733 -0.017768558 0.91691858
0.10158787 -0.017737566 0.9153192
0.10463036 -0.017706677 0.91372526
0.10766229 -0.017675899 0.91213703
0.11068369 -0.017645227 0.91055423
0.11369463 -0.017614661 0.90897697
0.11669516 -0.017584201 0.90740514
0.11968532 -0.017553847 0.90583873
0.12266518 -0.017523598 0.90427774
0.12563479 -0.017493451 0.90272212
0.12859419 -0.017463408 0.9011718
0.13154346 -0.01743347 0.89962685
0.13475461 -0.017438833 0.8999036
0.13808446 -0.017458955 0.90094197
0.141422 -0.017479124 0.90198278
0.14476725 -0.017499339 0.90302593
0.14812018 -0.017519591 0.90407097
0.15148087 -0.017539889 0.90511847
0.15484935 -0.017560236 0.9061684
0.15822563 -0.017580627 0.9072206
0.16160978 -0.017601065 0.90827537
0.16500182 -0.017621554 0.90933263
0.16840176 -0.01764209 0.91039234
0.17180963 -0.017662672 0.9114545
0.17642261 -0.017804116 0.9187535
0.1830858 -0.018143639 0.93627399
0.19001031 -0.018496579 0.95448691
0.19720952 -0.01886352 0.97342229
0.20469938 -0.019245241 0.99312049
0.092436656 -0.014595262 0.92053568
0.095398642 -0.014552335 0.91782832
0.098460279 -0.014526926 0.91622573
0.10151125 -0.014501607 0.9146288
0.10455159 -0.014476374 0.91303736
0.10758138 -0.014451229 0.91145146
0.11060066 -0.014426173 0.9098711
0.11360947 -0.0144012 0.90829611
0.1166079 -0.014376316 0.9067266
0.11959598 -0.014351518 0.90516257
0.12257377 -0.014326804 0.90360385
0.12554133 -0.014302176 0.90205055
0.1284987 -0.014277633 0.90050262
0.13144594 -0.014253174 0.89895993
0.13447221 -0.014238234 0.89801764
0.13779475 -0.014254629 0.89905167
0.14112496 -0.014271064 0.90008825
0.14446284 -0.014287533 0.90112698
0.14780845 -0.014304043 0.90216827
0.15116169 -0.014320581 0.90321136
0.15452269 -0.014337156 0.90425676
0.15789148 -0.014353771 0.90530467
0.16126809 -0.014370424 0.90635496
0.16465254 -0.014387116 0.90740776
0.16804485 -0.014403845 0.90846288
0.17144509 -0.014420615 0.90952057
0.17485324 -0.014437423 0.91058069
0.18109596 -0.014683456 0.92609823
0.18790458 -0.014965851 0.94390911
0.19498116 -0.015259394 0.96242315
0.20234016 -0.015564627 0.98167443
0.092569157 -0.011368142 0.92185521
0.095326491 -0.011309923 0.91713411
0.098385938 -0.01129019 0.91553396
0.10143474 -0.011270526 0.91393942
0.10447293 -0.011250931 0.91235042
0.10750058 -0.011231403 0.9107669
0.11051773 -0.011211943 0.90918887
0.11352444 -0.011192551 0.90761632
0.11652078 -0.011173225 0.90604919
0.11950678 -0.011153967 0.90448749
0.1224825 -0.011134773 0.90293103
0.125448 -0.011115646 0.90138
0.12840334 -0.011096585 0.89983433
0.13134857 -0.011077589 0.89829397
0.13428371 -0.011058658 0.89675879
0.13750625 -0.011063721 0.89716935
0.14082913 -0.011076448 0.89820147
0.14415967 -0.011089206 0.89923596
0.14749791 -0.011101993 0.90027285
0.15084383 -0.011114809 0.90131211
0.15419741 -0.011127648 0.90235329
0.15755872 -0.011140516 0.90339673
0.16092783 -0.011153414 0.90444267
0.16430473 -0.011166341 0.90549093
0.16768949 -0.011179299 0.90654171
0.17108209 -0.011192286 0.90759486
0.1744826 -0.011205304 0.90865052
0.17915004 -0.01129775 0.91614705
0.18584499 -0.011512522 0.93356311
0.19280256 -0.011735808 0.95166963
0.20003466 -0.011967885 0.97048908
0.20755759 -0.01220927 0.99006319
0.090044878 -0.008185898 0.92932492
0.092702031 -0.0081317574 0.92317843
0.095324285 -0.0080783293 0.91711289
0.098311707 -0.0080583366 0.9148432
0.10135835 -0.0080443136 0.91325116
0.10439438 -0.0080303373 0.91166449
0.10741989 -0.0080164094 0.91008329
0.11043492 -0.0080025308 0.90850765
0.11343954 -0.0079886997 0.90693748
0.11643378 -0.0079749161 0.90537268
0.1194177 -0.007961181 0.9038133
0.12239137 -0.0079474915 0.90225923
0.12535484 -0.0079338504 0.90071058
0.12830813 -0.0079202559 0.89916718
0.13125132 -0.0079067061 0.89762896
0.13418446 -0.0078932038 0.89609611
0.13721894 -0.0078861453 0.89529479
0.14053455 -0.0078951996 0.89632261
0.14385779 -0.0079042744 0.89735287
0.14718866 -0.0079133697 0.89838541
0.15052721 -0.0079224845 0.89942026
0.15387347 -0.0079316227 0.90045762
0.15722738 -0.0079407766 0.90149689
0.16058898 -0.0079499502 0.9025383
0.16395839 -0.0079591451 0.90358222
0.1673356 -0.0079683615 0.90462857
0.17072064 -0.0079775993 0.90567732
0.17411351 -0.0079868585 0.90672845
0.17751428 -0.0079961391 0.90778208
0.18383177 -0.008134149 0.92344999
0.19067211 -0.0082900925 0.94115382
0.19778113 -0.0084521854 0.95955586
0.20517267 -0.0086207008 0.97868699
0.087479338 -0.0049516605 0.93691647
0.090175174 -0.0049186456 0.93066967
0.0928353 -0.0048860684 0.92450559
0.095460415 -0.0048539191 0.91842258
0.098237574 -0.004831356 0.91415334
0.10128205 -0.004822955 0.91256374
0.10431596 -0.0048145829 0.91097963
0.10733932 -0.0048062382 0.90940076
0.11035224 -0.0047979234 0.9078275
0.11335475 -0.0047896374 0.90625966
0.1163469 -0.0047813798 0.90469718
0.11932877 -0.0047731507 0.90314013
0.12230037 -0.0047649494 0.90158838
0.12526178 -0.0047567766 0.900042
0.12821306 -0.0047486322 0.89850092
0.13115425 -0.0047405153 0.89696509
0.1340854 -0.0047324263 0.89543456
0.13700657 -0.0047243643 0.89390916
0.14024119 -0.0047272313 0.89445162
0.14355715 -0.0047326535 0.89547753
0.14688072 -0.0047380878 0.89650577
0.15021192 -0.0047435341 0.89753634
0.15355079 -0.0047489936 0.89856935
0.15689737 -0.0047544655 0.89960468
0.16025159 -0.0047599478 0.90064204
0.16361351 -0.0047654421 0.9016816
0.1669832 -0.0047709486 0.90272349
0.17036068 -0.0047764676 0.90376776
0.173746 -0.0047820001 0.90481454
0.17713916 -0.0047875452 0.90586376
0.18186204 -0.004828196 0.91355538
0.18858875 -0.0049197064 0.93087035
0.1955778 -0.0050148154 0.94886619
0.20284195 -0.0051136627 0.96756929
0.21039821 -0.0052164844 0.98702449
0.087606974 -0.0016529617 0.93828344
0.090305865 -0.0016419247 0.93201846
0.092968941 -0.0016310341 0.9258365
0.095596932 -0.001620287 0.91973603
0.098190516 -0.0016096806 0.91371548
0.10120588 -0.0016064425 0.91187739
0.10423763 -0.0016036559 0.91029561
0.10725889 -0.0016008789 0.9087193
0.1102697 -0.0015981116 0.90714842
0.1132701 -0.0015953535 0.90558285
0.11626016 -0.001592605 0.90402269
0.11923996 -0.001589866 0.90246797
0.1222095 -0.0015871364 0.90091854
0.12516887 -0.0015844161 0.89937443
0.12811814 -0.0015817054 0.89783567
0.13105731 -0.0015790038 0.8963021
0.13398646 -0.0015763113 0.89477378
0.13690564 -0.001573628 0.89325064
0.13994907 -0.0015724616 0.8925885
0.14325777 -0.0015742612 0.89361006
0.14657405 -0.0015760651 0.89463401
0.14989795 -0.0015778731 0.89566034
0.15322948 -0.0015796853 0.896689
0.15656865 -0.0015815014 0.89771992
0.15991554 -0.0015833222 0.8987534
0.16327007 -0.0015851463 0.89978886
0.16663228 -0.0015869741 0.90082639
0.17000227 -0.0015888063 0.90186638
0.17338003 -0.0015906425 0.90290874
0.17676562 -0.001592483 0.90395349
0.18015905 -0.0015943279 0.90500063
0.18655197 -0.0016221912 0.9208169
0.19342302 -0.0016531881 0.93841201
0.20056358 -0.0016854083 0.95670134
0.20798801 -0.0017189091 0.97571772
0.084996402 0.0016665962 0.94602287
0.087734967 0.0016553769 0.93965435
0.090436921 0.0016443076 0.93337107
0.093102977 0.0016333855 0.92717129
0.095733836 0.0016226073 0.92105317
0.098330222 0.0016119708 0.91501546
0.10112981 0.001605235 0.911192
0.10415943 0.0016024527 0.90961266
0.10717856 0.0015996801 0.90803874
0.11018726 0.0015969168 0.90647024
0.11318558 0.0015941631 0.90490717
0.11617357 0.0015914188 0.90334934
0.11915129 0.0015886838 0.90179688
0.12211878 0.0015859582 0.90024972
0.12507612 0.001583242 0.89870793
0.12802334 0.0015805351 0.89717138
0.13096051 0.0015778374 0.89564008
0.13388766 0.001575149 0.89411402
0.13680486 0.0015724697 0.89259315
0.13971215 0.0015697994 0.8910774
0.14295962 0.001570985 0.89175034
0.14626868 0.0015727815 0.89277011
0.14958528 0.0015745818 0.89379209
0.15290949 0.0015763865 0.89481646
0.15624133 0.0015781953 0.89584321
0.15958081 0.0015800081 0.89687222
0.162928 0.0015818252 0.89790368
0.16628285 0.0015836462 0.89893734
0.16964535 0.0015854705 0.89997292
0.17301559 0.001587299 0.90101081
0.17639363 0.0015891319 0.90205121
0.17977948 0.0015909689 0.90309399
0.18455873 0.0016048587 0.91097832
0.19131708 0.0016351887 0.92819482
0.19934447 0.0016751636 0.95088607
0.20563239 0.0016994412 0.96466696
0.21322151 0.0017335082 0.98400468
0.082342416 0.005041372 0.95389104
0.085121609 0.0050071534 0.94741642
0.087863341 0.0049733967 0.94102925
0.090568364 0.0049400926 0.93472767
0.093237385 0.0049072308 0.92850983
0.095871143 0.0048748036 0.92237419
0.098470323 0.0048428029 0.91631919
0.10105386 0.0048120883 0.91050768
0.10408134 0.0048037544 0.90893072
0.10709835 0.0047954484 0.90735918
0.11010494 0.0047871713 0.90579301
0.11310117 0.0047789225 0.90423226
0.11608709 0.0047707022 0.90267688
0.11906275 0.0047625098 0.9011268
0.1220282 0.0047543454 0.89958197
0.1249835 0.0047462089 0.89804244
0.1279287 0.0047381003 0.89650816
0.13086385 0.0047300183 0.894979
0.13378902 0.0047219652 0.89345521
0.13670422 0.004713939 0.89193654
0.13960956 0.0047059399 0.89042306
0.14266272 0.0047031669 0.8898983
0.14596455 0.0047085341 0.89091384
0.1492739 0.004713913 0.89193159
0.15259084 0.0047193044 0.89295179
0.15591538 0.0047247084 0.89397424
0.1592475 0.004730124 0.89499897
0.16258731 0.0047355527 0.89602613
0.16593477 0.0047409935 0.89705563
0.16928992 0.0047464464 0.89808732
0.17265269 0.0047519091 0.89912099
0.17602323 0.0047573848 0.90015703
0.17940153 0.0047628726 0.90119541
0.18278763 0.0047683725 0.9022361
0.18925671 0.0048527364 0.91819876
0.2013704 0.0050765648 0.96054989
0.20560136 0.0050975545 0.96452147
0.21078633 0.0051411297 0.97276646
0.085247196 0.0083575677 0.94881421
0.087992094 0.0083011407 0.94240814
0.090700187 0.0082454709 0.93608814
0.093372196 0.0081905434 0.92985231
0.096008845 0.0081363423 0.92369902
0.098610818 0.0080828536 0.91762656
0.10117881 0.0080300644 0.91163349
0.10400336 0.0080002584 0.90824974
0.10701826 0.0079864375 0.90668064
0.11002274 0.0079726623 0.9051168
0.11301687 0.0079589346 0.90355837
0.11600072 0.0079452554 0.90200531
0.11897432 0.0079316208 0.9004575
0.12193773 0.0079180347 0.89891505
0.124891 0.0079044942 0.89737779
0.12783419 0.0078909993 0.89584583
0.13076735 0.007877551 0.89431906
0.13369052 0.0078641484 0.89279747
0.13660376 0.0078507904 0.89128101
0.13950711 0.0078374781 0.88976967
0.14240065 0.0078242114 0.88826352
0.1456617 0.0078312736 0.88906533
0.14896382 0.0078402013 0.89007884
0.15227352 0.0078491503 0.8910948
0.15559076 0.007858119 0.89211297
0.15891558 0.0078671081 0.89313346
0.16224803 0.0078761186 0.8941564
0.16558811 0.0078851478 0.89518154
0.16893587 0.0078941993 0.89620906
0.17229132 0.0079032714 0.89723903
0.17565437 0.0079123592 0.89827073
0.17902514 0.0079214666 0.89930469
0.18240371 0.0079305964 0.90034115
0.18724027 0.0080017205 0.90841573
0.19402941 0.0081524961 0.92553288
0.20772114 0.0085835187 0.97446579
0.21204032 0.0086195245 0.97855353
0.21639587 0.0086558349 0.98267573
0.085373096 0.011717876 0.95021552
0.088121228 0.011638653 0.94379121
0.090832397 0.011560487 0.93745267
0.093507387 0.011483364 0.93119866
0.096146934 0.011407264 0.92502761
0.098751724 0.011332165 0.9189378
0.10132243 0.011258048 0.91292757
0.10392551 0.011191978 0.90756989
0.10693828 0.011172656 0.90600306
0.10994066 0.011153401 0.9044416
0.11293271 0.011134211 0.9028855
0.11591449 0.011115088 0.90133476
0.11888602 0.011096029 0.89978921
0.1218474 0.011077036 0.89824909
0.12479865 0.011058108 0.89671421
0.12773982 0.011039243 0.89518446
0.13067098 0.011020443 0.89365995
0.13359216 0.011001707 0.89214057
0.13650343 0.010983034 0.89062637
0.13940483 0.010964425 0.88911736
0.14229642 0.010945879 0.88761342
0.1453601 0.010941083 0.8872245
0.14865506 0.010953531 0.8882339
0.15195751 0.010966006 0.88924551
0.15526749 0.010978509 0.89025944
0.15858504 0.010991042 0.89127582
0.16191018 0.011003604 0.89229441
0.16524291 0.011016194 0.89331532
0.16858329 0.011028813 0.89433867
0.17193131 0.011041461 0.89536422
0.17528704 0.011054138 0.89639223
0.17865035 0.011066836 0.89742196
0.18202141 0.011079564 0.89845407
0.18540022 0.011092321 0.89948857
0.19194603 0.011290943 0.91559505
0.20988509 0.012142112 0.98461735
0.21425822 0.012193557 0.98878902
0.088250682 0.014985965 0.94517767
0.090964995 0.014885181 0.93882114
0.09364298 0.014785734 0.93254894
0.096285433 0.014687608 0.92636007
0.098893017 0.014590774 0.92025262
0.10146647 0.01449521 0.91422534
0.10400642 0.014400889 0.90827644
0.10685842 0.014354116 0.90532649
0.10985871 0.014329397 0.90376741
0.11284868 0.014304762 0.90221363
0.11582837 0.01428021 0.90066516
0.11879787 0.014255744 0.89912206
0.12175719 0.01423136 0.89758408
0.12470641 0.01420706 0.89605147
0.12764558 0.014182843 0.8945241
0.13057473 0.014158706 0.89300179
0.13349395 0.014134652 0.89148468
0.13640325 0.014110681 0.88997275
0.13930269 0.014086789 0.88846588
0.14219233 0.014062978 0.88696414
0.14507224 0.014039248 0.88546747
0.14834754 0.014053978 0.88639647
0.15164281 0.014069952 0.88740396
0.1549456 0.014085962 0.88841379
0.15825588 0.014102009 0.88942581
0.16157371 0.014118091 0.89044017
0.16489914 0.014134212 0.8914569
0.16823216 0.014150368 0.8924759
0.17157282 0.014166563 0.89349729
0.17492113 0.014182794 0.894521
0.17827709 0.01419906 0.89554697
0.1816407 0.014215359 0.89657491
0.18501198 0.014231691 0.897605
0.18990676 0.014362696 0.90586758
0.19672622 0.014632528 0.92288613
0.088380508 0.018343125 0.94656813
0.091097929 0.018219585 0.94019312
0.09377896 0.018097693 0.9339031
0.096424319 0.017977415 0.92769629
0.099034734 0.017858723 0.92157137
0.10161091 0.017741589 0.91552681
0.10415351 0.017625978 0.90956098
0.10677869 0.017530829 0.90465093
0.10977688 0.017500661 0.90309417
0.11276476 0.017470596 0.90154272
0.11574239 0.017440634 0.89999658
0.11870983 0.017410776 0.89845574
0.12166711 0.017381016 0.89692003
0.12461431 0.017351359 0.89538968
0.12755148 0.017321805 0.89386457
0.13047865 0.017292351 0.89234465
0.13339587 0.017262995 0.89082974
0.1363032 0.017233739 0.88932002
0.1392007 0.017204581 0.88781542
0.1420884 0.017175522 0.88631582
0.14496636 0.017146559 0.8848213
0.14804129 0.017141623 0.88456661
0.15132941 0.017161068 0.88556993
0.154625 0.017180555 0.88657558
0.15792806 0.017200086 0.88758343
0.16123866 0.017219661 0.88859361
0.1645568 0.017239284 0.88960618
0.16788249 0.017258948 0.89062089
0.1712158 0.01727866 0.8916381
0.17455673 0.017298413 0.89265752
0.17790528 0.017318213 0.8936792
0.18126154 0.01733806 0.89470339
0.1846254 0.017357944 0.89572942
0.18799694 0.017377868 0.8967576
0.19461989 0.017692719 0.91300493
0.091231234 0.021563746 0.94156891
0.093915299 0.021419279 0.93526083
0.096563607 0.021276727 0.92903638
0.099176846 0.021136049 0.92289376
0.10175577 0.020997223 0.91683197
0.10430103 0.020860204 0.91084921
0.10681328 0.020724965 0.904944
0.10969517 0.020667205 0.90242195
0.11268097 0.020631727 0.90087283
0.11565654 0.02059637 0.89932901
0.11862193 0.020561134 0.89779043
0.12157718 0.020526018 0.8962571
0.12452234 0.020491019 0.8947289
0.1274575 0.020456143 0.89320606
0.13038269 0.020421384 0.89168835
0.13329794 0.020386742 0.89017576
0.13620332 0.02035222 0.88866836
0.13909887 0.020317812 0.8871659
0.14198463 0.020283516 0.88566846
0.14486067 0.020249341 0.88417614
0.14773631 0.020216549 0.88274431
0.15101731 0.020239433 0.88374352
0.15430573 0.020262368 0.884745
0.15760159 0.020285355 0.88574868
0.16090499 0.020308398 0.88675481
0.16421586 0.020331489 0.88776308
0.16753428 0.020354632 0.88877362
0.17086026 0.02037783 0.88978654
0.17419383 0.020401079 0.89080173
0.17753501 0.020424383 0.89181924
0.18088385 0.02044774 0.89283913
0.18424034 0.02047115 0.89386129
0.18760447 0.020494606 0.89488554
0.19255817 0.020688068 0.90333295
0.19940768 0.021075608 0.92025465
0.09136492 0.024917705 0.94294864
0.094052002 0.024750527 0.9366222
0.096703269 0.024585577 0.93038005
0.099319376 0.024422796 0.92422009
0.10190104 0.024262153 0.91814089
0.10444895 0.024103604 0.91214103
0.10696379 0.023947118 0.90621918
0.10961358 0.023829037 0.90175074
0.11259731 0.023788163 0.90020394
0.11557081 0.023747427 0.89866239
0.11853415 0.023706829 0.89712608
0.12148737 0.023666371 0.89559501
0.12443052 0.023626048 0.89406914
0.12736368 0.023585865 0.8925485
0.13028686 0.023545818 0.89103299
0.13320014 0.023505908 0.88952267
0.13610357 0.023466133 0.88801748
0.13899715 0.023426488 0.88651723
0.141881 0.023386978 0.8850221
0.14475513 0.023347601 0.88353199
0.14761959 0.023308357 0.88204688
0.1507065 0.023305127 0.88192469
0.15398778 0.02333148 0.88292193
0.15727651 0.023357898 0.88392162
0.16057269 0.023384372 0.88492346
0.16387634 0.023410905 0.88592756
0.16718751 0.023437502 0.88693404
0.17050621 0.023464156 0.88794273
0.17383245 0.023490872 0.88895369
0.1771663 0.023517651 0.88996708
0.18050773 0.023544487 0.89098263
0.1838568 0.023571385 0.8920005
0.18721357 0.023598349 0.89302087
0.19057794 0.023625365 0.89404321
0.19727865 0.024058372 0.9104293
0.091498993 0.028281508 0.94433242
0.0941891 0.028091487 0.93798751
0.096843295 0.027904 0.93172729
0.099462286 0.027718997 0.92554992
0.10204672 0.027536416 0.9194535
0.10459731 0.027356219 0.91343659
0.10711472 0.027178362 0.90749788
0.10959962 0.027002804 0.90163594
0.11251377 0.026939917 0.89953607
0.11548521 0.026893817 0.89799678
0.11844651 0.026847875 0.89646274
0.1213977 0.026802089 0.89493394
0.12433883 0.026756456 0.89341027
0.12726998 0.026710983 0.8918919
0.13019118 0.026665663 0.89037865
0.13310249 0.026620498 0.88887054
0.13600394 0.026575483 0.88736749
0.13889562 0.026530622 0.88586956
0.1417775 0.026485909 0.88437653
0.14464973 0.026441349 0.88288867
0.1475123 0.026396938 0.88140577
0.15039694 0.026358228 0.88011324
0.15367116 0.026387976 0.88110656
0.15695275 0.02641779 0.88210201
0.16024175 0.026447669 0.88309968
0.16353823 0.026477618 0.88409972
0.16684216 0.026507635 0.88510197
0.1701536 0.026537718 0.88610649
0.17347258 0.026567874 0.88711339
0.1767991 0.026598096 0.8881225
0.18013319 0.026628384 0.88913387
0.1834749 0.026658745 0.89014763
0.1868242 0.026689172 0.89116359
0.19046481 0.026759518 0.89351249
0.19519459 0.026978113 0.90081149
0.20207386 0.027482046 0.917638
0.094326593 0.031442199 0.93935674
0.096983716 0.031232046 0.93307829
0.09960556 0.031024683 0.92688322
0.1021928 0.030820051 0.92076969
0.10474607 0.030618083 0.91473573
0.10726608 0.030418741 0.90878028
0.1097535 0.030221976 0.90290183
0.11243034 0.030086994 0.8988691
0.11539973 0.030035548 0.89733213
0.11835898 0.029984277 0.89580035
0.12130816 0.029933183 0.89427388
0.12424729 0.02988226 0.89275253
0.12717642 0.029831506 0.89123625
0.13009563 0.029780928 0.88972521
0.13300498 0.029730525 0.88821936
0.13590448 0.029680287 0.88671851
0.1387942 0.029630221 0.88522273
0.14167416 0.029580321 0.8837319
0.14454448 0.029530592 0.88224626
0.14740515 0.029481031 0.88076556
0.15025622 0.02943163 0.87928969
0.15335581 0.029431924 0.87929845
0.15663029 0.029465105 0.88028979
0.15991218 0.029498365 0.8812834
0.16320151 0.029531702 0.8822794
0.16649824 0.029565107 0.88327742
0.16980246 0.029598594 0.88427782
0.17311418 0.029632157 0.88528055
0.17666832 0.029705293 0.88746554
0.18059309 0.029837118 0.89140391
0.18455356 0.029970236 0.89538091
0.18854909 0.030104477 0.89939141
0.19258113 0.030240012 0.90344065
0.19664963 0.030376771 0.90752643
0.20075512 0.030514779 0.91164947
0.094464503 0.034802713 0.94073009
0.097124547 0.034569755 0.93443322
0.09974923 0.034339901 0.92822015
0.10233925 0.034113083 0.92208922
0.10489526 0.033889238 0.91603857
0.10741788 0.033668291 0.91006631
0.10990779 0.033450197 0.90417117
0.11236567 0.033234917 0.89835203
0.11531439 0.033172633 0.89666849
0.1182716 0.033116046 0.89513898
0.12121874 0.033059657 0.89361471
0.12415586 0.033003457 0.89209563
0.127083 0.032947443 0.89058155
0.13000023 0.032891627 0.88907278
0.1329076 0.032835998 0.88756907
0.13580514 0.032780554 0.88607043
0.13869293 0.032725297 0.88457686
0.14157097 0.032670226 0.88308823
0.14443937 0.032615341 0.88160473
0.14729814 0.032560639 0.88012612
0.15014733 0.032506123 0.87865251
0.15304175 0.032463402 0.87749773
0.15630917 0.032499928 0.87848502
0.15958399 0.03253654 0.8794747
0.16305746 0.032611493 0.88150066
0.16689573 0.032755237 0.88538617
0.17076796 0.032900251 0.88930589
0.17467496 0.033046614 0.89326215
0.17861754 0.033194408 0.89725709
0.18259437 0.033343323 0.90128225
0.18660806 0.033493754 0.90534854
0.19065814 0.033645555 0.90945172
0.19474508 0.033798732 0.91359222
0.19886942 0.033953317 0.91777062
0.097265802 0.037917178 0.93579221
0.099893324 0.037664697 0.92956102
0.1024861 0.03741556 0.92341238
0.1050448 0.037169699 0.91734451
0.1075701 0.036927048 0.91135591
0.11006254 0.036687512 0.9054442
0.11252284 0.03645106 0.89960861
0.11522916 0.036305077 0.89600575
0.11818434 0.036243197 0.89447856
0.12112946 0.036181528 0.89295655
0.12406457 0.036120065 0.89143968
0.12698972 0.03605881 0.88992786
0.12990497 0.035997763 0.8884213
0.13281038 0.035936926 0.8869198
0.13570598 0.035876293 0.88542336
0.13859181 0.035815861 0.88393193
0.14146794 0.035755634 0.88244557
0.14433442 0.035695609 0.8809641
0.14719129 0.035635784 0.87948769
0.1500386 0.035576161 0.87801617
0.15338206 0.035634216 0.87944895
0.15716882 0.035790917 0.88331634
0.160989 0.035948999 0.88721776
0.1648431 0.036108486 0.89115393
0.16873235 0.036269572 0.89512944
0.17265657 0.036432121 0.89914113
0.17661498 0.0365959 0.90318316
0.18060973 0.036761273 0.90726459
0.18464115 0.036928233 0.91138512
0.18870938 0.037096716 0.91554332
0.19281489 0.037266742 0.91973954
0.09740746 0.041274346 0.93715507
0.10003785 0.040999118 0.93090588
0.10263339 0.040727533 0.92473942
0.10519477 0.040459529 0.9186542
0.10772265 0.040195022 0.91264844
0.11021771 0.03993395 0.9067207
0.11268046 0.039676219 0.90086877
0.11514407 0.039432898 0.89534408
0.11809722 0.039365739 0.89381915
0.12104031 0.039298803 0.89229935
0.12397342 0.039232098 0.89078474
0.12689659 0.039165616 0.88927525
0.12980986 0.039099354 0.88777077
0.1327133 0.039033324 0.88627148
0.13560694 0.038967513 0.88477719
0.13849084 0.038901921 0.88328797
0.14136507 0.038836557 0.88180381
0.14422962 0.038771406 0.88032448
0.14748727 0.03881244 0.88125622
0.15125585 0.038983468 0.88513947
0.15505779 0.039156009 0.8890571
0.15889394 0.039330184 0.89301187
0.16276485 0.039506029 0.89700454
0.1666705 0.03968345 0.90103298
0.17061044 0.039862253 0.90509278
0.17458592 0.040042643 0.90918863
0.17859854 0.040224895 0.91332674
0.18264784 0.040408812 0.9175027
0.18673435 0.040594421 0.92171705
0.10018278 0.0443432 0.93225455
0.10278109 0.044049036 0.92607021
0.10534516 0.043758761 0.91996753
0.10787566 0.043472283 0.91394472
0.11037324 0.043189529 0.90800023
0.11283853 0.042910427 0.90213251
0.11527206 0.042634871 0.89633936
0.11801021 0.042483676 0.89316064
0.12095129 0.042411491 0.89164311
0.1238824 0.042339556 0.8901307
0.12680359 0.042267863 0.88862348
0.12971488 0.042196404 0.8871212
0.13261636 0.042125192 0.88562405
0.13550805 0.042054221 0.88413197
0.13839002 0.041983489 0.88264495
0.14156818 0.042003747 0.88307083
0.14531843 0.042189222 0.88697016
0.14910197 0.042376351 0.89090431
0.15292002 0.042565368 0.89487809
0.15677227 0.042756073 0.89888746
0.16065921 0.042948499 0.90293294
0.16458046 0.043142453 0.9070105
0.16853677 0.043338027 0.9111222
0.17253011 0.043535639 0.91527671
0.17656028 0.043735117 0.91947049
0.18062758 0.043936439 0.92370301
0.10032813 0.047696982 0.9336071
0.10292923 0.047380123 0.927405
0.10549598 0.047067437 0.92128462
0.1080291 0.04675886 0.91524464
0.11052921 0.046454307 0.90928334
0.11299696 0.046153687 0.90339911
0.11543295 0.045856927 0.8975904
0.11792333 0.045597024 0.89250314
0.12086241 0.045519609 0.89098787
0.12379152 0.045442455 0.88947767
0.12671071 0.045365565 0.88797265
0.12962003 0.045288924 0.88647252
0.13251954 0.045212552 0.88497758
0.13562468 0.045208227 0.88489294
0.1393564 0.045408268 0.88880849
0.14312178 0.045610238 0.89276177
0.14692107 0.045814097 0.89675206
0.1507545 0.046019796 0.90077835
0.1546225 0.046227343 0.90484089
0.15852486 0.046436574 0.90893626
0.1624621 0.046647534 0.91306555
0.16643573 0.046860546 0.91723496
0.17044659 0.047075726 0.92144686
0.17449446 0.047292892 0.92569757
0.10307778 0.050720815 0.92874348
0.10564724 0.050385609 0.92260557
0.10818297 0.050054803 0.91654825
0.11068562 0.049728319 0.91057003
0.11315582 0.049406063 0.90466923
0.11559422 0.049087953 0.89884436
0.11800138 0.048773903 0.89309382
0.12077364 0.048623156 0.89033347
0.12370077 0.048540805 0.8888256
0.12661797 0.048458733 0.88732272
0.12965661 0.048425961 0.88672268
0.13336974 0.048640732 0.89065534
0.13711657 0.048857626 0.89462686
0.14089695 0.049076468 0.89863402
0.14471135 0.049297273 0.90267718
0.14856023 0.049520075 0.90675688
0.1524435 0.049744718 0.91087031
0.15636145 0.049971186 0.91501713
0.16031528 0.050199732 0.91920203
0.16430655 0.050430723 0.92343163
0.16833478 0.050663866 0.9277007
0.10322677 0.054071162 0.93008584
0.10579894 0.053713307 0.92393029
0.10833728 0.053360153 0.91785568
0.11084246 0.053011611 0.91186035
0.11331514 0.052667599 0.90594292
0.11575592 0.05232802 0.90010178
0.11816542 0.051992781 0.89433533
0.12068502 0.05172215 0.88968015
0.12366379 0.051657028 0.88855994
0.12735842 0.051886763 0.89251167
0.13108622 0.052118618 0.89649981
0.13484749 0.052352555 0.90052384
0.13864267 0.052588597 0.90458399
0.14247222 0.052826781 0.90868104
0.14633617 0.053066965 0.91281247
0.15023468 0.053309083 0.91697717
0.1541689 0.05355341 0.92117989
0.15813999 0.053800203 0.92542499
0.16214839 0.054049466 0.92971259
0.16619411 0.054301046 0.93404007
0.10337619 0.057431217 0.93143219
0.10595106 0.057050575 0.92525882
0.10849203 0.056674942 0.91916674
0.11099976 0.056304228 0.91315442
0.11347489 0.055938326 0.90722013
0.11591806 0.055577151 0.90136254
0.11832988 0.055220608 0.89558005
0.12132198 0.055146355 0.8943758
0.12503058 0.055393293 0.8983807
0.12877251 0.055642445 0.90242147
0.13254829 0.055893861 0.90649897
0.13635832 0.056147546 0.9106133
0.14020278 0.056403417 0.91476309
0.14408161 0.056661304 0.91894555
0.14799605 0.05692156 0.92316645
0.15194674 0.057184257 0.92742693
0.15593511 0.057449777 0.93173319
0.15996067 0.05771777 0.93607956
0.10610364 0.060397454 0.92659122
0.10864723 0.059999213 0.92048156
0.1111575 0.059606198 0.91445208
0.1136351 0.059218295 0.90850103
0.11608066 0.058835402 0.90262687
0.11894946 0.05868173 0.90026933
0.12267191 0.058946241 0.90432733
0.12642805 0.059213139 0.90842193
0.13021839 0.05948247 0.91255391
0.13404311 0.059754159 0.91672206
0.13790205 0.060027953 0.92092246
0.14179651 0.060304265 0.92516154
0.14572701 0.060583141 0.9294399
0.14969476 0.060864899 0.93376255
0.15369996 0.061149448 0.93812793
0.10625664 0.063753985 0.92792737
0.10880287 0.063333012 0.9218002
0.11131569 0.06291756 0.91575342
0.11379576 0.062507533 0.90978551
0.11654546 0.062264014 0.90624112
0.1202818 0.062546536 0.91035318
0.12405221 0.06283164 0.9145028
0.127857 0.063119277 0.91868931
0.13169585 0.06340912 0.92290789
0.13557012 0.06370163 0.92716533
0.13948031 0.063996851 0.93146223
0.14342716 0.064294934 0.93580085
0.14741178 0.064596176 0.94018531
0.10895895 0.066676371 0.92312258
0.11147434 0.066238374 0.91705859
0.11410937 0.065894142 0.91229272
0.11785963 0.066195138 0.91645992
0.12164427 0.066498868 0.92066509
0.12546284 0.066804886 0.92490184
0.1293167 0.067113727 0.9291777
0.13320638 0.067425452 0.93349344
0.13713233 0.067740068 0.93784928
0.14109597 0.068058059 0.94225174
0.10911548 0.070029341 0.92444873
0.11164051 0.069573067 0.91842556
0.11540475 0.069893017 0.9226492
0.11920284 0.070215367 0.9269045
0.12303608 0.070540689 0.93119895
0.12690501 0.070869029 0.9355334
0.13081013 0.071200453 0.93990844
0.13475235 0.071535192 0.94432735
0.11291565 0.073640645 0.92891574
0.11672807 0.073982581 0.93322903
0.12057605 0.0743277 0.93758243
0.12446009 0.074676059 0.94197661
0.12838073 0.075027704 0.94641232
0.12198127 0.078535885 0.94850922
