# .PCD v0.7 - Point Cloud Data file format
VERSION 0.7
FIELDS x y z
SIZE 4 4 4
TYPE F F F
COUNT 1 1 1
WIDTH 1339
HEIGHT 1
VIEWPOINT 0 0 0 1 0 0 0
POINTS 1339
DATA ascii
-0.01034713 -0.32076102 0.83906019
-0.07439737 -0.32643741 0.86185211
-0.070995577 -0.32476699 0.85744184
-0.067628406 -0.3231135 0.85307634
-0.064295024 -0.32147512 0.84875077
-0.060995679 -0.31985539 0.84447438
-0.057729371 -0.31825167 0.84024024
-0.054495312 -0.31666195 0.83604312
-0.051293977 -0.31509158 0.83189708
-0.048124168 -0.31353626 0.82779074
-0.044985246 -0.31199443 0.8237201
-0.041877106 -0.3104682 0.81969053
-0.038799152 -0.30895621 0.81569862
-0.035908673 -0.30881459 0.81532472
-0.033131916 -0.30971137 0.8176924
-0.030338984 -0.31061339 0.8200739
-0.027529733 -0.31152067 0.82246923
-0.024704024 -0.31243324 0.82487863
-0.021861713 -0.31335121 0.82730222
-0.019002648 -0.31427458 0.82974005
-0.016126685 -0.31520337 0.83219224
-0.013233674 -0.31613776 0.83465916
-0.010323455 -0.31707755 0.83714038
-0.074434891 -0.3235639 0.86228681
-0.07103119 -0.32190731 0.85787201
-0.067662172 -0.32026762 0.85350227
-0.064326927 -0.31864271 0.84917194
-0.061025504 -0.31703493 0.84488732
-0.057758007 -0.31544757 0.84065706
-0.054522019 -0.31386998 0.83645284
-0.051318482 -0.31230962 0.83229446
-0.048147023 -0.31076714 0.82818383
-0.045006718 -0.30923972 0.82411331
-0.04189714 -0.30772728 0.82008272
-0.038817625 -0.30622792 0.81608701
-0.035828847 -0.30526176 0.81351221
-0.033058044 -0.30614623 0.81586927
-0.030271141 -0.30703586 0.81824011
-0.027467998 -0.30793071 0.82062483
-0.024648461 -0.30883074 0.82302338
-0.0218124 -0.30973607 0.82543606
-0.018959658 -0.31064668 0.82786286
-0.016090093 -0.31156272 0.83030403
-0.013203555 -0.31248415 0.83275956
-0.01029989 -0.31341097 0.83522952
-0.0073789493 -0.31434324 0.83771402
-0.077913299 -0.32234719 0.86718684
-0.074472457 -0.32068753 0.86272198
-0.071066849 -0.3190448 0.85830271
-0.067695968 -0.3174189 0.85392863
-0.064358868 -0.31580746 0.84959352
-0.06108211 -0.31434938 0.845671
-0.058187209 -0.31480771 0.84690398
-0.055279464 -0.31524235 0.84807324
-0.052356135 -0.3156327 0.84912336
-0.048170432 -0.30799884 0.82858652
-0.045028616 -0.30648512 0.82451427
-0.041917201 -0.30498376 0.82047534
-0.038836118 -0.30349708 0.81647581
-0.03578493 -0.30202481 0.81251508
-0.032984503 -0.30259696 0.81405431
-0.030203603 -0.30347431 0.81641454
-0.027406536 -0.30435678 0.81878865
-0.024593148 -0.30524436 0.82117641
-0.021763306 -0.30613717 0.82357824
-0.018916862 -0.30703521 0.82599419
-0.016053667 -0.30793855 0.82842433
-0.013173574 -0.3088471 0.8308686
-0.010276432 -0.30976102 0.83332723
-0.0073620942 -0.31068039 0.83580053
-0.081431471 -0.32111657 0.87214297
-0.077952839 -0.31945381 0.86762697
-0.074510045 -0.31780815 0.86315745
-0.071102552 -0.31617945 0.85873389
-0.067729793 -0.31456727 0.85435528
-0.064390831 -0.31296942 0.85001552
-0.061380554 -0.31289113 0.84980291
-0.05848911 -0.31344163 0.85129809
-0.055586889 -0.3139908 0.85278964
-0.05267087 -0.31452036 0.85422784
-0.048193857 -0.30522776 0.82898945
-0.045050286 -0.30372614 0.82491106
-0.041937273 -0.3022376 0.82086825
-0.038854625 -0.30076361 0.81686491
-0.035801902 -0.29930389 0.81290042
-0.032911286 -0.29906344 0.81224734
-0.030136367 -0.29992861 0.81459713
-0.027345348 -0.30079883 0.81696063
-0.024538083 -0.3016741 0.81933779
-0.021714434 -0.30255446 0.82172883
-0.018874258 -0.30344 0.82413393
-0.016017403 -0.30433065 0.82655293
-0.013143726 -0.30522653 0.82898611
-0.010253081 -0.3061277 0.83143365
-0.0073453155 -0.30703419 0.83389568
-0.0044202791 -0.30794609 0.83637238
-0.08147303 -0.31820598 0.87258804
-0.077992432 -0.3165575 0.86806756
-0.074547693 -0.31492597 0.86359352
-0.071138293 -0.31331119 0.85916549
-0.067763664 -0.31171283 0.85478246
-0.064475685 -0.31038293 0.85113561
-0.061599065 -0.31100017 0.85282815
-0.05870809 -0.31160447 0.85448533
-0.055805583 -0.31220961 0.85614473
-0.052889392 -0.31280297 0.85777187
-0.048217148 -0.30245304 0.82939011
-0.045071978 -0.3009645 0.82530826
-0.041957367 -0.29948881 0.82126158
-0.038873151 -0.29802749 0.81725436
-0.03581889 -0.2965804 0.81328613
-0.032838397 -0.29554558 0.81044841
-0.030069429 -0.29639867 0.81278777
-0.027284434 -0.29725674 0.81514078
-0.024483263 -0.29811975 0.81750733
-0.021665782 -0.29898778 0.8198877
-0.018831842 -0.29986086 0.82228184
-0.015981302 -0.30073905 0.82468998
-0.013114014 -0.30162233 0.82711214
-0.010229835 -0.30251086 0.82954866
-0.0073286132 -0.3034046 0.83199948
-0.004410198 -0.30430365 0.83446491
-0.085033663 -0.31694365 0.87760574
-0.081514493 -0.31529188 0.87303209
-0.078031771 -0.3136571 0.86850542
-0.07458511 -0.31203976 0.86402702
-0.071173824 -0.31043902 0.85959464
-0.067797348 -0.30885458 0.85520738
-0.06463898 -0.30816257 0.85329121
-0.061762143 -0.30881071 0.85508591
-0.05887229 -0.30945691 0.85687524
-0.055969235 -0.31009981 0.85865539
-0.053052444 -0.31073576 0.86041629
-0.048240285 -0.29967451 0.82978809
-0.045093693 -0.29820022 0.82570589
-0.041977484 -0.2967374 0.82165533
-0.038891699 -0.29528883 0.8176443
-0.035835896 -0.29385436 0.8136723
-0.032809637 -0.29243374 0.80973864
-0.03000279 -0.29288438 0.81098646
-0.027223792 -0.29373038 0.81332904
-0.02442869 -0.29458126 0.81568509
-0.021617347 -0.29543707 0.8180548
-0.018789617 -0.29629782 0.82043815
-0.01594536 -0.29716355 0.82283533
-0.013084437 -0.2980344 0.82524669
-0.010206695 -0.29891032 0.82767212
-0.0073119868 -0.29979146 0.83011192
-0.0044001625 -0.30067778 0.83256608
-0.085077196 -0.3140122 0.87805504
-0.08155597 -0.31237474 0.87347633
-0.07807155 -0.31075537 0.86894816
-0.074622385 -0.30914989 0.86445886
-0.071208999 -0.30756226 0.86001945
-0.067830965 -0.30599299 0.85563141
-0.064756699 -0.30571187 0.85484529
-0.06188146 -0.30638871 0.85673785
-0.058992788 -0.30706504 0.85862905
-0.056089673 -0.30773523 0.86050314
-0.053173836 -0.30840826 0.86238503
-0.048264116 -0.29689744 0.83019799
-0.04511543 -0.29543328 0.82610387
-0.041997615 -0.29398331 0.82204938
-0.038910262 -0.29254752 0.81803453
-0.035852917 -0.29112568 0.81405872
-0.032825146 -0.28971758 0.81012136
-0.029936444 -0.28938565 0.80919313
-0.027163414 -0.29021963 0.81152523
-0.024374358 -0.29105851 0.81387091
-0.021569125 -0.29190215 0.81622994
-0.018747581 -0.29275069 0.81860262
-0.015909582 -0.29360414 0.82098907
-0.013054991 -0.29446259 0.82338953
-0.010183659 -0.29532611 0.82580417
-0.0072954353 -0.29619467 0.82823288
-0.0043901731 -0.29706839 0.83067602
-0.0014677205 -0.29794726 0.83313352
-0.085120775 -0.31107774 0.87850481
-0.081597537 -0.3094548 0.87392151
-0.078110859 -0.30784869 0.86938572
-0.074660085 -0.30625874 0.86489558
-0.071245357 -0.30468759 0.86045861
-0.067865051 -0.30313057 0.8560614
-0.064831637 -0.30305022 0.85583454
-0.061960246 -0.30375633 0.85782862
-0.059073444 -0.30445543 0.85980296
-0.056173354 -0.30515796 0.8617869
-0.053258277 -0.30585468 0.86375451
-0.048287131 -0.29411253 0.83059388
-0.045136992 -0.29266241 0.82649869
-0.042017762 -0.29122657 0.82244372
-0.038928844 -0.28980362 0.81842524
-0.035869956 -0.28839445 0.81444561
-0.032840669 -0.2869989 0.8105045
-0.029870391 -0.28590232 0.80740768
-0.027103309 -0.28672448 0.80972952
-0.024320263 -0.28755134 0.81206465
-0.021521116 -0.28838295 0.81441313
-0.018705729 -0.28921938 0.81677526
-0.015873967 -0.29006067 0.81915116
-0.01302568 -0.29090685 0.82154083
-0.010160726 -0.291758 0.82394451
-0.0072789593 -0.29261416 0.82636237
-0.0043802289 -0.29347533 0.82879442
-0.0014643861 -0.29434162 0.83124083
-0.085164405 -0.30814028 0.87895507
-0.081639126 -0.30653182 0.874367
-0.078150474 -0.30494007 0.86982661
-0.07469786 -0.30336478 0.86533314
-0.071280777 -0.30180582 0.86088634
-0.067898713 -0.30026323 0.85648608
-0.064862534 -0.30017775 0.85624236
-0.061995521 -0.30090508 0.85831702
-0.059114512 -0.30163559 0.86040074
-0.056217801 -0.30236059 0.86246878
-0.053306445 -0.30308521 0.86453569
-0.048310533 -0.29132715 0.83099639
-0.045158613 -0.28988916 0.82689464
-0.042037666 -0.28846535 0.8228333
-0.038947243 -0.28705561 0.81881201
-0.035886936 -0.28566 0.81483114
-0.032856192 -0.2842775 0.81088763
-0.029854609 -0.28290796 0.80698109
-0.027043466 -0.28324473 0.80794168
-0.024266405 -0.28405967 0.81026632
-0.02147332 -0.28487936 0.81260443
-0.018664066 -0.28570378 0.81495601
-0.015838508 -0.286533 0.81732136
-0.012996499 -0.28736705 0.81970042
-0.010137897 -0.28820595 0.82209331
-0.0072625563 -0.28904974 0.8245002
-0.0043703294 -0.28989854 0.82692134
-0.0014610669 -0.29075232 0.82935673
-0.085208073 -0.30519983 0.8794058
-0.081680782 -0.30360591 0.87481308
-0.078190133 -0.30202857 0.87026805
-0.074735567 -0.30046749 0.86576998
-0.071316533 -0.29892251 0.86131823
-0.067932479 -0.29739332 0.85691202
-0.064841144 -0.2970629 0.85596001
-0.06198363 -0.29782379 0.85815239
-0.059110675 -0.2985847 0.86034489
-0.056220852 -0.29933807 0.86251563
-0.053316377 -0.30009505 0.8646968
-0.048334029 -0.2885395 0.83140057
-0.045180403 -0.28711417 0.82729363
-0.042057756 -0.28570268 0.82322651
-0.038965844 -0.28430635 0.81920308
-0.035903957 -0.28292316 0.81521761
-0.032871697 -0.28155324 0.81127024
-0.029868659 -0.28019646 0.80736083
-0.027035061 -0.2803109 0.80769056
-0.02424504 -0.28095725 0.80955297
-0.021442125 -0.28160658 0.81142396
-0.018626226 -0.28225896 0.81330377
-0.015803207 -0.28302106 0.81549966
-0.01296745 -0.28384304 0.81786817
-0.010115171 -0.28466982 0.82025039
-0.0072462279 -0.28550139 0.8226465
-0.0043604746 -0.28633785 0.82505667
-0.0014577627 -0.28717923 0.82748109
0.0014620589 -0.28802559 0.82991976
-0.085251786 -0.30225635 0.87985694
-0.081722461 -0.300677 0.87525952
-0.07822983 -0.29911405 0.8707099
-0.074773319 -0.29756728 0.8662073
-0.071352378 -0.29603645 0.86175108
-0.067966439 -0.29452124 0.85734034
-0.064752243 -0.29364389 0.85478646
-0.06190918 -0.29444611 0.85712165
-0.059050199 -0.29525098 0.85946465
-0.056172363 -0.29604355 0.8617717
-0.053278677 -0.29683834 0.86408538
-0.048357405 -0.2857483 0.83180267
-0.045202237 -0.28433666 0.8276934
-0.042078089 -0.28293887 0.82362455
-0.038984511 -0.28155479 0.81959552
-0.035921045 -0.28018412 0.81560558
-0.032887261 -0.27882677 0.81165439
-0.029882733 -0.27748251 0.80774128
-0.027074648 -0.27787137 0.80887324
-0.024280624 -0.27851304 0.81074113
-0.021473669 -0.2791577 0.81261766
-0.018653691 -0.27980536 0.81450295
-0.015820593 -0.28045598 0.81639689
-0.012974291 -0.28110963 0.81829971
-0.010114691 -0.28176641 0.82021153
-0.0072416975 -0.28242621 0.82213217
-0.0043552173 -0.28308913 0.82406193
-0.0014551545 -0.28375512 0.82600063
0.0014587501 -0.28445628 0.82804161
-0.088864222 -0.30089113 0.8849594
-0.085295551 -0.29930985 0.88030863
-0.081764199 -0.29774511 0.87570649
-0.078269564 -0.29619658 0.8711521
-0.074811101 -0.29466414 0.86664498
-0.071388245 -0.29314747 0.86218429
-0.068000287 -0.29164568 0.85776728
-0.064647235 -0.29016083 0.85340023
-0.061732668 -0.29059523 0.85467786
-0.05890011 -0.29148003 0.85728014
-0.056046404 -0.29235017 0.85983932
-0.051569313 -0.28436792 0.83636254
-0.048380889 -0.2829549 0.83220661
-0.045224078 -0.28155637 0.82809335
-0.042098317 -0.28017157 0.8240205
-0.03900316 -0.27880037 0.8199876
-0.035938144 -0.27744249 0.81599391
-0.032902841 -0.27609774 0.8120389
-0.029899504 -0.27479067 0.80819464
-0.027114352 -0.27542472 0.81005943
-0.024316313 -0.27606165 0.81193274
-0.021505306 -0.2767016 0.81381488
-0.018681234 -0.27734447 0.81570566
-0.015844012 -0.27799037 0.81760532
-0.01299354 -0.27863926 0.81951374
-0.010129733 -0.27929121 0.82143122
-0.0072524915 -0.27994618 0.82335758
-0.0043617235 -0.28060424 0.825293
-0.0014573337 -0.28126541 0.82723761
0.0014607756 -0.2819297 0.82919139
-0.088910095 -0.29792681 0.88541627
-0.08533936 -0.29636031 0.88076073
-0.081805967 -0.29481021 0.87615389
-0.07830935 -0.29327619 0.87159491
-0.074848935 -0.29175809 0.86708325
-0.071424149 -0.29025558 0.86261791
-0.068034492 -0.28876865 0.85819882
-0.064679123 -0.28729564 0.85382116
-0.06135859 -0.28584123 0.84949881
-0.058462974 -0.28631866 0.8509177
-0.054816384 -0.28297105 0.84096885
-0.05159457 -0.28155893 0.83677214
-0.048404392 -0.28015876 0.83261091
-0.045245938 -0.27877337 0.8284936
-0.042118568 -0.2774016 0.82441688
-0.039021827 -0.2760433 0.82038003
-0.035955265 -0.27469823 0.81638259
-0.032918442 -0.27336618 0.81242388
-0.029943312 -0.27234155 0.80937874
-0.02715417 -0.27297086 0.81124902
-0.024352107 -0.27360308 0.81312793
-0.021537036 -0.27423826 0.81501561
-0.018708861 -0.27487633 0.81691194
-0.015867496 -0.27551743 0.8188172
-0.013012845 -0.27616149 0.82073134
-0.010144817 -0.27680859 0.82265443
-0.0072633177 -0.27745873 0.82458663
-0.0043682498 -0.2781119 0.82652783
-0.0014595194 -0.27876821 0.82847828
0.0014629717 -0.27942759 0.83043796
-0.088956028 -0.29495946 0.88587368
-0.085383214 -0.29340777 0.88121337
-0.081847779 -0.29187226 0.87660164
-0.078349166 -0.29035279 0.87203807
-0.074886791 -0.28884906 0.86752182
-0.071460098 -0.28736082 0.86305207
-0.068068765 -0.28588882 0.85863113
-0.064711362 -0.28442898 0.85424674
-0.06138907 -0.28298864 0.84992081
-0.058099963 -0.28156137 0.84563416
-0.054842975 -0.28014386 0.84137684
-0.051619463 -0.27874509 0.83717585
-0.048427913 -0.27735987 0.8330155
-0.04526782 -0.27598768 0.82889432
-0.042138841 -0.274629 0.82481366
-0.039040513 -0.2732836 0.82077295
-0.035972398 -0.27195132 0.81677163
-0.032934051 -0.270632 0.81280917
-0.029987248 -0.26988524 0.81056637
-0.027194107 -0.27050981 0.81244218
-0.024388006 -0.27113724 0.81432664
-0.021568857 -0.27176759 0.81621981
-0.018736569 -0.27240089 0.81812185
-0.015891051 -0.27303714 0.82003272
-0.013032207 -0.27367637 0.82195252
-0.010159948 -0.27431858 0.82388139
-0.0072741755 -0.27496383 0.82581931
-0.0043747961 -0.27561215 0.82776642
-0.0014617117 -0.27626351 0.8297227
0.0014651743 -0.27691793 0.83168823
-0.089002006 -0.29198903 0.8863315
-0.085427105 -0.29045215 0.88166636
-0.081889637 -0.28893137 0.87704998
-0.078389026 -0.28742644 0.87248176
-0.0749247 -0.2859371 0.86796093
-0.071495898 -0.28446239 0.86348444
-0.068102635 -0.28300428 0.85905838
-0.064743988 -0.28156108 0.8546775
-0.061419383 -0.28013232 0.85034049
-0.058128629 -0.27871934 0.84605139
-0.054869793 -0.2773149 0.84178823
-0.051644556 -0.27592948 0.83758283
-0.048451468 -0.27455831 0.83342063
-0.045289725 -0.27319932 0.8292954
-0.042159129 -0.27185369 0.82521075
-0.039059218 -0.27052125 0.82116616
-0.035989549 -0.26920182 0.81716102
-0.032949675 -0.26789519 0.81319475
-0.030031312 -0.26742169 0.81175745
-0.027234159 -0.26804146 0.81363875
-0.024424011 -0.26866412 0.81552887
-0.021600774 -0.26928964 0.81742764
-0.01876436 -0.26991808 0.81933528
-0.015914675 -0.27054948 0.82125187
-0.013051628 -0.27118382 0.8231774
-0.010175124 -0.27182117 0.82511204
-0.0072850669 -0.2724615 0.82705575
-0.004381361 -0.27310485 0.82900864
-0.0014639104 -0.27375126 0.83097082
0.0014673835 -0.27440071 0.83294225
-0.089048028 -0.28901553 0.88678986
-0.085471049 -0.28749353 0.88211989
-0.081931539 -0.28598744 0.87749875
-0.078428932 -0.28449708 0.87292588
-0.074962631 -0.2830222 0.86840039
-0.0715321 -0.28156254 0.8639217
-0.068136558 -0.28011698 0.85948628
-0.064776376 -0.27868906 0.85510504
-0.061449829 -0.27727363 0.85076201
-0.058157329 -0.27587453 0.8464691
-0.05489675 -0.27448377 0.84220183
-0.051669974 -0.27311271 0.83799505
-0.048475038 -0.271754 0.83382607
-0.045311648 -0.27040821 0.82969683
-0.042179432 -0.26907569 0.82560819
-0.039077941 -0.26775625 0.82155979
-0.036006715 -0.26644969 0.81755084
-0.032965317 -0.26515582 0.81358081
-0.030075507 -0.2649509 0.81295204
-0.027274331 -0.26556587 0.81483895
-0.02446012 -0.26618367 0.81673455
-0.021632785 -0.26680437 0.81863904
-0.018792232 -0.26742792 0.82055235
-0.01593837 -0.2680544 0.82247454
-0.013071106 -0.26868385 0.82440591
-0.010190344 -0.26931623 0.82634628
-0.0072959904 -0.26995164 0.82829589
-0.0043879463 -0.27059004 0.83025467
-0.0014661159 -0.27123144 0.83222276
-0.089094095 -0.28603894 0.88724858
-0.08551503 -0.28453183 0.88257378
-0.081973486 -0.28304052 0.87794799
-0.078468874 -0.28156477 0.87337047
-0.075000606 -0.28010431 0.86884034
-0.071568288 -0.27865949 0.86435872
-0.068170741 -0.27722767 0.85991746
-0.064808354 -0.27581227 0.8555271
-0.061480314 -0.27441213 0.85118407
-0.058185786 -0.2730256 0.8468833
-0.054923739 -0.27164984 0.84261584
-0.051695295 -0.27029255 0.83840573
-0.048498631 -0.26894695 0.83423191
-0.045333594 -0.26761445 0.83009869
-0.042199764 -0.26629508 0.82600617
-0.039096683 -0.26498863 0.82195377
-0.036023896 -0.26369494 0.81794095
-0.032980971 -0.26241383 0.81396717
-0.030119834 -0.26247284 0.81415021
-0.027314622 -0.26308295 0.81604266
-0.024496337 -0.26369587 0.81794387
-0.021664895 -0.26431173 0.81985414
-0.018820189 -0.26493037 0.82177305
-0.015962137 -0.26555192 0.82370102
-0.013090643 -0.2661764 0.82563812
-0.010205612 -0.26680383 0.82758433
-0.0073069464 -0.26743424 0.82953972
-0.0043945513 -0.26806763 0.8315044
-0.0014683281 -0.26870403 0.83347839
-0.089140214 -0.28305927 0.88770789
-0.085559055 -0.28156707 0.88302815
-0.08201547 -0.28009057 0.87839764
-0.078508854 -0.27862945 0.87381542
-0.075038739 -0.27718392 0.86928207
-0.071604043 -0.27575174 0.86479062
-0.068204954 -0.2743355 0.86034906
-0.064841159 -0.27293605 0.85596025
-0.061510831 -0.27154782 0.85160655
-0.058214232 -0.27017376 0.84729731
-0.054950751 -0.26881313 0.84303027
-0.05172069 -0.26746985 0.8388176
-0.048522253 -0.26613721 0.83463824
-0.045355562 -0.26481795 0.8305009
-0.042220108 -0.26351172 0.82640439
-0.03911544 -0.2622183 0.82234812
-0.036041096 -0.26093754 0.81833148
-0.032996647 -0.25966927 0.814354
-0.03016429 -0.25998747 0.8153519
-0.02735503 -0.26059267 0.81724989
-0.024532665 -0.26120073 0.81915683
-0.021697097 -0.26181161 0.8210727
-0.018848225 -0.2624253 0.82299727
-0.015985973 -0.26304194 0.82493109
-0.013110237 -0.26366144 0.82687396
-0.010220924 -0.2642839 0.82882607
-0.0073179356 -0.26490927 0.8307873
-0.0044011762 -0.26553765 0.83275795
-0.0014705468 -0.26616898 0.8347379
-0.089186378 -0.28007653 0.88816762
-0.08560314 -0.27859929 0.88348311
-0.082057506 -0.27713761 0.87884784
-0.078548878 -0.27569118 0.87426096
-0.075076789 -0.2742601 0.86972284
-0.071640193 -0.27284244 0.86522716
-0.068239212 -0.27144042 0.86078113
-0.06487345 -0.27005458 0.85638642
-0.061541375 -0.26868063 0.85202944
-0.05824272 -0.26731914 0.84771192
-0.05497779 -0.26597363 0.84344506
-0.051746264 -0.26464516 0.83923233
-0.04854589 -0.26332468 0.8350448
-0.045377545 -0.26201874 0.83090347
-0.042240478 -0.26072571 0.82680309
-0.039134219 -0.25944537 0.82274294
-0.036058314 -0.25817755 0.81872243
-0.033012331 -0.25692207 0.81474108
-0.030208876 -0.25749472 0.81655705
-0.027395561 -0.25809503 0.81846076
-0.024569096 -0.25869814 0.8203733
-0.021729391 -0.25930408 0.82229483
-0.018876351 -0.25991282 0.82422531
-0.016009884 -0.26052445 0.8261649
-0.013129892 -0.26113895 0.82811356
-0.010236282 -0.26175636 0.83007145
-0.0073289587 -0.26237673 0.8320387
-0.0044078212 -0.26299998 0.83401519
-0.0014727724 -0.26362628 0.83600122
-0.092856161 -0.27856851 0.89336717
-0.089232594 -0.2770907 0.88862789
-0.085647255 -0.27562845 0.88393843
-0.082099579 -0.2741816 0.87929845
-0.078588776 -0.27274927 0.87470502
-0.0751146 -0.27133235 0.87016088
-0.071676373 -0.26993015 0.86566412
-0.06827382 -0.26854369 0.86121768
-0.06490583 -0.26717052 0.85681391
-0.061571952 -0.26581061 0.85245275
-0.058271557 -0.26446322 0.84813166
-0.055004854 -0.26313132 0.84386027
-0.051771369 -0.26181519 0.83963948
-0.048569556 -0.26050943 0.8354519
-0.045399562 -0.25921685 0.83130658
-0.042260867 -0.25793701 0.82720214
-0.039153013 -0.25666976 0.82313806
-0.036075551 -0.2554149 0.81911373
-0.033057887 -0.25440201 0.8158654
-0.030253598 -0.2549946 0.81776589
-0.027436212 -0.25558996 0.81967521
-0.024605637 -0.25618809 0.8215934
-0.021761786 -0.25678906 0.82352072
-0.018904559 -0.25739285 0.82545704
-0.016033862 -0.25799942 0.82740229
-0.013149605 -0.25860891 0.82935691
-0.010251687 -0.25922123 0.83132064
-0.0073400144 -0.25983652 0.83329386
-0.0044144862 -0.26045471 0.83527637
-0.0014750045 -0.26107579 0.83726823
-0.09290456 -0.27556437 0.8938328
-0.089278854 -0.27410173 0.88908851
-0.08569143 -0.27265453 0.88439435
-0.082141697 -0.27122256 0.87974954
-0.078629129 -0.26980585 0.87515414
-0.075152747 -0.26840267 0.87060273
-0.071712591 -0.26701498 0.86610156
-0.0683081 -0.26564261 0.86165011
-0.064938255 -0.2642836 0.85724199
-0.061602555 -0.26293775 0.85287648
-0.058300484 -0.26160473 0.8485527
-0.055031944 -0.26028621 0.84427589
-0.051796451 -0.25898224 0.84004629
-0.048593242 -0.25769144 0.83585936
-0.045421589 -0.25641218 0.83170992
-0.042281266 -0.25514558 0.82760149
-0.039171822 -0.25389144 0.82353354
-0.036092799 -0.25264961 0.81950539
-0.033106785 -0.25189945 0.81707221
-0.030298449 -0.25248706 0.81897825
-0.027476979 -0.25307745 0.82089317
-0.024642289 -0.2536706 0.82281721
-0.021794276 -0.25426656 0.82475024
-0.018932849 -0.25486529 0.82669228
-0.016057916 -0.25546685 0.82864356
-0.013169377 -0.25607124 0.83060396
-0.010267139 -0.25667849 0.83257371
-0.0073511037 -0.25728863 0.83455276
-0.0044211722 -0.2579017 0.83654135
-0.0014772437 -0.25851765 0.8385393
-0.092953011 -0.27255714 0.89429891
-0.08932516 -0.2711097 0.88954967
-0.085735641 -0.26967755 0.88485062
-0.082183853 -0.26826051 0.88020104
-0.078669131 -0.26685801 0.87559932
-0.075190939 -0.26547003 0.87104517
-0.071748838 -0.26409677 0.8665393
-0.068342492 -0.26273891 0.86208391
-0.064970717 -0.26139382 0.85767049
-0.061633192 -0.26006201 0.85330063
-0.058329374 -0.25874311 0.84897316
-0.05505906 -0.25743833 0.84469193
-0.051821765 -0.25614759 0.84045684
-0.048617005 -0.25487095 0.83626807
-0.045443639 -0.25360483 0.83211368
-0.0423017 -0.25235149 0.82800138
-0.039190657 -0.25111052 0.82392949
-0.036110066 -0.24988164 0.81989741
-0.033155825 -0.24938945 0.81828249
-0.030343438 -0.24997213 0.8201943
-0.027517872 -0.25055748 0.82211488
-0.024679046 -0.2511456 0.82404459
-0.021826865 -0.25173649 0.82598346
-0.018961227 -0.25233015 0.82793134
-0.016082041 -0.25292665 0.82988846
-0.013189209 -0.25352591 0.83185476
-0.010282638 -0.25412804 0.83383042
-0.007362227 -0.25473306 0.83581555
-0.0044278768 -0.2553409 0.83780998
-0.093001507 -0.26954675 0.8947655
-0.089371517 -0.26811457 0.89001137
-0.085779905 -0.26669753 0.88530749
-0.082226217 -0.26529589 0.88065475
-0.07870923 -0.2639074 0.87604564
-0.075229168 -0.26253444 0.87148803
-0.07178513 -0.26117569 0.86697763
-0.068377048 -0.2598328 0.86251986
-0.065003209 -0.25850114 0.8580994
-0.061663859 -0.2571834 0.85372519
-0.058358155 -0.25587806 0.84939206
-0.05508621 -0.25458762 0.84510845
-0.051847186 -0.25331053 0.84086913
-0.048640721 -0.25204736 0.836676
-0.045465715 -0.25079474 0.83251792
-0.042322144 -0.24955471 0.82840157
-0.039209504 -0.24832685 0.82432568
-0.036127344 -0.24711104 0.82028979
-0.033205014 -0.24687205 0.81949645
-0.030388555 -0.24744965 0.82141382
-0.027558886 -0.24802996 0.82334018
-0.024715917 -0.24861304 0.82527572
-0.021859549 -0.24919885 0.82722032
-0.018989686 -0.24978741 0.82917404
-0.016106239 -0.25037879 0.83113712
-0.013209101 -0.2509729 0.83310932
-0.010298181 -0.25156987 0.83509094
-0.0073733828 -0.2521697 0.83708209
-0.0044346028 -0.25277236 0.83908266
-0.093050048 -0.2665332 0.8952325
-0.08941792 -0.26511627 0.89047343
-0.085824206 -0.26371437 0.88576472
-0.082268395 -0.26232752 0.8811065
-0.078749478 -0.26095414 0.87649363
-0.075267434 -0.25959584 0.87193131
-0.071821459 -0.25825164 0.86741638
-0.068411343 -0.2569226 0.86295247
-0.065035738 -0.25560558 0.85852879
-0.061694555 -0.25430194 0.85415018
-0.058386996 -0.2530103 0.84981185
-0.055113386 -0.25173411 0.84552532
-0.051872633 -0.25047073 0.84128183
-0.048664264 -0.24922003 0.83708102
-0.045487806 -0.24798192 0.83292246
-0.042342607 -0.24675518 0.82880211
-0.039228369 -0.24554054 0.82472235
-0.036144644 -0.2443378 0.82068259
-0.033254344 -0.24434714 0.82071394
-0.030433808 -0.24491969 0.82263702
-0.027600024 -0.24549495 0.82456923
-0.024752896 -0.24607292 0.82651049
-0.021892332 -0.24665359 0.82846087
-0.019018233 -0.24723704 0.83042055
-0.016130507 -0.24782324 0.83238947
-0.013229052 -0.24841218 0.83436763
-0.010313774 -0.24900398 0.83635533
-0.0073845726 -0.24959856 0.83835244
-0.0044413493 -0.25019601 0.84035915
-0.093098655 -0.26351652 0.89570016
-0.089464374 -0.26211494 0.89093608
-0.08586856 -0.26072818 0.88622248
-0.082310461 -0.2593556 0.88155705
-0.078789763 -0.25799787 0.87694204
-0.075305745 -0.25665426 0.87237513
-0.071858086 -0.25532553 0.86785871
-0.068445764 -0.25400984 0.86338669
-0.06506829 -0.25270709 0.85895854
-0.061725285 -0.25141764 0.85457563
-0.058415953 -0.2501401 0.85023332
-0.055140585 -0.24887778 0.84594262
-0.051898103 -0.24762809 0.84169489
-0.048688184 -0.24639173 0.83749247
-0.045509927 -0.24516638 0.83332747
-0.042363096 -0.243953 0.82920319
-0.039247259 -0.24275155 0.82511944
-0.036161959 -0.24156189 0.82107574
-0.03330382 -0.24181469 0.821935
-0.030479196 -0.24238218 0.82386392
-0.027641283 -0.24295233 0.82580185
-0.024789985 -0.24352515 0.82774889
-0.021925213 -0.2441007 0.82970524
-0.019046865 -0.24467897 0.83167076
-0.016154848 -0.24525997 0.83364558
-0.013249065 -0.24584375 0.83562988
-0.010329413 -0.24643029 0.83762354
-0.0073957974 -0.24701963 0.83962673
-0.0044481158 -0.24761178 0.84163946
-0.0931473 -0.26049668 0.89616817
-0.089510873 -0.25911042 0.89139915
-0.085913137 -0.25773939 0.88668251
-0.08235281 -0.25638139 0.88201064
-0.078830093 -0.25503853 0.87739092
-0.075344093 -0.2537097 0.87281936
-0.07189431 -0.25239491 0.86829621
-0.068480231 -0.25109416 0.86382139
-0.065100886 -0.24980572 0.85938883
-0.061756022 -0.24853034 0.85500121
-0.058444947 -0.24726708 0.85065532
-0.055167813 -0.24601862 0.84636033
-0.051923595 -0.24478267 0.84210837
-0.048712041 -0.24356021 0.83790284
-0.045532066 -0.24234809 0.83373284
-0.0423836 -0.24114807 0.82960451
-0.039266162 -0.23995987 0.82551682
-0.036179293 -0.23878333 0.82146925
-0.033353452 -0.23927476 0.82315987
-0.030524721 -0.2398371 0.82509446
-0.027682662 -0.24040207 0.82703811
-0.02482719 -0.24096979 0.82899117
-0.021958195 -0.24154013 0.8309533
-0.019075584 -0.24211319 0.83292472
-0.016179265 -0.24268898 0.83490562
-0.013269136 -0.24326749 0.83689582
-0.010345099 -0.24384876 0.8388955
-0.0074070557 -0.24443285 0.84090489
-0.0044549033 -0.24501969 0.84292376
-0.093195997 -0.25747371 0.89663672
-0.089557432 -0.25610283 0.89186275
-0.085957281 -0.25474614 0.88713813
-0.082395211 -0.25340414 0.88246477
-0.078870468 -0.25207621 0.87784028
-0.075382471 -0.2507621 0.87326401
-0.071931072 -0.24946307 0.8687402
-0.06851472 -0.24817555 0.8642565
-0.065133505 -0.24690144 0.85981947
-0.061786789 -0.24564016 0.85542715
-0.058473963 -0.24439119 0.85107768
-0.055195067 -0.24315664 0.84677845
-0.051949121 -0.24193448 0.84252232
-0.048735954 -0.24072607 0.83831412
-0.045554221 -0.23952705 0.83413857
-0.042404123 -0.23834042 0.83000624
-0.039285086 -0.23716551 0.82591468
-0.036222793 -0.2361726 0.82245696
-0.033403222 -0.23672719 0.82438827
-0.03057038 -0.23728438 0.82632864
-0.027724173 -0.23784421 0.82827824
-0.024864502 -0.23840669 0.83023703
-0.021991272 -0.23897181 0.83220506
-0.019104391 -0.23953967 0.83418256
-0.016203756 -0.24011019 0.83616936
-0.013289269 -0.24068344 0.83816564
-0.010360833 -0.24125941 0.84017146
-0.007418348 -0.24183814 0.84218687
-0.0044617117 -0.24241967 0.844212
-0.093244754 -0.25444755 0.89710575
-0.089603916 -0.25309175 0.8923257
-0.086001791 -0.25175071 0.8875975
-0.082437642 -0.25042379 0.88291919
-0.07891088 -0.24911082 0.87829006
-0.075420901 -0.24781153 0.87370914
-0.07196746 -0.24652682 0.86917967
-0.068549253 -0.24525398 0.86469203
-0.06516616 -0.24399424 0.86025053
-0.061817575 -0.24274707 0.85585338
-0.058503013 -0.24151243 0.85150045
-0.055222347 -0.24029183 0.847197
-0.051974665 -0.23908347 0.84293664
-0.048759542 -0.23788747 0.8387199
-0.045576405 -0.23670328 0.83454478
-0.042424668 -0.23553006 0.83040839
-0.039304022 -0.23436841 0.82631278
-0.036276802 -0.23362263 0.82368332
-0.033453144 -0.23417202 0.82562035
-0.030616179 -0.23472404 0.82756662
-0.027765805 -0.23527865 0.82952201
-0.024901927 -0.23583588 0.83148664
-0.022024455 -0.23639581 0.83346075
-0.019133283 -0.23695834 0.83544409
-0.016228318 -0.23752357 0.83743691
-0.013309464 -0.23809151 0.83943933
-0.010376616 -0.23866217 0.84145129
-0.0074296757 -0.23923555 0.84347284
-0.0044685411 -0.2398117 0.84550416
-0.096975684 -0.25277269 0.90241081
-0.093293555 -0.25141823 0.89757532
-0.089650579 -0.25007793 0.89279038
-0.086046346 -0.24875216 0.88805735
-0.082480125 -0.24744038 0.88337421
-0.078951329 -0.24614237 0.87874025
-0.075459361 -0.24485792 0.87415469
-0.072003931 -0.24358776 0.86962014
-0.068583816 -0.24232948 0.86512804
-0.065198846 -0.2410841 0.86068195
-0.061848395 -0.2398511 0.85628009
-0.058532089 -0.23863082 0.85192364
-0.05524965 -0.23742417 0.84761584
-0.052000239 -0.23622966 0.84335136
-0.048783358 -0.23504709 0.83912957
-0.045598611 -0.23387673 0.83495134
-0.042445235 -0.23271696 0.8308109
-0.03932298 -0.23156865 0.82671136
-0.036330972 -0.23106499 0.82491326
-0.033503219 -0.23160923 0.8268562
-0.030662112 -0.23215599 0.82880819
-0.02780756 -0.23270537 0.83076948
-0.024939466 -0.23325735 0.83274013
-0.022057733 -0.23381196 0.83472008
-0.019162262 -0.2343692 0.83670944
-0.016252957 -0.23492913 0.8387084
-0.013329719 -0.23549171 0.84071684
-0.010392446 -0.23605698 0.84273493
-0.0074410373 -0.23662499 0.84476274
-0.097026736 -0.24972455 0.90288585
-0.093342409 -0.24838573 0.8980453
-0.089697301 -0.24706098 0.89325565
-0.086090952 -0.24575053 0.88851768
-0.08252266 -0.24445391 0.88382971
-0.078991823 -0.2431709 0.87919098
-0.075498052 -0.24190192 0.87460291
-0.072040446 -0.24064574 0.87006116
-0.068618417 -0.23940203 0.86556447
-0.065231562 -0.23817106 0.86111391
-0.061879277 -0.23695235 0.85670763
-0.058561198 -0.23574635 0.85234731
-0.055276982 -0.23455368 0.84803516
-0.052025836 -0.23337303 0.84376651
-0.048807256 -0.23220421 0.8395406
-0.045620833 -0.23104744 0.83535826
-0.042465821 -0.22990116 0.83121389
-0.039341956 -0.22876619 0.82711035
-0.036385309 -0.22849974 0.82614696
-0.033553444 -0.22903872 0.82809567
-0.030708186 -0.22958024 0.83005357
-0.027849441 -0.23012434 0.83202076
-0.02497712 -0.23067103 0.83399737
-0.022091113 -0.2312203 0.83598328
-0.01919133 -0.23177221 0.83797872
-0.016277671 -0.23232676 0.8399837
-0.013350037 -0.23288397 0.84199828
-0.010408325 -0.23344386 0.84402257
-0.0074524335 -0.23400642 0.84605652
-0.097077854 -0.24667324 0.90336156
-0.093391329 -0.24535011 0.898516
-0.089744069 -0.24404089 0.8937214
-0.086135603 -0.2427458 0.88897854
-0.082565233 -0.24146436 0.88428569
-0.079032362 -0.24019639 0.87964219
-0.07553634 -0.23894149 0.87504649
-0.072076991 -0.2377007 0.87050253
-0.068653047 -0.23647159 0.86600131
-0.065264314 -0.23525511 0.86154628
-0.061910179 -0.23405068 0.85713547
-0.05859033 -0.232859 0.85277134
-0.055304345 -0.23168036 0.84845495
-0.052051459 -0.2305136 0.84418207
-0.048831172 -0.22935854 0.83995199
-0.04564308 -0.22821541 0.83576566
-0.042486425 -0.22708261 0.83161718
-0.039360952 -0.22596103 0.8275097
-0.036439806 -0.2259268 0.82738435
-0.033603821 -0.22646053 0.82933897
-0.030754399 -0.22699675 0.8313027
-0.027891453 -0.22753553 0.83327585
-0.025014887 -0.22807691 0.83525842
-0.022124596 -0.22862081 0.83725035
-0.019220486 -0.22916734 0.83925182
-0.016302461 -0.22971649 0.84126294
-0.013370416 -0.23026828 0.84328365
-0.010424252 -0.23082271 0.84531409
-0.0074638659 -0.23137985 0.84735441
-0.0046863784 -0.24212956 0.88672179
-0.0015723079 -0.24370772 0.89250129
0.0015826231 -0.24530658 0.89835662
-0.097129017 -0.24361868 0.90383762
-0.093440227 -0.24231109 0.8989864
-0.089790888 -0.24101764 0.89418763
-0.0861803 -0.23973793 0.88943982
-0.08260785 -0.23847172 0.88474214
-0.079072937 -0.23721881 0.88009381
-0.075575307 -0.23598003 0.87549788
-0.072113574 -0.2347527 0.87094438
-0.068687707 -0.2335382 0.86643851
-0.065297104 -0.23233622 0.86197913
-0.061941177 -0.23114635 0.85756463
-0.058619495 -0.22996879 0.85319585
-0.055331737 -0.2288042 0.84887516
-0.052077107 -0.22765136 0.84459805
-0.048855111 -0.22651006 0.8403638
-0.045665357 -0.22538063 0.83617353
-0.042507045 -0.22426131 0.83202082
-0.039379962 -0.22315311 0.82790935
-0.036494467 -0.22334614 0.8286255
-0.033654343 -0.22387455 0.8305859
-0.030800747 -0.22440544 0.83255553
-0.027933592 -0.22493891 0.83453476
-0.025052765 -0.22547489 0.83652323
-0.022158178 -0.22601341 0.83852118
-0.019249734 -0.22655456 0.84052885
-0.016327325 -0.22709824 0.84254599
-0.013390858 -0.22764458 0.8445729
-0.010440229 -0.22819357 0.84660965
-0.0074753319 -0.22874516 0.84865612
-0.0045141657 -0.23022245 0.85413694
-0.0015141668 -0.23166752 0.8594982
0.0015237308 -0.23313081 0.86492711
0.0046002497 -0.23461273 0.87042511
0.0077161314 -0.23611362 0.87599349
0.010872136 -0.23763382 0.88163352
0.014069041 -0.2391737 0.88734651
-0.09718024 -0.24056092 0.90431428
-0.093489245 -0.23926909 0.89945805
-0.089837752 -0.23799123 0.89465433
-0.08622504 -0.23672692 0.88990158
-0.082650512 -0.23547599 0.88519907
-0.079113558 -0.23423818 0.88054591
-0.075613841 -0.23301409 0.87594432
-0.072150201 -0.2318017 0.87138671
-0.068722412 -0.23060186 0.8668763
-0.065329924 -0.22941439 0.86241233
-0.06197229 -0.22823942 0.85799539
-0.058648691 -0.2270757 0.85362077
-0.055359147 -0.22592518 0.84929574
-0.052102782 -0.2247863 0.84501445
-0.048879076 -0.22365882 0.84077603
-0.045687549 -0.22254258 0.83657992
-0.042527694 -0.22143731 0.832425
-0.039398998 -0.22034253 0.82830954
-0.036549293 -0.22075772 0.82987028
-0.033705018 -0.22128077 0.83183652
-0.030847238 -0.22180633 0.83381224
-0.027975854 -0.22233441 0.83579737
-0.02509076 -0.22286497 0.83779186
-0.022191865 -0.2233981 0.83979601
-0.019279066 -0.22393376 0.84180963
-0.016352264 -0.224472 0.84383297
-0.013411363 -0.22501287 0.8458662
-0.010456253 -0.22555631 0.84790909
-0.0074868342 -0.2261024 0.84996194
-0.0045030033 -0.22665116 0.85202485
-0.0015046541 -0.22720277 0.85409844
0.001508325 -0.22775707 0.85618216
0.004536042 -0.2283141 0.85827619
0.0075786053 -0.22887388 0.86038047
0.010636124 -0.2294364 0.86249506
0.01370871 -0.23000167 0.86462009
0.016796473 -0.23056978 0.86675566
0.019899527 -0.23114066 0.86890173
0.023017986 -0.23171438 0.87105846
-0.097231477 -0.23749983 0.90479106
-0.093538329 -0.23622392 0.8999303
-0.089884669 -0.23496167 0.89512157
-0.086269826 -0.23371281 0.89036381
-0.082693212 -0.23247714 0.88565636
-0.079154223 -0.23125449 0.88099849
-0.075652465 -0.23004524 0.87639171
-0.072186865 -0.22884771 0.87182951
-0.068757147 -0.22766255 0.86731446
-0.065362781 -0.22648963 0.86284608
-0.062003396 -0.22532941 0.85842603
-0.058677904 -0.22417969 0.85404599
-0.055386595 -0.22304331 0.84971678
-0.052128475 -0.22191837 0.84543115
-0.048903063 -0.22080474 0.84118861
-0.045709949 -0.21970266 0.83699006
-0.042548358 -0.21861053 0.83282942
-0.039439254 -0.21764624 0.82915586
-0.036604278 -0.21816149 0.83111876
-0.03375585 -0.2186792 0.83309108
-0.03089387 -0.21919936 0.8350727
-0.028018244 -0.219722 0.83706379
-0.025128871 -0.22024716 0.83906442
-0.022225652 -0.22077481 0.84107459
-0.019308489 -0.221305 0.84309441
-0.016377283 -0.22183774 0.84512401
-0.013431929 -0.22237305 0.84716332
-0.010472327 -0.22291097 0.84921259
-0.0074983733 -0.22345152 0.85127193
-0.0045099598 -0.22399467 0.85334116
-0.0015069831 -0.22454049 0.85542047
0.0015106656 -0.22508918 0.85751081
0.0045430977 -0.22564054 0.85961127
0.0075904224 -0.22619459 0.86172205
0.01065275 -0.22675139 0.86384326
0.013730193 -0.22731096 0.86597502
0.016822858 -0.22787327 0.86811721
0.019930864 -0.22843836 0.87027001
0.023054326 -0.22900629 0.87243366
-0.097282827 -0.23443566 0.90526891
-0.093587466 -0.23317556 0.90040302
-0.089931622 -0.23192891 0.89558917
-0.086314663 -0.23069556 0.89082658
-0.082735963 -0.22947522 0.88611424
-0.079195045 -0.22826807 0.88145286
-0.075691126 -0.22707337 0.87683958
-0.072223552 -0.2258907 0.87227267
-0.068791918 -0.22472027 0.86775309
-0.065395668 -0.22356193 0.86328018
-0.062034458 -0.22241622 0.85885608
-0.058707159 -0.22128083 0.85447174
-0.055414062 -0.22015858 0.85013819
-0.052154202 -0.21904765 0.84584838
-0.048927076 -0.21794789 0.84160167
-0.045732211 -0.21685919 0.83739769
-0.042569041 -0.215781 0.83323431
-0.039498538 -0.2150476 0.83040226
-0.036659434 -0.21555749 0.83237118
-0.033806834 -0.21606976 0.83434933
-0.030940643 -0.2165845 0.83633697
-0.028060764 -0.21710171 0.83833414
-0.025167096 -0.21762136 0.84034079
-0.022259543 -0.21814352 0.8423571
-0.019338004 -0.21866819 0.84438312
-0.016402377 -0.2191954 0.84641892
-0.013452563 -0.21972518 0.84846467
-0.010488453 -0.22025752 0.85052025
-0.0075099464 -0.22079243 0.85258579
-0.0045169382 -0.22132997 0.85466152
-0.0015093205 -0.22187011 0.85674727
0.0015130133 -0.22241296 0.85884345
0.0045501753 -0.22295859 0.86095041
0.0076022777 -0.22350696 0.86306792
0.010669429 -0.224058 0.86519575
0.013751741 -0.22461177 0.86733413
0.01684933 -0.2251683 0.86948317
0.019962301 -0.22572756 0.87164271
0.023090778 -0.22628963 0.87381315
-0.097334236 -0.23136826 0.90574729
-0.093636654 -0.230124 0.90087628
-0.089978628 -0.22889301 0.89605731
-0.086359531 -0.22767514 0.89128965
-0.082778759 -0.22647019 0.8865726
-0.079235859 -0.22527844 0.88190717
-0.075729825 -0.22409846 0.87728786
-0.072260283 -0.22293065 0.87271625
-0.068826728 -0.22177501 0.8681922
-0.065428585 -0.22063127 0.86371475
-0.062065322 -0.2194993 0.85928339
-0.058736436 -0.21837907 0.85489792
-0.055441562 -0.21727099 0.85056007
-0.052179951 -0.21617408 0.84626597
-0.048951112 -0.21508822 0.84201509
-0.045754541 -0.21401317 0.83780658
-0.04258975 -0.21294874 0.83363962
-0.039558005 -0.21244113 0.83165246
-0.036714755 -0.21294558 0.83362722
-0.033857971 -0.21345243 0.8356114
-0.030987555 -0.21396169 0.83760506
-0.028103413 -0.21447341 0.83960831
-0.025205437 -0.21498756 0.84162104
-0.022293538 -0.2155042 0.84364355
-0.019367609 -0.21602333 0.84567583
-0.01642755 -0.21654497 0.84771794
-0.013473256 -0.21706913 0.84976989
-0.010504629 -0.21759588 0.85183191
-0.0075215562 -0.21812513 0.85390383
-0.0045239376 -0.21865699 0.85598594
-0.0015116653 -0.21919146 0.85807824
0.0015153692 -0.21972853 0.86018074
0.0045572757 -0.22026832 0.8622939
0.0076141683 -0.22081088 0.86441785
0.010686158 -0.22135612 0.86655235
0.013773358 -0.22190411 0.86869758
0.016875878 -0.22245477 0.87085325
0.019993838 -0.22300819 0.87301975
0.023127349 -0.22356437 0.87519705
-0.097385697 -0.22829761 0.90622616
-0.093685895 -0.2270692 0.90134996
-0.090025693 -0.22585393 0.89652598
-0.086404458 -0.22465159 0.89175332
-0.082821585 -0.22346202 0.88703126
-0.079276636 -0.22228546 0.88236099
-0.075768568 -0.22112051 0.87773669
-0.072297059 -0.21996765 0.87316042
-0.068861574 -0.21882677 0.86863172
-0.065461539 -0.21769767 0.86414975
-0.062096279 -0.21657971 0.859712
-0.058765747 -0.21547441 0.85532451
-0.055469088 -0.21438053 0.85098237
-0.052205723 -0.21329768 0.84668398
-0.04897517 -0.21222574 0.84242892
-0.045776915 -0.21116449 0.8382163
-0.042610474 -0.21011372 0.83404529
-0.039617646 -0.2098268 0.83290637
-0.036770243 -0.21032579 0.83488709
-0.033909265 -0.21082717 0.83687735
-0.031034613 -0.21133094 0.83887702
-0.028146192 -0.21183713 0.84088635
-0.025243899 -0.21234573 0.84290528
-0.022327637 -0.21285681 0.84493399
-0.019397305 -0.21337037 0.84697253
-0.0164528 -0.21388641 0.84902096
-0.013494017 -0.21440493 0.85107923
-0.010520852 -0.21492597 0.85314751
-0.0075332024 -0.21544959 0.85522598
-0.0045309593 -0.21597573 0.85731453
-0.0015140171 -0.21650445 0.85941327
0.0015177327 -0.21703579 0.86152238
0.0045643994 -0.21756971 0.8636418
0.0076260972 -0.21810639 0.86577213
0.010702942 -0.21864581 0.86791337
0.013795042 -0.2191879 0.87006521
0.016902514 -0.21973269 0.87222773
0.020025475 -0.22028022 0.87440115
0.023164034 -0.22083046 0.8765853
-0.09743721 -0.22522372 0.90670556
-0.093735188 -0.22401121 0.90182424
-0.090072811 -0.22281168 0.89699519
-0.086449437 -0.22162493 0.89221752
-0.082864471 -0.22045076 0.88749057
-0.079317421 -0.21928935 0.88281494
-0.075807348 -0.2181395 0.87818593
-0.072333865 -0.2170016 0.87360495
-0.06889645 -0.21587554 0.86907166
-0.065494522 -0.21476111 0.86458516
-0.062127449 -0.21365781 0.86014354
-0.058795083 -0.21256685 0.85575151
-0.055496633 -0.21148717 0.85140496
-0.052231528 -0.21041843 0.84710246
-0.048999246 -0.20936041 0.84284306
-0.045799311 -0.208313 0.83862638
-0.04263122 -0.20727594 0.83445138
-0.039677471 -0.20720458 0.83416408
-0.036825903 -0.20769809 0.83615088
-0.033960711 -0.20819393 0.83814704
-0.031081811 -0.20869216 0.8401528
-0.028189102 -0.20919281 0.84216833
-0.025282478 -0.20969585 0.84419346
-0.022361845 -0.21020134 0.84622848
-0.019427095 -0.21070926 0.84827322
-0.016478127 -0.21121962 0.85032785
-0.013514841 -0.21173251 0.85239261
-0.010537127 -0.21224785 0.85446727
-0.0075448835 -0.21276571 0.85655212
-0.0045380029 -0.21328613 0.85864723
-0.0015163764 -0.21380907 0.86075246
0.0015201037 -0.21433461 0.86286819
0.0045715473 -0.21486273 0.86499429
0.0076380651 -0.21539344 0.86713082
0.010719777 -0.21592695 0.86927861
0.013816795 -0.21646312 0.87143713
0.016929235 -0.21700202 0.87360662
0.020057209 -0.21754357 0.87578684
0.023200834 -0.21808784 0.87797791
-0.093784526 -0.22094999 0.90229893
-0.090119958 -0.21976621 0.89746475
-0.086494461 -0.21859509 0.89268219
-0.082907394 -0.21743637 0.8879503
-0.079358257 -0.21629015 0.88326943
-0.075846158 -0.21515542 0.87863553
-0.072370715 -0.21403255 0.87405002
-0.068931364 -0.21292132 0.86951208
-0.065527536 -0.21182157 0.86502099
-0.062158577 -0.21073273 0.86057448
-0.058824457 -0.20965639 0.856179
-0.055524215 -0.20859097 0.8518281
-0.052257352 -0.20753634 0.84752131
-0.049023353 -0.2064923 0.84325773
-0.045821734 -0.20545875 0.83903694
-0.042651985 -0.20443538 0.83485782
-0.039737482 -0.20457444 0.83542567
-0.036881726 -0.20506239 0.83741838
-0.034012318 -0.2055527 0.83942062
-0.031129163 -0.20604542 0.84143275
-0.028232146 -0.20654044 0.8434543
-0.025321178 -0.20703788 0.84548569
-0.022396157 -0.20753771 0.84752691
-0.019456975 -0.20803997 0.84957796
-0.016503533 -0.20854466 0.85163897
-0.013535729 -0.20905182 0.85371006
-0.010553453 -0.20956142 0.85579115
-0.0075566019 -0.21007353 0.8578825
-0.0045450684 -0.21058817 0.8599841
-0.0015187431 -0.21110529 0.86209589
0.0015224819 -0.21162498 0.86421818
0.004578718 -0.21214727 0.86635101
0.007650075 -0.21267208 0.86849427
0.010736667 -0.21319951 0.87064815
0.013838619 -0.21372978 0.87281358
0.016956039 -0.21426268 0.87498981
0.020089043 -0.21479824 0.87717688
-0.093833923 -0.21788555 0.90277416
-0.090167172 -0.21671759 0.89793491
-0.086539529 -0.21556211 0.89314735
-0.082950391 -0.21441893 0.88841081
-0.079399124 -0.21328785 0.88372433
-0.075885013 -0.21216831 0.87908566
-0.072407603 -0.21106046 0.87449551
-0.068966314 -0.20996413 0.86995298
-0.065560587 -0.20887908 0.8654573
-0.062189799 -0.20780493 0.86100674
-0.058853853 -0.20674303 0.8566069
-0.055551823 -0.20569189 0.85225165
-0.052283205 -0.2046514 0.84794056
-0.049047481 -0.20362136 0.84367275
-0.045844175 -0.20260167 0.83944786
-0.042672772 -0.20159206 0.83526468
-0.039797664 -0.20193629 0.83669096
-0.036937725 -0.20241873 0.83868986
-0.034064088 -0.20290346 0.8406983
-0.031176653 -0.20339054 0.8427164
-0.028275324 -0.20387997 0.84474427
-0.025359998 -0.20437174 0.84678185
-0.022430573 -0.20486589 0.84882927
-0.019486949 -0.20536245 0.8508867
-0.016529018 -0.2058614 0.85295403
-0.013556681 -0.2063628 0.85503149
-0.010569829 -0.20686665 0.85711914
-0.0075683561 -0.20737296 0.85921693
-0.0045521553 -0.20788175 0.86132503
-0.0015211173 -0.20839307 0.86344355
0.0015248677 -0.20890687 0.86557245
0.0045859101 -0.20942323 0.8677119
0.0076621221 -0.20994215 0.86986196
0.010753617 -0.21046364 0.87202269
0.01386051 -0.21098776 0.87419426
0.016982928 -0.21151465 0.87637734
0.020120982 -0.21204419 0.87857145
-0.093883365 -0.21481787 0.90324986
-0.090214431 -0.21366577 0.89840555
-0.08658465 -0.21252595 0.89361298
-0.082993492 -0.21139853 0.88887244
-0.07944005 -0.21028247 0.88417977
-0.07592392 -0.20917813 0.87953633
-0.072444528 -0.20808534 0.87494141
-0.069001295 -0.20700389 0.87039423
-0.065593667 -0.20593362 0.86589402
-0.062221054 -0.2048742 0.86143947
-0.05888328 -0.20382674 0.85703516
-0.055579454 -0.2027899 0.85267556
-0.052309081 -0.2017636 0.84836024
-0.049071636 -0.20074759 0.84408826
-0.045866635 -0.1997418 0.83985913
-0.042708538 -0.19881561 0.8359648
-0.039858039 -0.19929019 0.83796024
-0.036993895 -0.19976702 0.83996522
-0.034116011 -0.20024616 0.8419798
-0.031224292 -0.20072758 0.84400409
-0.028318632 -0.20121133 0.8460381
-0.025398934 -0.20169742 0.84808201
-0.022465095 -0.20218585 0.85013568
-0.019517012 -0.20267667 0.85219944
-0.016554583 -0.20316988 0.85427326
-0.013577699 -0.20366548 0.85635716
-0.010586256 -0.20416351 0.85845119
-0.0075801476 -0.20466399 0.86055559
-0.0045592645 -0.20516691 0.86267024
-0.0015234987 -0.20567232 0.86479533
0.001527261 -0.20618023 0.86693096
0.0045931255 -0.20669065 0.86907715
0.0076742074 -0.2072036 0.87123394
0.010770621 -0.20771912 0.87340158
0.013882479 -0.20823719 0.87557989
0.017009905 -0.20875791 0.87776941
0.020153021 -0.20928138 0.87997043
-0.090261742 -0.21061075 0.89887673
-0.086629808 -0.20948663 0.89407909
-0.083036512 -0.20837465 0.88933319
-0.079480991 -0.20727396 0.88463551
-0.075962856 -0.20618489 0.87998742
-0.072481483 -0.20510718 0.87538779
-0.069036312 -0.20404065 0.8708359
-0.065626793 -0.20298518 0.86633122
-0.062252339 -0.20194052 0.86187261
-0.058912735 -0.20090753 0.8574639
-0.055607118 -0.19988504 0.85309994
-0.052334983 -0.19887294 0.84878033
-0.049095813 -0.197871 0.84450412
-0.045889121 -0.19687913 0.84027088
-0.042909365 -0.19679122 0.83989567
-0.040031753 -0.19719346 0.8416124
-0.037142362 -0.19759735 0.84333622
-0.034241106 -0.19800292 0.84506714
-0.031327918 -0.19841014 0.84680516
-0.02840272 -0.19881904 0.84855032
-0.025465444 -0.19922964 0.85030276
-0.022516008 -0.19964194 0.8520624
-0.019554339 -0.20005594 0.85382932
-0.016580364 -0.20047168 0.85560369
-0.013598782 -0.20095977 0.85768688
-0.010602734 -0.20145194 0.8597874
-0.0075919749 -0.20194654 0.8618983
-0.0045663966 -0.20244358 0.86401969
-0.0015258876 -0.20294306 0.86615139
0.0015296617 -0.203445 0.8682937
0.0046003638 -0.20394945 0.87044668
0.0076863305 -0.20445639 0.87261027
0.010787678 -0.20496587 0.87478471
0.01390452 -0.20547791 0.87697005
0.017036973 -0.20599249 0.87916625
0.020185167 -0.20650977 0.881374
-0.090309098 -0.20755248 0.89934826
-0.086675026 -0.20644414 0.89454573
-0.083079569 -0.20534763 0.88979435
-0.079521991 -0.20426238 0.88509184
-0.076001838 -0.20318858 0.88043898
-0.072518483 -0.20212598 0.87583464
-0.069071367 -0.20107442 0.87127811
-0.065659948 -0.20003378 0.8667689
-0.062283661 -0.19900389 0.86230624
-0.058942217 -0.1979854 0.85789299
-0.055634812 -0.1969773 0.8535248
-0.052360903 -0.19597939 0.84920073
-0.049120013 -0.19499157 0.8449204
-0.046066407 -0.19466771 0.84351712
-0.04318285 -0.19506736 0.84524882
-0.040287428 -0.19546863 0.84698761
-0.037380066 -0.19587155 0.84873343
-0.034460697 -0.19627614 0.85048664
-0.031529244 -0.19668242 0.85224706
-0.028585624 -0.19709036 0.85401469
-0.025629772 -0.19750002 0.85578978
-0.02266161 -0.1979114 0.85757232
-0.019681055 -0.19832447 0.85936224
-0.016688028 -0.19873926 0.86115956
-0.013682459 -0.19915581 0.86296451
-0.010664265 -0.1995741 0.86477703
-0.0076333643 -0.19999415 0.86659712
-0.0045896787 -0.20041597 0.86842495
-0.0015331266 -0.20083958 0.87026048
0.0015363739 -0.20126498 0.87210381
0.004618905 -0.20169218 0.87395489
0.00771455 -0.20212121 0.87581396
0.010823393 -0.20255207 0.8776809
0.013945517 -0.20298475 0.87955576
0.017081011 -0.2034193 0.88143873
0.020229958 -0.20385572 0.88332981
-0.090356506 -0.20449103 0.89982039
-0.086720265 -0.20339845 0.89501268
-0.083122678 -0.20231746 0.89025605
-0.079563037 -0.20124768 0.88554865
-0.076040849 -0.20018919 0.88089097
-0.07255552 -0.19914174 0.87628192
