# .PCD v0.7 - Point Cloud Data file format
VERSION 0.7
FIELDS x y z
SIZE 4 4 4
TYPE F F F
COUNT 1 1 1
WIDTH 1151
HEIGHT 1
VIEWPOINT 0 0 0 1 0 0 0
POINTS 1151
DATA ascii
0.30322456 0.061242398 0.84789014
0.30467016 0.06093403 0.84362084
0.30610129 0.060628757 0.83939439
0.30751812 0.060326524 0.83521003
0.30892092 0.060027286 0.83106714
0.30134428 0.064466685 0.85101682
0.30280468 0.064140894 0.84671605
0.30425042 0.06381838 0.84245861
0.30568165 0.063499086 0.83824366
0.30709869 0.06318298 0.8340708
0.30850163 0.062870003 0.82993919
0.30989075 0.062560104 0.82584828
0.31126627 0.062253255 0.82179761
0.31262836 0.061949402 0.81778646
0.31397724 0.061648499 0.81381428
0.31581429 0.061448026 0.8111679
0.3182064 0.061358184 0.80998188
0.30092546 0.067371376 0.84983408
0.30238599 0.067031376 0.84554529
0.30383179 0.066694781 0.84129947
0.30526322 0.066361569 0.83709621
0.30668035 0.06603165 0.83293462
0.3080835 0.065705016 0.82881433
0.30947283 0.065381579 0.82473451
0.31084856 0.065061323 0.82069474
0.31221083 0.064744182 0.81669426
0.31355989 0.064430118 0.81273258
0.3156535 0.064273342 0.81075495
0.31804466 0.064179413 0.80957019
0.32042882 0.064085759 0.80838883
0.32280603 0.063992389 0.80721098
0.3251763 0.063899271 0.80603641
0.32753974 0.063806444 0.80486542
0.30050781 0.070267998 0.84865463
0.30196843 0.069913872 0.8443777
0.30341437 0.069563292 0.84014362
0.3048459 0.069216222 0.83595186
0.30626318 0.068872586 0.83180165
0.30766645 0.06853234 0.82769239
0.30905598 0.068195455 0.82362366
0.3104319 0.067861855 0.81959468
0.31179443 0.067531511 0.81560498
0.31314373 0.067204364 0.81165385
0.3154929 0.067095779 0.81034243
0.3178831 0.066997789 0.80915898
0.32026628 0.066900067 0.80797875
0.32264251 0.066802636 0.80680203
0.32501185 0.066705488 0.80562878
0.32737428 0.066608623 0.80445886
0.32972988 0.066512041 0.80329239
0.3320787 0.066415735 0.80212933
0.33442068 0.066319712 0.8009696
0.33675587 0.066223957 0.79981315
0.30009133 0.073156595 0.84747845
0.301552 0.07278841 0.84321326
0.30299807 0.072423927 0.83899093
0.30442971 0.072063066 0.83481055
0.30584717 0.071705796 0.83067173
0.30725059 0.071352035 0.82657361
0.30864024 0.071001746 0.82251573
0.31001639 0.070654899 0.81849766
0.31137908 0.070311405 0.81451851
0.31293625 0.070017703 0.8111161
0.31533247 0.069915347 0.80993038
0.31772166 0.069813281 0.80874801
0.32010391 0.069711514 0.80756915
0.32247916 0.069610037 0.80639356
0.32484755 0.069508865 0.8052215
0.32720906 0.069407977 0.80405283
0.32956371 0.069307387 0.80288756
0.33191153 0.069207087 0.80172557
0.33425257 0.069107071 0.80056697
0.33658686 0.069007352 0.79941177
0.33891445 0.068907917 0.79825991
0.34734854 0.070041478 0.81139153
0.29820043 0.076423228 0.85060209
0.29967603 0.076037206 0.84630561
0.30113676 0.075655051 0.84205216
0.30258292 0.075276725 0.83784139
0.30401468 0.074902162 0.83367246
0.30543223 0.074531309 0.82954478
0.30683583 0.074164115 0.82545781
0.30822566 0.073800512 0.82141089
0.30960196 0.07344047 0.81740355
0.31096488 0.073083907 0.81343502
0.31277695 0.07283847 0.81070322
0.3151722 0.072732046 0.80951869
0.3175604 0.07262592 0.80833751
0.31994167 0.072520114 0.80715984
0.32231599 0.072414607 0.80598557
0.3246834 0.072309405 0.80481464
0.32704395 0.072204508 0.8036471
0.32939765 0.072099917 0.80248302
0.33174455 0.071995623 0.80132222
0.33408469 0.071891643 0.80016488
0.33641803 0.071787946 0.79901075
0.33874467 0.071684562 0.79786003
0.35041395 0.073543668 0.8185522
0.36704245 0.076404758 0.85039651
0.29778618 0.079309881 0.84942043
0.29926184 0.078909837 0.84513587
0.30072269 0.078513801 0.84089428
0.30216888 0.078121707 0.8366949
0.30360076 0.077733524 0.83253741
0.30501842 0.077349171 0.82842094
0.30642217 0.076968603 0.82434499
0.30781221 0.076591767 0.82030904
0.30918866 0.076218598 0.81631231
0.31055179 0.075849056 0.81235445
0.31261784 0.075656369 0.81029075
0.31501204 0.075545877 0.80910736
0.31739932 0.075435713 0.80792749
0.3197796 0.075325862 0.80675101
0.32215297 0.075216331 0.80557787
0.32451943 0.07510712 0.80440819
0.32687902 0.074998215 0.80324185
0.32923177 0.07488963 0.80207884
0.33157772 0.074781358 0.80091929
0.3339169 0.074673399 0.79976302
0.33624935 0.074565761 0.79861015
0.33857507 0.074458413 0.7974605
0.35353395 0.077108227 0.82584035
0.37043881 0.08013574 0.85826552
0.29737309 0.082188547 0.84824216
0.29884878 0.081774548 0.8439694
0.30030969 0.081364691 0.83973944
0.30175599 0.080958925 0.83555168
0.30318794 0.080557182 0.8314054
0.30460578 0.080159418 0.82730019
0.30600965 0.079765551 0.82323521
0.30739984 0.07937555 0.81921011
0.30877647 0.078989327 0.81522405
0.31013975 0.078606851 0.81127661
0.31245887 0.078471407 0.80987877
0.31485209 0.078356855 0.80869651
0.31723839 0.078242652 0.80751783
0.31961772 0.07812877 0.80634254
0.32199013 0.078015231 0.80517071
0.3243556 0.077902004 0.80400211
0.32671425 0.077789105 0.80283695
0.32906607 0.077676542 0.8016752
0.33141109 0.077564299 0.80051678
0.33374932 0.077452376 0.79936165
0.33608085 0.077340782 0.79820991
0.34079075 0.077773824 0.80267924
0.35670996 0.080736823 0.8332594
0.3738986 0.083936423 0.86628145
0.29696116 0.085059233 0.84706718
0.29843691 0.084631361 0.84280622
0.29989782 0.084207758 0.83858776
0.30134425 0.083788402 0.83441156
0.30277631 0.083373189 0.83027661
0.30419421 0.082962058 0.82618237
0.30559823 0.082554974 0.82212842
0.30698854 0.08215186 0.81811398
0.30836537 0.08175268 0.81413871
0.30990079 0.08140251 0.81065154
0.31230006 0.081283569 0.80946708
0.31469232 0.081164986 0.80828613
0.31707761 0.081046745 0.80710858
0.31945598 0.080928847 0.80593455
0.32182744 0.080811292 0.80476385
0.32419196 0.080694072 0.8035965
0.32654968 0.080577195 0.80243254
0.32890052 0.080460638 0.80127186
0.33124462 0.080344439 0.80011463
0.33358192 0.080228567 0.79896075
0.33591253 0.080113031 0.79781014
0.3437649 0.081305392 0.80968434
0.35994357 0.084431209 0.84081298
0.37742358 0.087808758 0.87444848
0.29505962 0.08836811 0.85018772
0.29655036 0.087921962 0.84589535
0.29802611 0.087480307 0.84164613
0.29948711 0.087043054 0.83743936
0.30093357 0.086610153 0.83327442
0.30236575 0.086181544 0.8291508
0.30378377 0.085757144 0.82506764
0.30518791 0.085336901 0.82102454
0.3065784 0.084920771 0.81702095
0.30795532 0.084508672 0.81305611
0.30974314 0.084215872 0.81023914
0.31214139 0.084092885 0.80905586
0.31453267 0.083970264 0.80787611
0.316917 0.083848 0.80669981
0.31929439 0.083726086 0.80552691
0.3216649 0.08360453 0.80435741
0.32402849 0.083483323 0.80319124
0.32638523 0.08336246 0.80202848
0.32873517 0.083241954 0.80086905
0.33107829 0.083121784 0.7997129
0.33341467 0.083001964 0.79856014
0.33574435 0.082882494 0.79741073
0.34679139 0.084899135 0.81681275
0.36323634 0.088193186 0.84850472
0.38101575 0.091754809 0.88277107
0.29464996 0.091236785 0.84900725
0.2961407 0.090776801 0.84472686
0.29761648 0.090321422 0.84048933
0.29907754 0.089870594 0.83629411
0.30052406 0.089424238 0.83214051
0.3019563 0.088982292 0.82802796
0.30337447 0.088544697 0.82395595
0.30477872 0.088111386 0.8199237
0.3061693 0.087682292 0.81593078
0.30754641 0.087257355 0.81197649
0.3095856 0.087026373 0.80982709
0.3119829 0.086899348 0.80864507
0.3143732 0.086772695 0.80746651
0.31675658 0.086646415 0.8062914
0.31913298 0.0865205 0.80511969
0.32150251 0.086394951 0.80395138
0.32386518 0.086269759 0.80278641
0.32622096 0.086144924 0.80162477
0.32856995 0.086020462 0.80046654
0.33091217 0.08589635 0.79931164
0.33324763 0.085772596 0.79816002
0.33557633 0.085649192 0.79701167
0.34987167 0.088556729 0.82406789
0.36658993 0.092024632 0.85633862
0.29424143 0.094097517 0.84783018
0.29573217 0.093623757 0.84356153
0.29720798 0.093154736 0.83933562
0.29866907 0.092690401 0.83515191
0.30011567 0.09223067 0.83100969
0.30154797 0.091775469 0.82690823
0.30296621 0.091324739 0.82284713
0.30437061 0.090878427 0.81882578
0.30576131 0.090436444 0.81484348
0.30713856 0.089998744 0.81089973
0.30942827 0.08983402 0.80941552
0.31182459 0.089702964 0.80823469
0.31421393 0.089572296 0.80705738
0.3165963 0.089442 0.80588341
0.31897175 0.089312091 0.80471289
0.32134029 0.089182548 0.80354571
0.32370201 0.089053392 0.80238199
0.3260569 0.088924602 0.80122161
0.32840493 0.088796183 0.8000645
0.33074617 0.088668123 0.79891068
0.33308068 0.088540435 0.79776019
0.33726346 0.088902086 0.80101871
0.35300711 0.092279874 0.83145297
0.37000602 0.095927484 0.86431843
0.29383406 0.096950322 0.84665632
0.29532474 0.096462861 0.84239936
0.29680058 0.095980287 0.83818513
0.29826173 0.095502526 0.83401287
0.29970837 0.095029481 0.82988185
0.30114073 0.0945611 0.82579154
0.30255905 0.094097316 0.82174134
0.30396357 0.09363807 0.81773078
0.30535442 0.093183272 0.81375909
0.30686876 0.092774279 0.8101874
0.3092711 0.092638806 0.80900437
0.31166643 0.092503734 0.80782479
0.31405479 0.09236905 0.80664861
0.3164362 0.092234761 0.80547589
0.31881067 0.092100859 0.80430651
0.32117826 0.091967344 0.80314052
0.32353899 0.091834217 0.80197793
0.32589293 0.091701478 0.80081874
0.32824004 0.091569103 0.79966277
0.33058038 0.091437124 0.79851019
0.33291394 0.091305509 0.79736084
0.34020066 0.092523195 0.80799472
0.35619932 0.096070357 0.83897167
0.37348634 0.099903755 0.87244833
0.29192191 0.10030138 0.84977382
0.29342777 0.09979523 0.84548563
0.29491848 0.099294163 0.84124053
0.29639432 0.098798104 0.8370378
0.2978555 0.098306984 0.83287692
0.29930216 0.097820707 0.82875711
0.30073461 0.09733922 0.82467782
0.30215305 0.096862458 0.8206386
0.3035576 0.096390329 0.81663865
0.3049486 0.095922798 0.81267762
0.30671275 0.09558025 0.80977547
0.30911407 0.095440753 0.80859363
0.31150842 0.095301665 0.80741525
0.31389579 0.09516298 0.80624026
0.31627622 0.095024697 0.80506873
0.31864971 0.09488681 0.80390048
0.32101637 0.094749331 0.80273575
0.32337615 0.094612241 0.80157429
0.32572916 0.09447556 0.80041629
0.32807532 0.094339252 0.79926151
0.33041471 0.094203345 0.79811007
0.33274737 0.094067827 0.7969619
0.34318948 0.096207924 0.81509328
0.35944974 0.099930011 0.84662753
0.37703282 0.10395554 0.88073272
0.29151678 0.10315209 0.84859449
0.2930226 0.10263228 0.84431821
0.29451331 0.10211768 0.84008479
0.29598916 0.10160822 0.83589357
0.2974503 0.1011038 0.83174396
0.29889709 0.10060438 0.82763541
0.30032957 0.10010986 0.82356715
0.30174807 0.099620178 0.81953871
0.30315277 0.099135265 0.81554955
0.30454385 0.098655045 0.81159896
0.30655688 0.098383367 0.80936396
0.30895722 0.098239854 0.80818331
0.31135058 0.098096758 0.80700612
0.31373698 0.09795408 0.80583233
0.31611645 0.097811818 0.80466199
0.31848899 0.097669952 0.80349493
0.32085466 0.09752851 0.80233133
0.32321352 0.097387478 0.80117112
0.32556555 0.097246855 0.80001426
0.32791078 0.097106628 0.79886067
0.33024925 0.096966803 0.79771036
0.33258095 0.096827373 0.79656333
0.34623128 0.09995798 0.82231772
0.3627601 0.10386077 0.85442454
0.29111281 0.10599492 0.84741855
0.29261857 0.10546152 0.84315407
0.29410926 0.10493346 0.83893222
0.2955851 0.10441066 0.8347525
0.2970463 0.10389303 0.83061421
0.29849306 0.10338052 0.82651669
0.29992563 0.10287304 0.82245946
0.30134419 0.10237052 0.81844181
0.30274901 0.10187289 0.81446332
0.30414018 0.10138006 0.81052321
0.30640116 0.10118365 0.80895287
0.30880052 0.10103612 0.80777341
0.3111929 0.10088902 0.80659741
0.31357831 0.10074235 0.80542481
0.31595677 0.1005961 0.80425555
0.31832838 0.10045029 0.8030898
0.32069311 0.10030489 0.80192733
0.32305101 0.10015992 0.80076832
0.32540208 0.10001536 0.79961258
0.32774636 0.099871211 0.79846013
0.33008391 0.099727482 0.79731101
0.33375069 0.099984385 0.79936492
0.34932747 0.10377511 0.82967138
0.3661319 0.10786458 0.86236632
0.29070994 0.10882988 0.84624583
0.29221565 0.10828295 0.84199303
0.2937063 0.1077415 0.8377828
0.29518214 0.10720545 0.83361453
0.29664335 0.10667469 0.82948744
0.29809016 0.10614917 0.82540107
0.29952276 0.1056288 0.82135469
0.30094141 0.10511351 0.81734788
0.30234629 0.10460322 0.81337988
0.30384025 0.10413305 0.80972391
0.30624563 0.10398107 0.80854219
0.308644 0.10382954 0.80736393
0.31103536 0.10367846 0.80618912
0.31341982 0.10352781 0.80501771
0.3157973 0.1033776 0.80384964
0.31816795 0.10322782 0.80268502
0.3205317 0.10307848 0.80152375
0.32288864 0.10292957 0.80036587
0.32523879 0.10278109 0.79921132
0.32758212 0.10263302 0.79805994
0.32991877 0.1024854 0.79691207
0.33665124 0.10369427 0.80631202
0.35247955 0.10766112 0.83715773
0.36956704 0.11194354 0.87045723
0.28878722 0.11222301 0.84936023
0.29030818 0.11165699 0.84507626
0.29181385 0.11109664 0.84083527
0.29330447 0.11054189 0.8366366
0.29478025 0.10999263 0.8324796
0.29624149 0.10944883 0.82836378
0.29768834 0.10891036 0.82428843
0.29912099 0.10837717 0.82025295
0.3005397 0.10784917 0.81625682
0.30194464 0.1073263 0.81229943
0.30368584 0.10693163 0.8093124
0.30609024 0.10677566 0.80813193
0.30848759 0.10662014 0.80695486
0.31087801 0.10646507 0.80578125
0.31326145 0.10631045 0.80461097
0.31563801 0.10615628 0.80344415
0.31800765 0.10600255 0.80228066
0.32037047 0.10584927 0.80112058
0.32272646 0.10569644 0.79996383
0.32507569 0.10554405 0.79881048
0.32741803 0.10539207 0.79766023
0.32975376 0.10524056 0.7965135
0.33960265 0.10746919 0.81338096
0.35568902 0.11161789 0.84478039
0.37306821 0.11610007 0.87870371
0.28838667 0.11505582 0.84818214
0.28990752 0.1144763 0.84390998
0.29141313 0.1139026 0.83968067
0.29290369 0.1133346 0.83549345
0.2943795 0.11277225 0.83134782
0.29584071 0.11221544 0.82724315
0.29728758 0.11166412 0.82317877
0.2987203 0.11111818 0.8191542
0.30013904 0.11057755 0.81516868
0.3015441 0.11004215 0.81122184
0.30353159 0.10972738 0.80890137
0.305935 0.10956742 0.80772209
0.30833137 0.10940791 0.80654621
0.3107208 0.10924887 0.80537379
0.31310326 0.10909028 0.80420464
0.31547886 0.10893216 0.80303901
0.31784755 0.10877449 0.80187672
0.32020941 0.10861729 0.80071783
0.32256445 0.10846054 0.79956228
0.32491264 0.10830422 0.79840988
0.32725415 0.10814837 0.79726094
0.32958895 0.10799298 0.79611546
0.33191708 0.10783804 0.79497325
0.33423853 0.10768355 0.79383433
0.33655331 0.10752948 0.79269856
0.33886147 0.10737585 0.79156607
0.28798723 0.11788078 0.84700733
0.28950799 0.11728785 0.84274697
0.29101351 0.11670084 0.83852917
0.29250404 0.1161197 0.83435345
0.29397982 0.11554431 0.83021915
0.29544103 0.11497459 0.8261255
0.29688787 0.11441045 0.82207203
0.29832065 0.11385185 0.81805825
0.29973948 0.11329865 0.81408346
0.30114454 0.11275081 0.81014699
0.30337751 0.1125203 0.80849075
0.30577993 0.11235634 0.80731267
0.30817533 0.11219286 0.80613798
0.31056371 0.11202984 0.80496663
0.31294525 0.11186731 0.80379879
0.31531987 0.11170525 0.80263436
0.3176876 0.11154365 0.8014732
0.32004851 0.11138252 0.8003155
0.3224026 0.11122186 0.79916108
0.32474989 0.11106165 0.79800993
0.3270905 0.11090193 0.7968623
0.32942438 0.11074266 0.7957179
0.33175153 0.11058385 0.79457676
0.33407208 0.11042549 0.79343897
0.33638594 0.11026759 0.7923044
0.3386932 0.11011014 0.79117304
0.34099388 0.10995314 0.7900449
0.34328803 0.10979658 0.78891999
0.3455756 0.10964046 0.78779823
0.34785673 0.10948479 0.78667974
0.28758883 0.12069791 0.84583563
0.28910953 0.12009165 0.84158707
0.29061499 0.11949144 0.83738089
0.2921055 0.11889721 0.83321661
0.29358122 0.11830884 0.8290934
0.29504246 0.1177263 0.82501096
0.2964893 0.11714943 0.82096839
0.29792207 0.11657821 0.81696528
0.29934096 0.11601253 0.8130011
0.30081519 0.11547881 0.8092609
0.30322361 0.11531039 0.80808055
0.30562499 0.11514244 0.80690366
0.30801943 0.11497499 0.80573016
0.31040683 0.11480802 0.80456001
0.31278741 0.11464154 0.80339336
0.31516105 0.11447553 0.80223006
0.3175278 0.11431001 0.80107009
0.31988776 0.11414497 0.79991353
0.32224092 0.11398041 0.79876029
0.32458732 0.11381633 0.7976104
0.32692701 0.11365274 0.79646397
0.32925993 0.11348959 0.79532069
0.33158618 0.11332692 0.79418069
0.33390579 0.11316472 0.79304403
0.33621874 0.11300299 0.79191059
0.33852512 0.1128417 0.79078037
0.3408249 0.11268088 0.78965336
0.3431181 0.11252052 0.78852952
0.34540486 0.11236061 0.78740895
0.34768507 0.11220115 0.78629148
0.34995884 0.11204216 0.78517723
0.35222617 0.1118836 0.78406614
0.35448709 0.1117255 0.78295815
0.35674164 0.11156785 0.78185332
0.28565559 0.12413306 0.84894711
0.2871916 0.12350727 0.84466732
0.28871217 0.12288775 0.84043038
0.29021758 0.12227441 0.83623576
0.29170799 0.12166715 0.83208275
0.29318368 0.12106591 0.8279708
0.29464489 0.12047058 0.82389933
0.29609177 0.11988106 0.81986761
0.2975246 0.1192973 0.81587529
0.29894349 0.11871919 0.8119216
0.30066243 0.11827005 0.80884993
0.30306983 0.11809763 0.80767077
0.30547026 0.11792573 0.80649507
0.30786365 0.1177543 0.80532271
0.31025013 0.11758338 0.8041538
0.3126297 0.11741296 0.80298829
0.31500238 0.11724304 0.80182618
0.31736821 0.1170736 0.80066741
0.31972721 0.11690466 0.79951203
0.32207945 0.11673622 0.79836005
0.32442492 0.11656826 0.79721135
0.32676363 0.11640079 0.79606599
0.32909566 0.11623379 0.7949239
0.33142099 0.11606726 0.79378504
0.33373964 0.11590122 0.79264945
0.3360517 0.11573565 0.79151714
0.33835715 0.11557055 0.79038805
0.34065604 0.11540593 0.78926218
0.34294838 0.11524177 0.78813946
0.34523422 0.11507808 0.78701997
0.34751356 0.11491484 0.78590363
0.34978646 0.11475208 0.78479052
0.35205293 0.11458977 0.7836805
0.35431296 0.11442792 0.78257358
0.35656664 0.11426653 0.78146982
0.35881403 0.11410561 0.78036928
0.36105505 0.11394513 0.77927172
0.36328974 0.1137851 0.77817726
0.36551818 0.1136255 0.77708584
0.2852596 0.12694798 0.84777021
0.28679544 0.12630887 0.84350216
0.28831589 0.12567616 0.83927685
0.28982124 0.12504977 0.83509374
0.29131159 0.12442958 0.83095205
0.29278725 0.12381551 0.82685125
0.29424843 0.12320746 0.82279068
0.29569533 0.12260538 0.81876993
0.29712817 0.12200915 0.81478822
0.29854709 0.12141868 0.81084496
0.30050978 0.12105844 0.80843931
0.30291623 0.12088206 0.80726141
0.30531561 0.12070618 0.80608684
0.30770805 0.1205308 0.80491567
0.31009355 0.12035594 0.80374795
0.31247213 0.1201816 0.80258363
0.31484386 0.12000775 0.80142272
0.31720877 0.11983442 0.80026519
0.31956685 0.11966159 0.79911101
0.32191816 0.11948927 0.79796022
0.32426265 0.11931743 0.79681265
0.32660043 0.11914608 0.79566836
0.32893154 0.11897524 0.79452747
0.33125594 0.11880487 0.79338974
0.3335737 0.11863499 0.79225528
0.33588487 0.11846562 0.79112417
0.33818939 0.11829671 0.78999615
0.34048739 0.11812828 0.78887141
0.34277883 0.11796033 0.78774983
0.34506378 0.11779285 0.78663141
0.34734225 0.11762586 0.7855162
0.34961426 0.11745934 0.78440416
0.35187984 0.11729328 0.78329521
0.35413906 0.11712771 0.78218949
0.35639188 0.11696259 0.7810868
0.35863835 0.11679793 0.77998722
0.36087853 0.11663375 0.77889079
0.36311239 0.11647001 0.77779734
0.36533999 0.11630674 0.77670699
0.36756137 0.11614393 0.77561975
0.36977655 0.11598158 0.77453554
0.37198552 0.11581967 0.77345431
0.37418833 0.11565821 0.77237606
0.28486466 0.12975511 0.84659648
0.28640035 0.12910275 0.84234017
0.28792071 0.12845694 0.83812648
0.28942597 0.12781756 0.83395481
0.29091629 0.12718451 0.82982445
0.2923919 0.12655768 0.82573467
0.29385304 0.12593701 0.82168508
0.29529995 0.12532242 0.81767511
0.29673278 0.12471377 0.81370395
0.29815176 0.12411102 0.80977124
0.30035734 0.12384402 0.80802917
0.30276275 0.12366366 0.8068524
0.30516115 0.12348381 0.80567902
0.30755264 0.12330451 0.8045091
0.30993715 0.12312572 0.80334258
0.31231478 0.12294745 0.80217946
0.31468558 0.12276971 0.80101979
0.3170495 0.12259248 0.7998634
0.31940663 0.12241576 0.79871041
0.32175699 0.12223956 0.79756075
0.32410055 0.12206385 0.79641432
0.32643741 0.12188864 0.79527122
0.3287676 0.12171396 0.79413146
0.33109105 0.12153976 0.79299486
0.33340791 0.12136605 0.79186153
0.33571813 0.12119285 0.79073143
0.33802181 0.12102015 0.78960466
0.34031889 0.12084793 0.788481
0.34260944 0.1206762 0.78736049
0.34489349 0.12050495 0.7862432
0.3471711 0.1203342 0.78512913
0.34944224 0.12016394 0.78401822
0.35170698 0.11999415 0.78291041
0.35396531 0.11982483 0.78180569
0.35621727 0.11965599 0.78070408
0.35846287 0.11948762 0.77960557
0.36070219 0.11931973 0.77851015
0.36293522 0.11915231 0.77741784
0.36516199 0.11898537 0.77632856
0.36738256 0.11881889 0.77524239
0.3695969 0.11865287 0.77415919
0.37180501 0.11848731 0.77307898
0.37400702 0.11832222 0.7720018
0.37620291 0.11815759 0.77092767
0.37839273 0.11799343 0.76985657
0.38057643 0.11782971 0.7687884
0.38299391 0.11774018 0.76820421
0.2844708 0.13255446 0.84542596
0.28600639 0.13188896 0.84118146
0.28752664 0.1312301 0.83697933
0.2890318 0.13057782 0.83281904
0.29052201 0.12993196 0.82869977
0.29199758 0.12929246 0.82462114
0.29345873 0.12865925 0.82058251
0.29490557 0.12803218 0.8165831
0.29633844 0.12741122 0.81262261
0.29779357 0.12681162 0.80879843
0.30020502 0.12662676 0.80761945
0.30260944 0.12644245 0.80644387
0.30500686 0.12625866 0.80527169
0.30739734 0.1260754 0.8041029
0.30978096 0.12589271 0.80293769
0.3121576 0.12571053 0.80177575
0.31452745 0.12552889 0.80061728
0.31689042 0.12534776 0.79946208
0.31924659 0.12516718 0.79831022
0.321596 0.1249871 0.7971617
0.32393864 0.12480753 0.79601645
0.32627457 0.12462848 0.79487449
0.32860377 0.12444994 0.79373574
0.33092636 0.12427193 0.79260039
0.3332423 0.12409441 0.7914682
0.33555162 0.1239174 0.79033923
0.33785436 0.1237409 0.78921354
0.34015054 0.12356489 0.78809094
0.34244022 0.12338939 0.78697163
0.34472343 0.1232144 0.78585553
0.34700012 0.12303988 0.78474247
0.3492704 0.12286587 0.78363264
0.35153422 0.12269233 0.78252584
0.35379168 0.12251929 0.7814222
0.3560428 0.12234675 0.78032172
0.35828754 0.12217468 0.77922428
0.36052603 0.1220031 0.77812994
0.36275822 0.12183201 0.77703869
0.36498415 0.12166139 0.77595049
0.36720386 0.12149125 0.77486533
0.3694174 0.12132157 0.77378321
0.37162471 0.12115238 0.77270406
0.37382591 0.12098365 0.77162796
0.37602097 0.1208154 0.77055484
0.37820995 0.12064762 0.76948476
0.38039285 0.1204803 0.7684176
0.38305184 0.12046507 0.76832044
0.38625881 0.12062117 0.76931608
0.38947409 0.12077768 0.77031428
0.39269778 0.12093461 0.77131516
0.28252703 0.13603154 0.84853441
0.28407803 0.13534608 0.84425873
0.28561351 0.1346675 0.8400259
0.28713363 0.1339957 0.83583528
0.28863865 0.13333054 0.83168626
0.29012883 0.13267198 0.82757825
0.29160437 0.13201988 0.82351065
0.29306543 0.13137415 0.81948274
0.2945123 0.13073473 0.81549412
0.29594514 0.13010149 0.81154412
0.29764244 0.1295955 0.80838794
0.30005285 0.12940669 0.80721009
0.30245626 0.1292184 0.80603564
0.30485272 0.12903069 0.8048647
0.3072423 0.12884355 0.80369735
0.30962488 0.12865692 0.80253321
0.3120006 0.12847084 0.80137247
0.3143695 0.1282853 0.80021518
0.31673151 0.12810029 0.79906112
0.3190867 0.12791581 0.79791039
0.32143515 0.12773187 0.796763
0.32377687 0.12754847 0.79561895
0.32611185 0.12736557 0.79447812
0.32844016 0.12718321 0.79334056
0.33076182 0.12700137 0.79220629
0.33307683 0.12682004 0.79107523
0.3353852 0.12663923 0.78994733
0.33768708 0.12645894 0.78882277
0.33998239 0.12627918 0.78770137
0.34227115 0.1260999 0.78658307
0.34455344 0.12592115 0.78546804
0.3468293 0.1257429 0.78435618
0.34909868 0.12556514 0.78324741
0.35136163 0.12538788 0.78214169
0.35361826 0.12521113 0.78103918
0.35586849 0.12503487 0.77993971
0.35811242 0.12485912 0.7788434
0.36035004 0.12468386 0.77775013
0.36258137 0.12450908 0.77665991
0.3648065 0.1243348 0.77557278
0.36702538 0.12416101 0.77448869
0.36923805 0.12398768 0.77340758
0.37144458 0.12381486 0.77232951
0.37364495 0.1236425 0.77125442
0.3758392 0.12347064 0.77018237
0.37802741 0.12329926 0.76911336
0.38020951 0.12312835 0.76804721
0.38310972 0.12319075 0.76843649
0.38631728 0.12335043 0.76943254
0.38953316 0.12351052 0.7704311
0.39275736 0.123671 0.77143216
0.39598998 0.12383192 0.77243596
0.39923105 0.12399326 0.77344233
0.40248054 0.12415501 0.77445132
0.4057385 0.12431718 0.77546293
0.28674167 0.13675372 0.83469433
0.2882466 0.13607581 0.83055663
0.28973672 0.1354046 0.82645977
0.29121214 0.13473995 0.82240301
0.2926732 0.13408181 0.81838602
0.29412007 0.13343008 0.81440806
0.29555291 0.13278463 0.81046849
0.29749143 0.13237657 0.8079778
0.29990086 0.13218379 0.8068012
0.30230331 0.1319916 0.80562806
0.3046988 0.13179995 0.80445832
0.30708739 0.13160887 0.8032921
0.30946901 0.13141835 0.80212921
0.31184375 0.13122837 0.8009696
0.31421164 0.13103893 0.79981339
0.31657273 0.13085006 0.79866058
0.31892699 0.13066171 0.79751098
0.32127449 0.13047391 0.79636472
0.32361528 0.13028668 0.79522187
0.32594934 0.13009995 0.79408216
0.32827669 0.12991375 0.79294568
0.33059743 0.12972811 0.7918126
0.33291152 0.12954298 0.79068261
0.33521903 0.12935838 0.78955591
0.33751994 0.12917431 0.78843236
0.33981436 0.12899075 0.78731209
0.34210226 0.12880774 0.78619498
0.34438366 0.12862523 0.78508097
0.34665865 0.12844324 0.78397024
0.34892717 0.12826176 0.78286254
0.35118926 0.12808079 0.78175795
0.35344499 0.12790032 0.78065646
0.35569438 0.12772037 0.77955812
0.35793743 0.12754093 0.77846283
0.36017421 0.12736198 0.77737063
0.3624047 0.12718354 0.77628148
0.364629 0.12700561 0.77519542
0.36684704 0.12682816 0.77411234
0.36905891 0.12665121 0.77303231
0.37126464 0.12647477 0.77195537
0.3734642 0.1262988 0.77088135
0.37565768 0.12612334 0.76981038
0.37784505 0.12594835 0.76874232
0.38002634 0.12577385 0.76767719
0.38316759 0.12591727 0.7685526
0.38637584 0.12608053 0.76954913
0.38959223 0.12624417 0.77054793
0.39281702 0.12640825 0.77154934
0.39605018 0.12657274 0.77255338
0.39929181 0.12673767 0.77356005
0.40254191 0.12690304 0.77456939
0.40580043 0.12706883 0.7755813
0.40906754 0.12723505 0.77659589
0.41234317 0.12740171 0.7776131
0.41562748 0.12756883 0.77863312
0.41892031 0.12773634 0.77965564
0.29228204 0.13678224 0.81729221
0.29372883 0.13611825 0.81332475
0.29516169 0.13546067 0.80939573
0.2973406 0.13515481 0.80756813
0.29974905 0.1349581 0.80639273
0.30215055 0.13476197 0.8052209
0.30454504 0.13456641 0.80405235
0.30693263 0.13437141 0.80288726
0.3093133 0.134177 0.80172557
0.31168705 0.13398312 0.80056715
0.31405398 0.13378981 0.79941207
0.31641412 0.13359708 0.79826045
0.31876743 0.13340487 0.79711199
0.32111397 0.13321322 0.79596686
0.32345381 0.13302213 0.79482508
0.32578695 0.13283159 0.79368657
0.32811341 0.13264158 0.79255128
0.33043319 0.13245213 0.79141921
0.33274639 0.13226321 0.79029042
0.335053 0.13207483 0.78916484
0.33735302 0.13188699 0.78804243
0.33964655 0.13169968 0.78692323
0.34193352 0.1315129 0.78580719
0.34421405 0.13132665 0.78469431
0.34648815 0.13114093 0.78358465
0.34875578 0.13095573 0.78247803
0.35101703 0.13077106 0.78137457
0.3532719 0.13058689 0.78027415
0.35552043 0.13040325 0.77917689
0.35776263 0.13022012 0.77808267
0.35999858 0.1300375 0.77699155
0.36222824 0.12985541 0.77590346
0.36445171 0.12967382 0.77481848
0.36666894 0.12949274 0.77373654
0.36887997 0.12931216 0.77265751
0.37108484 0.12913209 0.77158153
0.37328359 0.12895252 0.77050859
0.37547627 0.12877345 0.76943862
0.37766284 0.12859488 0.76837158
0.380025 0.1284782 0.76767451
0.3832255 0.1286446 0.76866877
0.38643432 0.12881143 0.7696656
0.38965136 0.12897867 0.77066487
0.39287665 0.12914631 0.77166647
0.39611045 0.12931441 0.77267092
0.39935258 0.12948292 0.77367783
0.4026033 0.1296519 0.77468753
0.40586242 0.12982132 0.77569973
0.40913004 0.12999116 0.77671456
0.4124063 0.13016145 0.77773213
0.41569114 0.1303322 0.77875239
0.41898459 0.1305034 0.77977532
0.29718995 0.13793026 0.80715901
0.29959741 0.13772961 0.80598485
0.30199793 0.13752958 0.80481422
0.30439144 0.1373301 0.80364686
0.30677801 0.13713118 0.80248284
0.30915773 0.13693288 0.80132234
0.31153053 0.13673513 0.80016512
0.31389651 0.13653794 0.79901123
0.31625566 0.13634132 0.79786062
0.31860805 0.13614528 0.79671341
0.32095364 0.13594979 0.79556942
0.32329252 0.13575487 0.79442877
0.32562473 0.13556051 0.79329139
0.32795027 0.13536671 0.79215723
0.33026916 0.13517345 0.79102629
0.33258143 0.13498075 0.78989863
0.33488712 0.13478859 0.78877413
0.33718625 0.13459699 0.78765285
0.33947885 0.13440591 0.78653473
0.34176499 0.1342154 0.78541982
0.34404463 0.13402541 0.78430808
0.3463178 0.13383597 0.78319943
0.34858459 0.13364705 0.78209394
0.35084498 0.13345867 0.78099155
0.35309899 0.13327083 0.77989227
0.35534665 0.13308349 0.77879602
0.35758802 0.13289669 0.77770287
0.35982311 0.13271043 0.77661282
0.36205196 0.13252468 0.77552587
0.36427456 0.13233945 0.7744419
0.36649096 0.13215473 0.77336097
0.36870116 0.13197052 0.77228302
0.37090522 0.13178684 0.77120805
0.37310317 0.13160366 0.77013612
0.37529504 0.131421 0.76906723
0.37748078 0.13123883 0.7680012
0.3800824 0.13120282 0.76779044
0.38328341 0.13137275 0.76878488
0.38649276 0.13154314 0.76978201
0.38971046 0.13171399 0.77078176
0.39293632 0.1318852 0.77178371
0.39617065 0.13205688 0.77278835
0.39941341 0.13222902 0.77379566
0.40266463 0.13240159 0.77480555
0.40592438 0.13257463 0.77581817
0.40919259 0.1327481 0.7768333
0.41246945 0.13292204 0.77785122
0.41575482 0.13309643 0.77887172
0.41904891 0.13327129 0.77989501
0.30662361 0.1398882 0.80207896
0.30900231 0.13968597 0.80091953
0.31137419 0.13948436 0.7997635
0.31373915 0.1392833 0.79861069
0.31609735 0.13908283 0.79746127
0.31844878 0.13888295 0.79631519
0.32079348 0.13868363 0.79517239
0.32313141 0.13848488 0.79403281
0.3254627 0.13828672 0.79289663
0.32778728 0.13808911 0.79176354
0.33010525 0.13789207 0.79063374
0.33241659 0.13769558 0.78950715
0.33472142 0.13749966 0.78838384
0.33701962 0.13730429 0.78726363
0.33931136 0.13710949 0.78614664
0.3415966 0.13691524 0.78503287
0.34387535 0.13672152 0.7839222
0.34614766 0.13652836 0.78281462
0.34841356 0.13633575 0.78171021
0.35067308 0.13614365 0.78060889
0.35292622 0.13595213 0.77951068
0.35517305 0.13576113 0.77841556
0.35741359 0.13557068 0.77732354
0.35964781 0.13538074 0.77623451
0.36187583 0.13519134 0.77514857
0.3640976 0.13500248 0.77406567
0.36631316 0.13481413 0.77298576
0.36852252 0.13462631 0.77190882
0.37072578 0.13443902 0.77083498
0.3729229 0.13425225 0.76976407
0.37511393 0.13406599 0.76869613
0.37729889 0.13388026 0.76763117
0.38013977 0.13392824 0.76790631
0.38334137 0.13410175 0.76890117
0.38655126 0.1342757 0.76989853
0.38976949 0.13445011 0.77089852
0.39299604 0.13462494 0.77190101
0.39623091 0.13480021 0.77290589
0.39947426 0.13497595 0.77391356
0.40272605 0.13515213 0.77492374
0.40598634 0.13532878 0.7759366
0.40925515 0.13550588 0.77695209
0.4125326 0.13568348 0.77797031
0.41581857 0.13586152 0.77899116
0.41911322 0.13604003 0.78001469
0.313582 0.14202593 0.79821068
0.31593925 0.14182162 0.7970624
0.31828976 0.14161791 0.79591751
0.32063347 0.14141476 0.79477578
0.32297048 0.1412122 0.79363734
0.32530078 0.14101021 0.79250216
0.32762447 0.14080882 0.79137027
0.32994151 0.14060798 0.7902416
0.33225197 0.14040774 0.78911614
0.33455586 0.14020805 0.78799391
0.33685321 0.14000894 0.78687483
0.33914399 0.13981038 0.78575891
0.34142837 0.13961241 0.78464627
0.34370625 0.13941498 0.78353667
0.34597766 0.13921811 0.78243017
0.34824267 0.13902178 0.78132683
0.35050136 0.13882603 0.78022665
0.35275364 0.13863081 0.77912951
0.3549996 0.13843614 0.7780354
0.35723931 0.13824202 0.77694446
0.35947269 0.13804846 0.77585655
0.36169985 0.13785541 0.77477163
0.36392078 0.13766292 0.77368975
0.36613551 0.13747096 0.7726109
0.36834407 0.13727953 0.77153504
0.37054652 0.13708864 0.77046221
0.37274283 0.13689828 0.76939237
0.37493306 0.13670844 0.76832545
0.37711722 0.13651913 0.76726151
0.38019714 0.1366545 0.76802224
0.38339931 0.13683157 0.7690174
0.38660979 0.13700908 0.77001512
0.38982859 0.13718706 0.77101541
0.39305577 0.13736552 0.77201831
0.3962912 0.13754436 0.77302349
0.39953512 0.13772371 0.77403146
0.40278748 0.13790351 0.77504194
0.40604839 0.13808379 0.77605516
0.40931776 0.13826454 0.77707094
0.41259578 0.13844575 0.77808946
0.41588235 0.13862745 0.77911061
0.3228097 0.1439368 0.79324228
0.32513908 0.143731 0.79210818
0.32746187 0.14352584 0.79097748
0.32977796 0.14332122 0.78984982
0.33208749 0.1431172 0.7887255
0.33439049 0.14291377 0.78760439
0.33668691 0.14271091 0.78648639
0.33897683 0.14250863 0.7853716
0.34126028 0.14230692 0.78425997
0.34353727 0.14210579 0.78315151
0.34580785 0.1419052 0.78204614
0.34807196 0.14170519 0.78094381
0.35032979 0.14150576 0.77984476
0.35258123 0.14130688 0.77874869
0.35482633 0.14110854 0.77765566
0.35706517 0.14091077 0.77656579
0.35929772 0.14071356 0.7754789
0.36152408 0.14051691 0.77439511
0.36374414 0.14032078 0.77331424
0.36595803 0.1401252 0.77223641
0.36816579 0.13993017 0.77116162
0.37036741 0.13973568 0.77008981
0.37256294 0.13954176 0.76902103
0.37475234 0.13934834 0.76795512
0.37706012 0.1392014 0.76714534
0.38025457 0.13938157 0.76813823
0.3834573 0.13956219 0.76913369
0.38666832 0.1397433 0.77013171
0.38988772 0.13992487 0.77113235
0.39311543 0.14010689 0.7721355
0.39635155 0.14028938 0.77314121
0.39959595 0.14047229 0.7741493
0.40284893 0.14065573 0.77516019
0.40611035 0.14083961 0.77617359
0.40938038 0.14102401 0.77718979
0.41265893 0.14120887 0.77820855
0.41594613 0.14139423 0.77923012
0.33192319 0.145824 0.78833526
0.33422527 0.14561681 0.78721523
0.33652082 0.14541022 0.78609842
0.33880982 0.1452042 0.78498465
0.34109238 0.14499877 0.78387409
0.3433685 0.14479394 0.78276676
0.34563819 0.14458968 0.78166246
0.34790146 0.14438598 0.78056127
0.35015839 0.14418288 0.77946323
0.35240898 0.14398032 0.77836823
0.35465324 0.14377834 0.77727628
0.35689121 0.14357692 0.77618742
0.35912293 0.14337608 0.77510166
0.36134842 0.1431758 0.77401888
0.36356768 0.14297606 0.77293909
0.36578077 0.14277688 0.77186233
0.36798769 0.14257826 0.77078855
0.37018847 0.14238018 0.76971775
0.37238318 0.14218266 0.76865
0.3745718 0.1419857 0.76758516
0.37711701 0.14192575 0.76726109
0.380312 0.14210945 0.76825422
0.38351527 0.14229365 0.76924998
0.38672689 0.14247833 0.77024835
0.38994682 0.14266346 0.77124923
0.39317513 0.1428491 0.77225274
0.39641184 0.14303519 0.77325881
0.39965683 0.14322174 0.77426726
0.40291038 0.14340878 0.77527845
0.40617239 0.14359631 0.7762922
0.40944299 0.14378433 0.7773087
0.41272214 0.14397283 0.77832776
0.41600993 0.14416185 0.77934963
0.33864301 0.14789715 0.78459817
0.34092468 0.14768802 0.78348869
0.34319991 0.14747949 0.78238243
0.34546873 0.14727153 0.78127921
0.34773108 0.14706413 0.78017902
0.34998715 0.14685735 0.779082
0.3522369 0.14665115 0.77798814
0.3544803 0.14644553 0.77689725
0.35671741 0.14624047 0.77580947
0.35894832 0.14603601 0.77472478
0.36117294 0.14583209 0.77364302
0.3633914 0.14562877 0.77256429
0.36560363 0.14542598 0.77148855
0.36780974 0.14522378 0.77041584
0.37000975 0.14502212 0.76934612
0.37220362 0.14482105 0.76827937
0.37439144 0.14462052 0.76721555
0.37717393 0.14465094 0.7673769
0.38036942 0.14483818 0.76837027
0.38357329 0.14502594 0.76936632
0.38678542 0.14521419 0.77036494
0.39000595 0.14540291 0.77136618
0.39323482 0.14559214 0.77236998
0.39647216 0.14578186 0.77337646
0.39971778 0.14597203 0.77438533
0.40297186 0.14616267 0.77539676
0.40623447 0.14635383 0.77641082
0.40950564 0.1465455 0.77742761
0.41278538 0.14673766 0.77844703
0.41607377 0.14693034 0.77946919
0.34756094 0.1497397 0.77979726
0.34981611 0.14952925 0.77870131
0.35206503 0.1493194 0.77760851
0.35430753 0.14911012 0.77651864
0.35654384 0.14890145 0.77543193
0.35877389 0.14869335 0.77434826
0.36099768 0.14848584 0.77326757
0.36321527 0.14827889 0.77218986
0.36542669 0.14807253 0.77111518
0.36763197 0.14786674 0.77004349
0.36983117 0.14766154 0.76897484
0.37202427 0.1474569 0.76790917
0.37421128 0.14725281 0.76684636
0.37723082 0.14737691 0.76749265
0.38042694 0.14756775 0.76848644
0.38363135 0.14775907 0.76948279
0.38684404 0.14795087 0.77048165
0.3900651 0.14814319 0.77148318
0.39329454 0.14833601 0.77248728
0.39653245 0.14852934 0.77349406
0.39977878 0.14872316 0.77450347
0.40303341 0.14891742 0.77551514
0.40629655 0.14911221 0.77652949
0.40956828 0.1493075 0.77754653
0.41284862 0.14950332 0.7785663
0.35413498 0.15177213 0.77614045
0.35637039 0.15155983 0.77505475
0.3585996 0.15134811 0.77397209
0.36082256 0.15113699 0.77289248
0.36303931 0.15092646 0.77181578
0.36524993 0.15071651 0.77074218
0.36745444 0.15050717 0.76967162
0.36965281 0.1502984 0.76860398
0.37184504 0.15009019 0.7675392
0.37409931 0.14990984 0.76661694
0.37728775 0.15010373 0.76760846
0.38048443 0.15029812 0.76860255
0.38368937 0.15049301 0.7695992
0.38690266 0.15068839 0.77059841
0.39012426 0.1508843 0.77160019
0.3933543 0.15108071 0.77260464
0.39659271 0.15127763 0.77361166
0.39983964 0.15147509 0.77462137
0.40309492 0.151673 0.77563351
0.40635866 0.15187141 0.77664816
0.40963098 0.15207036 0.77766556
0.41291189 0.15226984 0.77868563
0.36286357 0.15357147 0.77144217
0.36507335 0.15335795 0.77036959
0.367277 0.15314502 0.76929992
0.36947456 0.15293269 0.76823336
0.37166601 0.15272094 0.76716965
0.37415573 0.15263392 0.76673251
0.37734467 0.15283135 0.76772428
0.38054189 0.15302931 0.76871866
0.38374746 0.15322778 0.76971567
0.38696128 0.15342675 0.77071518
0.39018348 0.15362625 0.77171731
0.39341402 0.15382624 0.77272195
0.39665303 0.15402678 0.77372932
0.39990056 0.15422785 0.77473938
0.40315649 0.15442944 0.77575201
0.40642077 0.15463147 0.7767669
0.40969369 0.15483406 0.77778459
0.41297519 0.15503721 0.77880502
0.37148711 0.15534917 0.7668004
0.37421215 0.15535884 0.76684815
0.37740165 0.15555982 0.76784021
0.38059944 0.15576133 0.76883489
0.38380551 0.15596338 0.76983213
0.3870199 0.15616593 0.77083194
0.39024267 0.15636902 0.77183437
0.39347383 0.15657263 0.77283943
0.39671338 0.15677677 0.77384704
0.39996144 0.15698145 0.77485734
0.40321794 0.15718666 0.77587026
0.40648296 0.1573924 0.77688575
0.40975639 0.15759861 0.77790368
0.41303852 0.15780541 0.77892441
0.3838636 0.1586998 0.76994866
0.38707855 0.15890594 0.77094877
0.39030188 0.15911262 0.7719515
0.39353362 0.15931983 0.77295685
0.39677379 0.15952761 0.77396488
0.40002239 0.1597359 0.77497542
0.40327948 0.15994474 0.77598864
0.4065451 0.16015413 0.77700454
0.40981913 0.160364 0.77802277
0.39683416 0.16227926 0.77408266
0.40008336 0.16249119 0.77509356
0.40334103 0.16270366 0.77610707
0.40660721 0.16291669 0.77712321
0.40988192 0.16313027 0.77814198
0.40994471 0.16589735 0.77826118
