# .PCD v0.7 - Point Cloud Data file format
VERSION 0.7
FIELDS x y z
SIZE 4 4 4
TYPE F F F
COUNT 1 1 1
WIDTH 1015
HEIGHT 1
VIEWPOINT 0 0 0 1 0 0 0
POINTS 1015
DATA ascii
-0.051824909 -0.24575037 0.94896042
-0.048491798 -0.24580325 0.94916463
-0.045157254 -0.24585617 0.94936895
-0.042003598 -0.24698116 0.95371312
-0.039114796 -0.24999456 0.96534932
-0.03615462 -0.25308233 0.97727269
-0.055038065 -0.24183393 0.94671768
-0.05171353 -0.24188586 0.94692099
-0.048387554 -0.24193777 0.94712418
-0.045060158 -0.24198973 0.94732761
-0.041731331 -0.24204172 0.94753116
-0.038401075 -0.24209374 0.94773477
-0.035069387 -0.24214576 0.94793844
-0.032094214 -0.24492952 0.95883614
-0.029068138 -0.24793413 0.9705984
-0.025966898 -0.25101334 0.98265272
-0.058236066 -0.23793593 0.94448543
-0.054920055 -0.23798689 0.94468772
-0.051602621 -0.23803788 0.94489014
-0.048283763 -0.23808891 0.94509262
-0.044963483 -0.23813993 0.94529516
-0.041641776 -0.23819096 0.94549775
-0.038318649 -0.23824203 0.94570047
-0.034994096 -0.23829313 0.9459033
-0.031668115 -0.23834424 0.9461062
-0.02834071 -0.23839538 0.94630921
-0.02516773 -0.23993236 0.95241022
-0.022077793 -0.24285573 0.96401453
-0.01891163 -0.24585119 0.975905
-0.0581115 -0.23410632 0.94246513
-0.054802552 -0.23415637 0.94266659
-0.051492184 -0.23420639 0.94286799
-0.048180409 -0.23425646 0.94306958
-0.044867214 -0.23430657 0.94327128
-0.041552607 -0.2343567 0.9434731
-0.038236577 -0.23440684 0.94367498
-0.034919124 -0.23445697 0.9438768
-0.031600256 -0.23450717 0.94407886
-0.028279968 -0.23455738 0.94428098
-0.024958257 -0.23460761 0.94448322
-0.021635123 -0.23465787 0.94468552
-0.018333467 -0.23500171 0.94606978
-0.015181641 -0.23784572 0.95751917
-0.011952594 -0.2407594 0.96924907
-0.0086434521 -0.24374536 0.98126996
-0.061287954 -0.23024394 0.94025284
-0.057987455 -0.23029304 0.94045335
-0.054685544 -0.23034215 0.94065392
-0.051382229 -0.23039129 0.94085461
-0.048077505 -0.23044045 0.94105536
-0.044771362 -0.23048961 0.94125611
-0.041463815 -0.23053882 0.94145703
-0.038154852 -0.23058802 0.94165802
-0.03484448 -0.23063727 0.94185913
-0.03153269 -0.23068653 0.94206029
-0.028219486 -0.23073579 0.94226146
-0.024904866 -0.2307851 0.9424628
-0.021588832 -0.23083444 0.94266433
-0.018271381 -0.23088382 0.94286597
-0.015062204 -0.23262738 0.94998616
-0.011846288 -0.23523343 0.96062857
-0.0085575003 -0.23789851 0.97151202
-0.0051933439 -0.24062493 0.98264599
-0.064449541 -0.22639966 0.93805104
-0.061157443 -0.22644782 0.9382506
-0.057863947 -0.22649603 0.93845028
-0.054569039 -0.2265442 0.93864989
-0.051272735 -0.22659242 0.93884969
-0.04797503 -0.22664067 0.9390496
-0.04467592 -0.22668894 0.93924958
-0.041375402 -0.2267372 0.93944961
-0.038073484 -0.22678553 0.93964982
-0.034770153 -0.22683385 0.93985003
-0.031465419 -0.22688223 0.94005048
-0.028159274 -0.22693062 0.94025099
-0.024851719 -0.22697903 0.94045156
-0.021542752 -0.22702746 0.94065225
-0.018299699 -0.22791442 0.94432724
-0.015139094 -0.23045065 0.95483565
-0.011907441 -0.23304562 0.9655875
-0.0086021787 -0.2356997 0.97658426
-0.0052207764 -0.23841546 0.9878366
-0.064312607 -0.22262056 0.93605804
-0.061027478 -0.22266783 0.93625677
-0.057740953 -0.22271511 0.93645555
-0.054453034 -0.22276241 0.93665445
-0.051163714 -0.22280973 0.93685341
-0.047873005 -0.22285709 0.93705255
-0.044580895 -0.22290447 0.93725181
-0.041287385 -0.22295187 0.93745112
-0.03799247 -0.22299929 0.93765044
-0.034696154 -0.22304672 0.93784988
-0.031398442 -0.2230942 0.9380495
-0.028099323 -0.22314169 0.93824917
-0.024798797 -0.22318918 0.93844891
-0.021498779 -0.22325654 0.93873215
-0.018392459 -0.22572562 0.94911397
-0.015216771 -0.22825156 0.9597348
-0.011969228 -0.23083511 0.97059792
-0.0086473934 -0.23347963 0.98171741
-0.0052484926 -0.23618215 0.99308079
-0.067453071 -0.21881118 0.93387586
-0.064176276 -0.21885756 0.93407375
-0.06089808 -0.21890391 0.93427157
-0.057618506 -0.21895033 0.9344697
-0.054337539 -0.21899675 0.93466783
-0.051055178 -0.21904318 0.93486601
-0.047771428 -0.21908966 0.93506432
-0.044486284 -0.21913615 0.93526274
-0.04119974 -0.21918263 0.9354611
-0.037911806 -0.21922915 0.93565965
-0.034622476 -0.21927568 0.93585831
-0.031331751 -0.21932225 0.93605703
-0.028039625 -0.21936883 0.93625581
-0.024746098 -0.2194154 0.93645459
-0.021607319 -0.22105949 0.94347149
-0.018486034 -0.22351296 0.95394278
-0.015295247 -0.22602975 0.96468437
-0.012031741 -0.22860308 0.97566718
-0.0086930292 -0.23123457 0.98689824
-0.005276504 -0.23392501 0.99838096
-0.067445889 -0.21549784 0.93377638
-0.064090386 -0.21527797 0.93282366
-0.060769252 -0.215156 0.93229514
-0.057496589 -0.21520151 0.93249238
-0.054222539 -0.21524705 0.93268967
-0.050947104 -0.2152926 0.93288708
-0.047670282 -0.21533817 0.93308455
-0.044392068 -0.21538374 0.93328196
-0.041112471 -0.21542935 0.93347961
-0.037831485 -0.21547498 0.93367732
-0.03454911 -0.21552064 0.93387514
-0.031265341 -0.21556631 0.93407303
-0.027980177 -0.21561195 0.93427086
-0.024783939 -0.2164464 0.9378866
-0.021717045 -0.21884099 0.94826263
-0.018580984 -0.22128265 0.95884258
-0.015374688 -0.22378713 0.96969479
-0.012094943 -0.22634822 0.98079228
-0.0087391334 -0.2289653 0.99213243
-0.0053048152 -0.2316436 1.0037378
-0.070866019 -0.21259806 0.93549365
-0.067500867 -0.21238077 0.93453753
-0.064142577 -0.21216391 0.93358326
-0.060791139 -0.21194749 0.93263096
-0.057446539 -0.21173154 0.93168068
-0.054108743 -0.21151599 0.93073225
-0.050839484 -0.21155785 0.93091643
-0.047569558 -0.21160251 0.93111295
-0.044298258 -0.21164723 0.9313097
-0.041025568 -0.21169193 0.93150645
-0.037751503 -0.21173669 0.93170339
-0.034476049 -0.21178144 0.93190032
-0.031199208 -0.21182621 0.93209726
-0.02792317 -0.21188758 0.93236738
-0.024908952 -0.21421699 0.94261742
-0.021827409 -0.21659505 0.95308161
-0.01867673 -0.21902712 0.96378338
-0.015454599 -0.22151592 0.97473484
-0.01215869 -0.22406729 0.98596162
-0.0087857312 -0.22667186 0.99742252
-0.0053334334 -0.22933763 1.0091527
-0.070923887 -0.20947288 0.9362576
-0.067555927 -0.20925862 0.93529987
-0.064194858 -0.20904478 0.93434417
-0.060840633 -0.20883137 0.93339026
-0.057493258 -0.20861839 0.93243837
-0.054152705 -0.20840587 0.93148845
-0.05081895 -0.20819376 0.93054044
-0.047491968 -0.20798208 0.92959428
-0.044204835 -0.20792645 0.92934567
-0.040939033 -0.20797029 0.92954165
-0.037671857 -0.20801418 0.92973775
-0.034403294 -0.20805801 0.92993373
-0.031133357 -0.20810191 0.93012995
-0.028063187 -0.20964852 0.93704259
-0.025035234 -0.21196498 0.94739622
-0.022210605 -0.21698052 0.96981364
-0.01877369 -0.21675077 0.96878678
-0.015535974 -0.21922985 0.97986722
-0.012223116 -0.22176224 0.99118596
-0.0088328263 -0.22435379 1.0027691
-0.07098186 -0.20634261 0.93702281
-0.067611083 -0.20613135 0.93606347
-0.064247206 -0.20592055 0.93510616
-0.060890209 -0.20571016 0.93415082
-0.057540059 -0.2055002 0.93319738
-0.054196738 -0.20529068 0.93224585
-0.05086023 -0.20508158 0.93129635
-0.047530513 -0.20487289 0.93034869
-0.044207562 -0.20466463 0.92940295
-0.04089136 -0.20445681 0.92845917
-0.037592541 -0.2043073 0.92778027
-0.034330852 -0.20435031 0.92797559
-0.03118033 -0.20513375 0.93153328
-0.028204296 -0.20738453 0.94175428
-0.025757926 -0.21464938 0.97474468
-0.022285935 -0.21428783 0.97310287
-0.018871054 -0.2144438 0.97381115
-0.015617782 -0.21691364 0.98502696
-0.012288226 -0.21943261 0.9964658
-0.008880429 -0.22201073 1.0081733
-0.07442043 -0.20341584 0.93875211
-0.071039915 -0.20320719 0.9377892
-0.067666329 -0.202999 0.93682837
-0.06429965 -0.20279121 0.93586946
-0.060939856 -0.20258385 0.9349125
-0.057586931 -0.20237693 0.93395758
-0.054240841 -0.2021704 0.9330045
-0.050901577 -0.20196432 0.93205339
-0.047569111 -0.20175865 0.93110424
-0.044243429 -0.20155339 0.93015701
-0.040924501 -0.20134856 0.92921168
-0.037612319 -0.20114414 0.92826837
-0.034306854 -0.20094015 0.92732692
-0.03133614 -0.20286028 0.93618822
-0.028346952 -0.20509854 0.94651765
-0.025803631 -0.21158978 0.97647434
-0.022333691 -0.21131107 0.97518814
-0.018970519 -0.2121249 0.97894388
-0.015700456 -0.21457291 0.99024129
-0.012354032 -0.21707799 1.0018021
-0.0089285485 -0.2196423 1.0136362
-0.074481413 -0.20027225 0.93952137
-0.071098074 -0.20006667 0.93855697
-0.067721665 -0.1998615 0.93759447
-0.064352185 -0.19965678 0.93663406
-0.060989592 -0.19945244 0.9356755
-0.057633877 -0.19924855 0.93471897
-0.05428502 -0.19904506 0.9337644
-0.050942991 -0.19884199 0.93281174
-0.047607772 -0.19863933 0.93186098
-0.044279352 -0.19843709 0.93091226
-0.0409577 -0.19823526 0.92996544
-0.037642803 -0.19803388 0.9290207
-0.034431547 -0.19839129 0.93069738
-0.03149398 -0.20056693 0.94090378
-0.029299797 -0.20854563 0.97833359
-0.02582958 -0.2083586 0.97745627
-0.022362942 -0.20814738 0.97646534
-0.01907032 -0.20977351 0.9840939
-0.015784008 -0.21220723 0.995511
-0.012420548 -0.21469805 1.0071959
-0.0089771934 -0.21724807 1.0191587
-0.0745425 -0.19712351 0.94029194
-0.071156323 -0.19692099 0.93932593
-0.067777097 -0.19671889 0.93836188
-0.064404793 -0.1965172 0.9373998
-0.061039407 -0.19631593 0.93643975
-0.057680905 -0.19611508 0.93548167
-0.054329265 -0.19591463 0.93452549
-0.050984476 -0.19571459 0.93357134
-0.047646504 -0.19551496 0.93261909
-0.044315342 -0.19531578 0.93166894
-0.040990964 -0.195117 0.93072075
-0.037673347 -0.19491862 0.92977446
-0.034603775 -0.19608805 0.93535274
-0.031653311 -0.19824968 0.94566387
-0.029301457 -0.20511019 0.97838897
-0.025838215 -0.20498316 0.97778302
-0.022397889 -0.20502682 0.97799128
-0.01917078 -0.20739298 0.98927796
-0.01586814 -0.20981209 1.0008173
-0.012487786 -0.21229236 1.0126483
-0.00902637 -0.21482761 1.0247416
-0.077999681 -0.19416943 0.94203329
-0.074603684 -0.19396958 0.9410637
-0.071214676 -0.19377016 0.9400962
-0.067832619 -0.19357112 0.93913054
-0.064457498 -0.19337249 0.93816686
-0.0610893 -0.19317427 0.9372052
-0.057728007 -0.19297647 0.93624556
-0.054373588 -0.19277908 0.93528789
-0.051026031 -0.19258212 0.93433231
-0.04768531 -0.19238557 0.9333787
-0.044351399 -0.1921894 0.93242699
-0.041024279 -0.19199364 0.93147719
-0.037703931 -0.19179827 0.93052936
-0.034777734 -0.19376168 0.94005501
-0.03273309 -0.20156692 0.97792298
-0.029282719 -0.201534 0.9777633
-0.025829535 -0.20147038 0.9774546
-0.0225158 -0.2026422 0.98313981
-0.019272817 -0.2049927 0.99454349
-0.015953716 -0.20739831 1.0062146
-0.012555769 -0.20986071 1.0181612
-0.0090760617 -0.21237984 1.030383
-0.0054771192 -0.21360765 1.0363399
-0.078063831 -0.19100726 0.94280803
-0.074664973 -0.19081049 0.94183677
-0.071273111 -0.19061413 0.9408676
-0.067888223 -0.1904182 0.93990046
-0.064510286 -0.19022264 0.93893522
-0.061139282 -0.19002751 0.93797201
-0.057775199 -0.18983279 0.93701094
-0.054418001 -0.18963848 0.93605185
-0.051067669 -0.18944457 0.93509471
-0.04772418 -0.18925105 0.93413949
-0.044387516 -0.18905793 0.93318623
-0.041057654 -0.1888652 0.93223494
-0.037865274 -0.18932638 0.93451124
-0.034953453 -0.19141176 0.94480473
-0.032668933 -0.19773301 0.97600627
-0.029239057 -0.19779362 0.97630543
-0.025819682 -0.1979509 0.97708172
-0.022634786 -0.20023081 0.98833531
-0.019375786 -0.20256503 0.99985701
-0.016039902 -0.20495431 1.0116504
-0.012624387 -0.20740065 1.0237255
-0.0091075711 -0.20947413 1.0339602
-0.0054656831 -0.20951785 1.034176
-0.0018222745 -0.20956157 1.0343918
0.001822655 -0.20960532 1.0346078
-0.078128077 -0.18783984 0.94358391
-0.074726358 -0.1876462 0.94261116
-0.07133165 -0.18745294 0.94164038
-0.067943923 -0.18726009 0.94067162
-0.064563178 -0.18706767 0.93970501
-0.061189368 -0.18687563 0.93874037
-0.057822477 -0.186684 0.9377777
-0.054462481 -0.18649274 0.93681699
-0.05110937 -0.1863019 0.93585831
-0.047763113 -0.18611144 0.93490154
-0.044423684 -0.18592134 0.93394667
-0.041091077 -0.18573166 0.93299383
-0.038055461 -0.18696813 0.93920499
-0.035131104 -0.1890388 0.94960666
-0.03254791 -0.19357441 0.97239065
-0.02915778 -0.19381349 0.97359157
-0.025955157 -0.19552886 0.98220849
-0.022755057 -0.19779396 0.99358684
-0.019479945 -0.20011216 1.005232
-0.016127152 -0.20248537 1.0171534
-0.012693882 -0.20491552 1.0293609
-0.0090885982 -0.20540231 1.0318062
-0.0054542948 -0.2054451 1.0320212
-0.0018184768 -0.20548789 1.0322361
0.0018188558 -0.2055307 1.0324512
0.005457704 -0.20557351 1.0326662
0.0090980697 -0.20561637 1.0328815
0.012739952 -0.20565923 1.0330968
-0.081604056 -0.18485817 0.94533759
-0.078192428 -0.18466723 0.94436115
-0.074787848 -0.18447669 0.94338673
-0.071390301 -0.18428658 0.94241458
-0.067999743 -0.18409686 0.9414444
-0.064616159 -0.18390754 0.94047618
-0.061239529 -0.18371859 0.93950993
-0.057869829 -0.18353003 0.9385457
-0.054507043 -0.18334186 0.93758345
-0.051151142 -0.18315409 0.93662316
-0.047802106 -0.18296668 0.93566477
-0.044459917 -0.18277967 0.93470842
-0.041124556 -0.18259303 0.93375403
-0.038247563 -0.18458606 0.94394606
-0.035310436 -0.18664089 0.95445412
-0.032306943 -0.18874055 0.96519154
-0.029234648 -0.19088505 0.9761582
-0.026092209 -0.19308235 0.98739481
-0.022876613 -0.19533108 0.99889451
-0.019585233 -0.1976328 1.0106652
-0.016215358 -0.19998941 1.0227165
-0.012694947 -0.2013056 1.0294473
-0.0090697035 -0.20134741 1.0296612
-0.0054429527 -0.20138925 1.0298752
-0.0018146948 -0.20143113 1.0300893
0.001815072 -0.201473 1.0303034
0.0054463483 -0.20151488 1.0305176
0.009079136 -0.20155682 1.030732
0.012713433 -0.20159873 1.0309464
0.016349243 -0.20164067 1.0311608
0.019986564 -0.2016826 1.0313753
-0.081671394 -0.18167718 0.94611764
-0.078256905 -0.18148941 0.94513983
-0.074849464 -0.18130204 0.94416404
-0.071449056 -0.18111505 0.94319022
-0.068055645 -0.18092842 0.94221836
-0.064669229 -0.1807422 0.9412486
-0.061289776 -0.18055637 0.9402808
-0.057917267 -0.18037091 0.93931502
-0.054551665 -0.18018581 0.93835104
-0.051192977 -0.18000111 0.93738919
-0.047841165 -0.1798168 0.93642932
-0.044496205 -0.17963283 0.9354713
-0.041327257 -0.18018684 0.9383564
-0.038441822 -0.18218081 0.94874036
-0.035491247 -0.18421647 0.95934147
-0.032473873 -0.18629748 0.97017872
-0.029388029 -0.18842913 0.98127967
-0.026230721 -0.1906099 0.99263644
-0.022999473 -0.19284172 1.0042591
-0.019691661 -0.19512646 1.0161573
-0.016284844 -0.19722755 1.0270991
-0.012668615 -0.19726844 1.027312
-0.0090508871 -0.19730935 1.0275251
-0.0054316586 -0.19735025 1.0277381
-0.0018109285 -0.19739121 1.0279514
0.001811304 -0.19743213 1.0281645
0.0054350398 -0.19747311 1.0283779
0.0090602804 -0.1975141 1.0285914
0.012687026 -0.19755511 1.0288049
0.016315274 -0.1975961 1.0290184
0.019945033 -0.19763714 1.0292321
0.023576299 -0.19767819 1.0294459
0.027209071 -0.19771926 1.0296597
-0.08189702 -0.17883635 0.94873142
-0.078331284 -0.17832868 0.94603819
-0.074911177 -0.17812213 0.94494247
-0.071507908 -0.17793828 0.9439671
-0.068111651 -0.17775479 0.9429937
-0.064722389 -0.17757168 0.94202232
-0.061340097 -0.17738892 0.94105279
-0.057964768 -0.17720658 0.94008541
-0.054596372 -0.1770246 0.93912005
-0.051234879 -0.17684297 0.93815649
-0.047880284 -0.17666174 0.93719506
-0.044532556 -0.17648087 0.93623555
-0.041535687 -0.17777273 0.94308889
-0.038637742 -0.17974949 0.95357567
-0.035674438 -0.18176976 0.96429324
-0.032642979 -0.18383153 0.97523093
-0.029543057 -0.18594748 0.98645616
-0.026370708 -0.18811105 0.99793392
-0.023123659 -0.19032551 1.0096817
-0.019799257 -0.19259277 1.0217096
-0.016251145 -0.19320805 1.0249736
-0.012642393 -0.193248 1.0251856
-0.0090321498 -0.193288 1.0253978
-0.005420411 -0.19332799 1.02561
-0.0018071778 -0.19336802 1.0258223
0.0018075517 -0.19340804 1.0260346
0.0054237782 -0.19344808 1.026247
0.0090415021 -0.19348815 1.0264596
0.012660724 -0.19352822 1.0266721
0.016281448 -0.19356832 1.0268849
0.019903671 -0.19360843 1.0270977
0.023527399 -0.19364859 1.0273107
0.027225025 -0.19420518 1.0302634
-0.08231198 -0.17638281 0.95353848
-0.078727014 -0.17587951 0.95081758
-0.075162485 -0.17537913 0.94811249
-0.071618177 -0.17488161 0.94542283
-0.068167731 -0.1745759 0.94377017
-0.064775623 -0.17439592 0.94279718
-0.061390512 -0.17421632 0.94182622
-0.058012355 -0.17403707 0.94085723
-0.054641142 -0.17385818 0.93989015
-0.051276859 -0.17367968 0.93892515
-0.047919475 -0.17350154 0.93796211
-0.044593148 -0.17341779 0.93750936
-0.0417463 -0.17533445 0.94787097
-0.038835678 -0.1772933 0.95846069
-0.035859287 -0.17929643 0.96928972
-0.032814413 -0.18134281 0.98035258
-0.029699737 -0.18343955 0.99168777
-0.026512194 -0.18558536 1.0032881
-0.023249196 -0.18778197 1.0151632
-0.019817397 -0.18916607 1.0226457
-0.016217582 -0.18920512 1.0228568
-0.012616279 -0.18924418 1.023068
-0.009013488 -0.18928325 1.0232792
-0.00540921 -0.18932234 1.0234905
-0.0018034425 -0.18936147 1.023702
0.001803815 -0.18940058 1.0239135
0.0054125628 -0.1894397 1.024125
0.0090228021 -0.18947884 1.0243366
0.012634535 -0.18951802 1.0245484
0.016247761 -0.18955721 1.0247602
0.019862484 -0.18959644 1.0249723
0.023478702 -0.18963566 1.0251844
0.027402252 -0.19181576 1.0369701
-0.082731143 -0.17390424 0.95839429
-0.079126783 -0.17340551 0.95564574
-0.075543053 -0.17290966 0.95291311
-0.071979769 -0.17241664 0.95019609
-0.068436742 -0.17192645 0.94749457
-0.064913802 -0.17143902 0.9448083
-0.061440997 -0.17103845 0.94260079
-0.05806002 -0.17086235 0.94163024
-0.054685991 -0.17068659 0.94066161
-0.051318899 -0.17051117 0.93969494
-0.04795872 -0.17033616 0.93873036
-0.044817783 -0.17097154 0.94223207
-0.041958902 -0.17287068 0.95269829
-0.039035682 -0.17481196 0.96339679
-0.036045473 -0.17679445 0.97432238
-0.032987352 -0.17882618 0.98551929
-0.029858088 -0.18090488 0.99697512
-0.026655212 -0.18303245 1.0087003
-0.023367492 -0.18514244 1.0203285
-0.019776564 -0.18518056 1.0205386
-0.016184159 -0.18521871 1.0207489
-0.012590271 -0.18525685 1.020959
-0.0089949043 -0.18529503 1.0211694
-0.0053980551 -0.18533322 1.0213799
-0.0017997226 -0.18537143 1.0215905
0.0018000932 -0.18540961 1.0218009
0.0054013939 -0.18544786 1.0220116
0.0090041803 -0.18548612 1.0222225
0.012608455 -0.1855244 1.0224335
0.016214216 -0.18556269 1.0226445
0.019821465 -0.185601 1.0228556
0.023567595 -0.18672787 1.0290658
0.027581804 -0.18939506 1.0437648
-0.083154604 -0.17140031 0.96329981
-0.079530641 -0.17090628 0.96052325
-0.075927496 -0.17041504 0.95776248
-0.072345018 -0.16992667 0.95501775
-0.068783022 -0.1694411 0.95228875
-0.065241322 -0.16895829 0.9495753
-0.061719749 -0.16847824 0.94687724
-0.058218129 -0.16800089 0.9441945
-0.054736298 -0.16752625 0.94152689
-0.051361013 -0.16733749 0.94046611
-0.047998037 -0.16716558 0.93949991
-0.045044798 -0.16850092 0.94700474
-0.042173687 -0.1703817 0.95757502
-0.039237753 -0.17230491 0.96838391
-0.036234148 -0.17426901 0.97942239
-0.033162132 -0.17628291 0.99074095
-0.030018128 -0.178343 1.002319
-0.026799778 -0.18045184 1.014171
-0.023319451 -0.18117419 1.0182308
-0.019735899 -0.18121144 1.0184401
-0.016150873 -0.18124869 1.0186495
-0.012564371 -0.18128593 1.0188588
-0.0089763971 -0.18132323 1.0190684
-0.0053869453 -0.1813605 1.0192778
-0.0017960179 -0.1813978 1.0194875
0.0017963873 -0.18143511 1.0196972
0.0053902711 -0.18147247 1.0199071
0.0089856368 -0.18150985 1.0201173
0.01258248 -0.18154721 1.0203272
0.016180806 -0.18158461 1.0205374
0.019791052 -0.18171783 1.0212861
0.023720834 -0.18429263 1.0357569
0.027763724 -0.18694241 1.0506492
-0.083582431 -0.16887063 0.96825594
-0.079938628 -0.16838136 0.96545064
-0.076315872 -0.16789493 0.96266156
-0.072714001 -0.16741131 0.95988864
-0.06913282 -0.16693047 0.95713168
-0.065572158 -0.16645241 0.95439059
-0.062031839 -0.16597709 0.95166522
-0.058511671 -0.16550444 0.94895524
-0.055011503 -0.1650345 0.94626075
-0.051531151 -0.16456722 0.94358146
-0.048094027 -0.16418305 0.94137877
-0.045273993 -0.16600464 0.95182323
-0.042390674 -0.16786708 0.96250188
-0.039441928 -0.16977179 0.97342294
-0.036425114 -0.1717184 0.98458427
-0.033338774 -0.17371255 0.99601817
-0.030179899 -0.17575353 1.0077206
-0.026846353 -0.17718592 1.0159335
-0.023271609 -0.17722225 1.0161418
-0.019695401 -0.17725861 1.0163503
-0.016117724 -0.17729495 1.0165586
-0.012538579 -0.17733134 1.0167673
-0.0089579644 -0.1773677 1.0169758
-0.0053758821 -0.17740411 1.0171845
-0.0017923285 -0.17744052 1.0173934
0.0017926965 -0.17747696 1.0176022
0.0053791953 -0.17751345 1.0178114
0.0089671677 -0.17754991 1.0180205
0.012556614 -0.17758641 1.0182297
0.016147537 -0.17762291 1.0184391
0.019918656 -0.17926791 1.027871
0.023876078 -0.18182553 1.0425357
-0.084014677 -0.16631477 0.97326326
-0.080350831 -0.16583043 0.970429
-0.07670825 -0.1653489 0.96761107
-0.073086768 -0.16487014 0.96480948
-0.069486208 -0.1643942 0.96202421
-0.065906376 -0.16392098 0.95925504
-0.062347095 -0.16345049 0.95650172
-0.058808196 -0.16298272 0.95376432
-0.055289488 -0.16251758 0.95104241
-0.051790815 -0.16205513 0.94833618
-0.048337273 -0.16167985 0.94614005
-0.045505524 -0.16348282 0.95669085
-0.042609911 -0.16532646 0.96747977
-0.039647713 -0.16720992 0.97850168
-0.036617924 -0.16913992 0.98979592
-0.033517301 -0.17111464 1.0013518
-0.030343425 -0.17313601 1.0131807
-0.026791397 -0.17325105 1.0138539
-0.023223963 -0.17328648 1.0140613
-0.019655067 -0.17332195 1.0142689
-0.016084708 -0.17335741 1.0144764
-0.01251289 -0.17339291 1.0146841
-0.0089396089 -0.17342842 1.0148919
-0.0053648641 -0.17346394 1.0150998
-0.0017886547 -0.17349951 1.0153079
0.0017890212 -0.17353505 1.0155159
0.0053681643 -0.17357063 1.0157242
0.008948775 -0.17360623 1.0159324
0.012530853 -0.17364182 1.0161407
0.016174015 -0.17431994 1.0201091
0.020048019 -0.17678706 1.0345465
0.024033373 -0.17932594 1.0494038
-0.084451415 -0.16373233 0.97832268
-0.080767296 -0.16325305 0.97545886
-0.07710468 -0.16277654 0.97261167
-0.073463388 -0.16230284 0.96978122
-0.069843225 -0.16183186 0.96696705
-0.066244021 -0.16136365 0.96416938
-0.062665589 -0.16089813 0.96138793
-0.059107739 -0.16043529 0.9586224
-0.055570308 -0.15997513 0.95587283
-0.052053105 -0.15951759 0.95313895
-0.048582993 -0.15915118 0.95094967
-0.045739446 -0.16093509 0.96160871
-0.042831421 -0.16275941 0.97250926
-0.039856743 -0.16462567 0.98366052
-0.036812782 -0.16653402 0.99506307
-0.033697754 -0.16848877 1.006743
-0.03029537 -0.16929765 1.0115762
-0.026736667 -0.16933222 1.0117828
-0.02317651 -0.16936681 1.0119894
-0.019614896 -0.16940138 1.0121959
-0.016051829 -0.16943598 1.0124027
-0.012487306 -0.16947059 1.0126095
-0.0089213289 -0.16950524 1.0128165
-0.0053538922 -0.16953991 1.0130237
-0.0017849954 -0.16957457 1.0132308
0.0017853607 -0.16960926 1.0134381
0.0053571775 -0.16964395 1.0136454
0.0089304568 -0.16967867 1.0138528
0.012505197 -0.16971339 1.0140603
0.016278183 -0.17182527 1.026679
0.020179074 -0.17427382 1.0413095
0.024192771 -0.17679332 1.0563638
-0.084892727 -0.16112292 0.98343498
-0.081188105 -0.16064881 0.98054111
-0.077505231 -0.16017748 0.97766435
-0.073843904 -0.1597089 0.97480434
-0.07020393 -0.15924306 0.97196096
-0.066585131 -0.15877993 0.96913421
-0.062987342 -0.15831953 0.96632409
-0.059410349 -0.15786178 0.96353018
-0.055853982 -0.15740667 0.96075237
-0.052318066 -0.1569542 0.95799059
-0.048831228 -0.15659669 0.95580852
-0.045975775 -0.158361 0.96657723
-0.043055255 -0.16016555 0.97759151
-0.040067125 -0.16201055 0.98885268
-0.037009723 -0.16390021 1.0003865
-0.033783637 -0.16536202 1.0093088
-0.03023362 -0.16539569 1.0095143
-0.026682155 -0.16542935 1.0097198
-0.023129249 -0.16546309 1.0099257
-0.01957489 -0.1654968 1.0101315
-0.016019085 -0.16553055 1.0103375
-0.01246183 -0.16556431 1.0105436
-0.0089031234 -0.16559811 1.0107498
-0.0053429641 -0.16563189 1.010956
-0.0017813514 -0.16566569 1.0111623
0.0017817151 -0.16569951 1.0113688
0.0053462368 -0.16573334 1.0115752
0.0089122141 -0.16576718 1.0117818
0.012565308 -0.16693909 1.0189347
0.016383778 -0.16929905 1.033339
0.020311853 -0.17172748 1.0481613
-0.085338667 -0.1584861 0.98860097
-0.081613332 -0.15801729 0.98567671
-0.077909969 -0.15755127 0.98276973
-0.074228376 -0.15708797 0.97987974
-0.07056839 -0.1566274 0.97700685
-0.066929795 -0.15616952 0.97415072
-0.063312411 -0.15571432 0.97131121
-0.059716072 -0.15526178 0.96848845
-0.056140572 -0.15481187 0.96568203
-0.052585732 -0.15436457 0.96289182
-0.049082 -0.15401593 0.96071708
-0.046214566 -0.15576021 0.97159749
-0.043281287 -0.1575439 0.98272371
-0.040280133 -0.15936923 0.99410975
-0.037208788 -0.16123807 1.0057672
-0.033714931 -0.16147678 1.0072562
-0.030172117 -0.16150957 1.0074607
-0.026627868 -0.1615424 1.0076655
-0.023082182 -0.16157527 1.0078706
-0.019535048 -0.16160811 1.0080755
-0.015986476 -0.16164103 1.0082808
-0.012436457 -0.16167393 1.008486
-0.0088849915 -0.16170685 1.0086913
-0.0053320806 -0.16173978 1.0088967
-0.0017777223 -0.16177273 1.0091022
0.0017780843 -0.16180567 1.0093077
0.0053353398 -0.16183864 1.0095134
0.008908039 -0.16212632 1.0113078
0.012646142 -0.16439985 1.0254897
0.016490754 -0.16673985 1.040086
0.02044642 -0.16914766 1.0551054
-0.085789308 -0.1558214 0.99382144
-0.082043022 -0.15535806 0.9908663
-0.078318946 -0.15489748 0.98792869
-0.074616887 -0.15443961 0.98500842
-0.07093665 -0.15398444 0.98210537
-0.067278035 -0.15353192 0.97921926
-0.06364087 -0.1530821 0.97635031
-0.060024958 -0.15263489 0.97349805
-0.056430116 -0.15219031 0.97066253
-0.052856158 -0.15174833 0.96784353
-0.049335372 -0.15140855 0.96567655
-0.046455849 -0.15313224 0.97667009
-0.043509759 -0.15489475 0.98791128
-0.040495422 -0.15669967 0.99942303
-0.037180696 -0.15757532 1.0050079
-0.033646498 -0.15760729 1.0052117
-0.030110871 -0.15763927 1.0054157
-0.026573805 -0.15767124 1.0056196
-0.023035308 -0.15770327 1.0058239
-0.019495372 -0.15773527 1.0060281
-0.015953999 -0.15776731 1.0062324
-0.012411186 -0.15779936 1.0064368
-0.0088669341 -0.15783143 1.0066413
-0.0053212414 -0.1578635 1.0068458
-0.0017741076 -0.15789557 1.0070504
0.0017744683 -0.15792768 1.0072552
0.0053244876 -0.15795979 1.00746
0.0089648999 -0.15957522 1.0177631
0.012728081 -0.16182846 1.0321342
0.016599143 -0.16414708 1.0469222
0.020582788 -0.16653347 1.0621425
-0.08624474 -0.15312842 0.99909735
-0.082477272 -0.15267068 0.99611086
-0.078732245 -0.15221567 0.99314207
-0.07500948 -0.15176336 0.99019098
-0.071308777 -0.15131374 0.98725736
-0.067629926 -0.15086676 0.98434103
-0.063972756 -0.15042242 0.98144192
-0.060337059 -0.14998069 0.97855979
-0.056722671 -0.14954159 0.97569484
-0.053129382 -0.14910504 0.97284651
-0.04959137 -0.1487741 0.97068733
-0.046699662 -0.15047668 0.98179591
-0.043740854 -0.15221816 0.99315834
-0.040631026 -0.15369126 1.0027697
-0.037105404 -0.15372239 1.0029727
-0.033578351 -0.1537535 1.0031757
-0.030049868 -0.15378462 1.0033787
-0.026519964 -0.15381579 1.0035821
-0.022988625 -0.15384695 1.0037855
-0.019455856 -0.15387812 1.0039889
-0.015921652 -0.15390931 1.0041924
-0.012386018 -0.15394051 1.004396
-0.0088489503 -0.15397173 1.0045996
-0.0053104465 -0.15400295 1.0048033
-0.0017705078 -0.15403418 1.005007
0.0017708672 -0.15406543 1.005211
0.0053387233 -0.15482298 1.0101537
0.0090225078 -0.15699163 1.0243032
0.01281109 -0.15922354 1.0388654
0.016708987 -0.16152021 1.0538502
-0.086705044 -0.1504067 1.0044297
-0.082916133 -0.14995471 1.0014112
-0.079149924 -0.14950541 0.99841076
-0.075406231 -0.14905882 0.99542838
-0.071684822 -0.14861487 0.99246365
-0.06798552 -0.14817357 0.98951656
-0.064308122 -0.14773487 0.98658693
-0.060652435 -0.14729877 0.98367459
-0.057018269 -0.14686523 0.98077941
-0.053405441 -0.14643428 0.9779014
-0.049850032 -0.14611216 0.97575033
-0.046946049 -0.14779311 0.98697591
-0.043974411 -0.14951301 0.99846143
-0.040548932 -0.14985475 1.0007436
-0.037030414 -0.149885 1.0009457
-0.033510476 -0.14991529 1.001148
-0.029989121 -0.1499456 1.0013504
-0.026466334 -0.1499759 1.0015527
-0.02294213 -0.15000622 1.0017552
-0.019416496 -0.15003656 1.0019578
-0.015889436 -0.1500669 1.0021604
-0.012360951 -0.15009727 1.0023632
-0.0088310372 -0.15012763 1.002566
-0.0052996944 -0.15015802 1.0027689
-0.0017669225 -0.15018842 1.0029719
0.0017672804 -0.15021883 1.003175
0.0053727627 -0.15222828 1.0165943
0.0090809008 -0.15437531 1.0309324
0.012895202 -0.15658461 1.0456862
0.016820293 -0.15885831 1.0608703
-0.087170273 -0.14765577 1.0098191
-0.083359689 -0.14720967 1.0067682
-0.079572059 -0.14676625 1.0037357
-0.075807184 -0.14632548 1.0007213
-0.072064854 -0.14588739 0.99772513
-0.068344869 -0.14545189 0.9947468
-0.064647019 -0.14501898 0.99178612
-0.060971115 -0.14458865 0.98884302
-0.057316963 -0.14416085 0.98591733
-0.053684384 -0.1437356 0.9830091
-0.050111417 -0.14342234 0.98086661
-0.04719495 -0.14508076 0.99220866
-0.043977194 -0.14600429 0.99852461
-0.040467173 -0.1460337 0.99872583
-0.036955733 -0.14606313 0.99892712
-0.033442885 -0.14609259 0.99912858
-0.029928613 -0.14612205 0.99933004
-0.026412927 -0.14615153 0.99953163
-0.022895822 -0.14618103 0.99973333
-0.019377299 -0.14621052 0.99993509
-0.015857352 -0.14624003 1.0001369
-0.012335987 -0.14626956 1.0003388
-0.0088131987 -0.14629909 1.0005409
-0.0052889874 -0.14632864 1.0007429
-0.0017633517 -0.14635819 1.000945
0.0017775458 -0.14753631 1.0090021
0.0054072482 -0.14960052 1.0231193
0.0091400538 -0.15172489 1.0376478
0.012980434 -0.15391086 1.0525978
-0.083808027 -0.14443511 1.012183
-0.079998732 -0.14399771 1.0091177
-0.076212436 -0.14356297 1.0060711
-0.072448939 -0.14313082 1.0030427
-0.068708025 -0.14270128 1.0000325
-0.0649895 -0.14227432 0.99704039
-0.06129317 -0.14184991 0.99406618
-0.057618815 -0.14142799 0.99110949
-0.053966254 -0.1410086 0.98817039
-0.050375551 -0.14070413 0.98603666
-0.047390275 -0.14217082 0.99631512
-0.04388871 -0.14219941 0.99651551
-0.040385738 -0.14222804 0.99671602
-0.036881354 -0.14225665 0.99691659
-0.033375561 -0.14228529 0.99711722
-0.029868353 -0.14231391 0.99731791
-0.026359735 -0.14234257 0.99751866
-0.022849703 -0.14237122 0.99771953
-0.019338259 -0.14239991 0.99792051
-0.015825398 -0.14242859 0.9981215
-0.012311123 -0.14245729 0.99832261
-0.0087954318 -0.14248601 0.99852383
-0.0052783228 -0.14251472 0.99872506
-0.0017643692 -0.14291391 1.0015225
0.0017888664 -0.14489818 1.0154281
0.0054422026 -0.14693947 1.0297332
0.0091999974 -0.14903995 1.0444531
0.013066799 -0.15120153 1.0596012
-0.084261209 -0.14163055 1.0176562
-0.080430001 -0.14119934 1.0145578
-0.076622039 -0.14077073 1.0114782
-0.072837137 -0.14034472 1.0084172
-0.06907507 -0.13992129 1.0053748
-0.065335631 -0.13950041 1.0023506
-0.061618637 -0.13908207 0.99934471
-0.057923861 -0.13866621 0.99635667
-0.054251116 -0.13825284 0.99338645
-0.050642494 -0.13795714 0.99126172
-0.047295146 -0.13838209 0.99431515
-0.043800589 -0.13840987 0.9945147
-0.040304635 -0.13843766 0.99471438
-0.036807273 -0.13846545 0.99491411
-0.033308506 -0.13849325 0.99511391
-0.029808333 -0.13852108 0.99531382
-0.026306756 -0.13854891 0.9955138
-0.022803767 -0.13857673 0.99571371
-0.019299373 -0.13860458 0.99591386
-0.015793571 -0.13863245 0.99611408
-0.012286358 -0.13866033 0.99631435
-0.0087777348 -0.13868822 0.99651474
-0.0052677006 -0.13871612 0.99671519
-0.0017755219 -0.14026624 1.0078533
0.0018003354 -0.1422265 1.0219383
0.0054776147 -0.14424385 1.0364336
0.0092607336 -0.14631958 1.0513483
0.013154321 -0.1484559 1.0666984
-0.084719315 -0.13879548 1.0231889
-0.080865934 -0.1383706 1.0200568
-0.077036068 -0.1379483 1.0169437
-0.073229514 -0.1375286 1.0138496
-0.069446042 -0.13711143 1.0107743
-0.065685458 -0.13669677 1.0077175
-0.061947551 -0.13628462 1.0046791
-0.058232117 -0.13587494 1.001659
-0.054538961 -0.13546774 0.99865717
-0.05086787 -0.13506296 0.99567318
-0.047218587 -0.13466042 0.99270564
-0.043712817 -0.13463548 0.99252182
-0.040223852 -0.13466245 0.99272066
-0.036733482 -0.13468944 0.99291956
-0.033241715 -0.13471644 0.99311858
-0.029748552 -0.13474344 0.99331766
-0.026253985 -0.13477045 0.99351686
-0.022758016 -0.13479748 0.99371606
-0.019260647 -0.13482453 0.99391544
-0.015761873 -0.13485157 0.99411482
-0.012261694 -0.13487864 0.99431431
-0.0087601105 -0.1349057 0.99451387
-0.0052871252 -0.13570289 1.0003906
-0.0017868165 -0.13758487 1.0142645
0.0018119599 -0.13952091 1.0285368
0.0055134967 -0.14151308 1.0432229
0.0093222754 -0.14356305 1.0583351
-0.077454492 -0.13509504 1.0224673
-0.073626049 -0.13468179 1.0193396
-0.06982094 -0.13427104 1.0162308
-0.066038974 -0.13386278 1.0131409
-0.06227994 -0.13345702 1.0100698
-0.05854363 -0.13305371 1.0070174
-0.054829832 -0.13265282 1.0039833
-0.051138345 -0.13225433 1.0009674
-0.047468971 -0.13185826 0.99796963
-0.043821461 -0.13146439 0.99498862
-0.040195629 -0.1310727 0.99202418
-0.036659993 -0.13092855 0.99093312
-0.0331752 -0.13095474 0.99113137
-0.029689012 -0.13098094 0.99132961
-0.026201431 -0.13100715 0.99152803
-0.02271245 -0.13103336 0.99172646
-0.019222075 -0.1310596 0.991925
-0.015730301 -0.13108584 0.9921236
-0.012237129 -0.1311121 0.99232233
-0.0087471092 -0.13120665 0.99303788
-0.0053205076 -0.13301268 1.006707
-0.0017982597 -0.13486947 1.0207601
0.0018237376 -0.13678032 1.0352223
0.0055498523 -0.13874631 1.0501019
0.0093846023 -0.14076903 1.0654109
-0.070199922 -0.13139986 1.0217468
-0.066396326 -0.13099815 1.0186232
-0.062615916 -0.13059892 1.0155188
-0.058858488 -0.13020211 1.0124333
-0.055123821 -0.12980771 1.0093665
-0.051411718 -0.12941571 1.0063183
-0.047721963 -0.12902604 1.0032884
-0.044054359 -0.12863873 1.0002767
-0.040408671 -0.12825361 0.99728203
-0.036784701 -0.12787062 0.994304
-0.033182308 -0.12748992 0.99134374
-0.029629707 -0.12723345 0.98934942
-0.026149081 -0.12725887 0.98954701
-0.022667063 -0.12728427 0.98974466
-0.019183656 -0.12730971 0.98994243
-0.015698854 -0.12733516 0.99014026
-0.01221266 -0.1273606 0.99033815
-0.0088019297 -0.12850817 0.99926144
-0.0053543136 -0.1302883 1.0131035
-0.0018098572 -0.13211958 1.0273433
0.0018356701 -0.13400392 1.0419956
0.0055866754 -0.13594244 1.0570693
-0.062955551 -0.12770984 1.0210271
-0.059176762 -0.12731969 1.017908
-0.055420991 -0.12693195 1.0148079
-0.051688027 -0.12654655 1.0117267
-0.047977664 -0.12616348 1.0086641
-0.044289697 -0.12578274 1.0056201
-0.040623926 -0.12540428 1.0025945
-0.036980115 -0.12502801 0.99958616
-0.03335806 -0.1246538 0.99659437
-0.029757615 -0.12428181 0.99362034
-0.0261786 -0.12391204 0.99066412
-0.022621859 -0.12355015 0.98777086
-0.01914539 -0.12357479 0.98796779
-0.015667534 -0.12359943 0.98816484
-0.01223223 -0.12406977 0.99192506
-0.0088574383 -0.12577562 1.0055633
-0.0053885658 -0.12752938 1.0195844
-0.0018216085 -0.12933421 1.0340137
0.0018477583 -0.13119084 1.0488573
-0.051967327 -0.1236464 1.0171937
-0.048236124 -0.12327009 1.0140979
-0.044527564 -0.12289608 1.011021
-0.040841438 -0.12252432 1.0079627
-0.037177555 -0.12215482 1.004923
-0.033535674 -0.12178745 1.0019008
-0.02991559 -0.1214221 0.99889517
-0.026317161 -0.12105893 0.99590755
-0.022740191 -0.12069794 0.99293774
-0.019184489 -0.12033907 0.98998547
-0.01564987 -0.11998234 0.98705077
-0.012308805 -0.12132965 0.99813461
-0.0089136548 -0.12300844 1.0119454
-0.0054232823 -0.12473549 1.0261532
-0.0018335134 -0.12651242 1.0407714
0.0018599872 -0.12833911 1.0557989
-0.044768009 -0.11997826 1.0164804
-0.041061305 -0.11961337 1.013389
-0.037377086 -0.1192507 1.0103164
-0.033715136 -0.11889023 1.0072623
-0.030075248 -0.11853186 1.0042262
-0.026457191 -0.11817545 1.0012066
-0.022860829 -0.11782119 0.9982053
-0.01928596 -0.11746903 0.99522167
-0.015732398 -0.11711897 0.99225593
-0.012386343 -0.11855499 1.0044222
-0.0089706117 -0.12020619 1.0184115
-0.0054584537 -0.12190546 1.0328081
-0.0018455549 -0.12365218 1.0476066
-0.037578773 -0.11631525 1.0157681
-0.033896513 -0.11596175 1.012681
-0.030236565 -0.1156104 1.0096127
-0.02659872 -0.11526112 1.0065625
-0.022982748 -0.11491374 1.0035288
-0.019388506 -0.11456844 1.0005134
-0.015815802 -0.11422524 0.99751627
-0.012464866 -0.11574518 1.0107898
-0.0090283435 -0.11736846 1.0249656
-0.0054940344 -0.11903741 1.0395404
-0.0018577543 -0.12075403 1.0545315
-0.030399611 -0.11265738 1.0150568
-0.026741721 -0.11231522 1.011974
-0.023105979 -0.11197513 1.0089097
-0.019492151 -0.11163687 1.0058619
-0.015907245 -0.11135072 1.0032836
-0.012544429 -0.11289986 1.0172416
-0.0090867588 -0.11449317 1.0315975
-0.00553007 -0.11613147 1.0463588
-0.019596914 -0.1086738 1.011268
-0.016007977 -0.10849851 1.0096369
-0.012624999 -0.11001784 1.0237751
