# .PCD v0.7 - Point Cloud Data file format
VERSION 0.7
FIELDS x y z
SIZE 4 4 4
TYPE F F F
COUNT 1 1 1
WIDTH 1340
HEIGHT 1
VIEWPOINT 0 0 0 1 0 0 0
POINTS 1340
DATA ascii
-0.35308486 -0.065783873 0.76206958
-0.34937477 -0.065591432 0.75984025
-0.34568658 -0.065400161 0.75762451
-0.34201989 -0.065210015 0.75542176
-0.33837441 -0.065020964 0.7532317
-0.33475 -0.064833008 0.75105429
-0.33161724 -0.064738028 0.74995404
-0.33190301 -0.065314248 0.75662923
-0.33219391 -0.065900818 0.76342428
-0.33249113 -0.066498227 0.77034497
-0.33279276 -0.067106359 0.77738982
-0.33309999 -0.067725725 0.78456485
-0.33341292 -0.068356626 0.79187346
-0.33373174 -0.068999395 0.79931957
-0.33405545 -0.069654115 0.8069042
-0.36249378 -0.063335344 0.7649262
-0.35874212 -0.063149363 0.76267999
-0.35501236 -0.062964454 0.76044685
-0.35130456 -0.062780663 0.75822711
-0.34761858 -0.062597983 0.75602078
-0.343954 -0.06241636 0.75382727
-0.3403106 -0.062235791 0.75164646
-0.33668819 -0.062056258 0.74947816
-0.33308667 -0.061877761 0.74732238
-0.32995218 -0.061783873 0.74618846
-0.33022168 -0.062331002 0.75279635
-0.33049607 -0.062887914 0.75952244
-0.33077541 -0.063454874 0.76636982
-0.33106115 -0.064032406 0.77334487
-0.33135086 -0.064620294 0.78044504
-0.33164594 -0.065219074 0.78767675
-0.33194652 -0.065829054 0.79504377
-0.3322528 -0.066450559 0.8025499
-0.3325623 -0.067083381 0.81019276
-0.3681798 -0.060688976 0.7655412
-0.36440837 -0.060510613 0.7632913
-0.36065909 -0.060333304 0.76105469
-0.35693166 -0.060157023 0.75883102
-0.35322618 -0.059981808 0.75662082
-0.34954241 -0.059807636 0.7544238
-0.34587994 -0.059634477 0.75223953
-0.34223866 -0.059462316 0.75006789
-0.33861834 -0.05929115 0.74790877
-0.33501875 -0.059120957 0.74576193
-0.33143982 -0.058951747 0.74362749
-0.32830369 -0.058859229 0.74246043
-0.32855734 -0.059377834 0.74900222
-0.32881555 -0.059905663 0.75566036
-0.32907835 -0.060442958 0.76243788
-0.32934746 -0.06099027 0.76934177
-0.32961997 -0.061547298 0.7763682
-0.32989755 -0.062114604 0.78352427
-0.33018026 -0.062692456 0.79081339
-0.33046833 -0.063281171 0.79823953
-0.33076021 -0.063880727 0.80580246
-0.33105695 -0.064491615 0.81350833
-0.37387493 -0.058038346 0.76615709
-0.37008378 -0.057867642 0.76390368
-0.3663148 -0.057697933 0.76166338
-0.36256793 -0.05752923 0.75943631
-0.35884285 -0.057361498 0.75722212
-0.3551397 -0.057194784 0.75502133
-0.35145813 -0.057029057 0.7528336
-0.34779787 -0.056864288 0.75065851
-0.34415865 -0.056700468 0.74849594
-0.34054038 -0.056537591 0.74634582
-0.33694279 -0.056375645 0.74420798
-0.3333658 -0.056214623 0.74208236
-0.32980913 -0.056054518 0.73996884
-0.32667163 -0.055963669 0.73876953
-0.32690969 -0.056454286 0.74524611
-0.32715201 -0.05695359 0.75183737
-0.32739863 -0.057461798 0.75854617
-0.32764968 -0.057979163 0.76537585
-0.32790712 -0.058506247 0.7723338
-0.3281675 -0.059042688 0.77941531
-0.32843274 -0.059589058 0.78662789
-0.32870293 -0.060145639 0.79397523
-0.32897818 -0.060712714 0.8014611
-0.3292557 -0.061290022 0.80908209
-0.32953921 -0.061878543 0.81685108
-0.37576824 -0.055220421 0.76451695
-0.37197959 -0.055058353 0.76227313
-0.36821312 -0.05489723 0.76004243
-0.36446866 -0.05473705 0.75782478
-0.36074594 -0.054577798 0.75561994
-0.35704511 -0.054419518 0.75342858
-0.35336578 -0.054262161 0.75125003
-0.34970766 -0.054105718 0.74908406
-0.34607059 -0.053950168 0.74693054
-0.3424544 -0.053795516 0.74478942
-0.33885884 -0.053641751 0.74266052
-0.33528376 -0.053488851 0.74054366
-0.33172905 -0.053336829 0.73843896
-0.32819447 -0.053185664 0.73634613
-0.32505566 -0.053096741 0.73511499
-0.32527846 -0.053559907 0.74152744
-0.32550523 -0.054031231 0.74805284
-0.32573596 -0.054510918 0.75469398
-0.32597083 -0.054999195 0.76145411
-0.32620996 -0.055496302 0.76833647
-0.32645553 -0.056002833 0.77534932
-0.32670361 -0.056518346 0.7824865
-0.32695627 -0.057043433 0.78975624
-0.3272137 -0.057578377 0.79716241
-0.32747391 -0.058123074 0.80470365
-0.32773888 -0.058678143 0.81238848
-0.32800895 -0.05924391 0.82022142
-0.38146189 -0.05256895 0.76513129
-0.37765348 -0.052414536 0.76288384
-0.37386739 -0.052261036 0.76064962
-0.37010339 -0.052108418 0.75842834
-0.36636135 -0.051956702 0.7562201
-0.36264098 -0.051805854 0.75402457
-0.35894254 -0.051655937 0.75184256
-0.35526544 -0.051506884 0.74967313
-0.35160953 -0.051358696 0.74751627
-0.34797457 -0.051211353 0.7453717
-0.34436044 -0.051064856 0.74323946
-0.34076691 -0.050919194 0.74111938
-0.33719382 -0.050774358 0.73901135
-0.33364102 -0.05063035 0.73691529
-0.33018163 -0.05049837 0.73499435
-0.32755831 -0.050493181 0.73491883
-0.3249355 -0.050487984 0.73484319
-0.32366347 -0.050694279 0.73784578
-0.32387489 -0.051138144 0.74430615
-0.32409009 -0.051589854 0.75088072
-0.32430911 -0.052049611 0.75757241
-0.32453206 -0.052517638 0.76438445
-0.32476133 -0.052994527 0.77132547
-0.3249926 -0.053479794 0.77838844
-0.32522812 -0.053974029 0.78558195
-0.325468 -0.054477479 0.79290956
-0.32571241 -0.054990403 0.8003751
-0.32595807 -0.055512514 0.80797428
-0.32620963 -0.056044828 0.81572205
-0.32646602 -0.056587446 0.82361972
-0.38716465 -0.049913213 0.76574659
-0.38333645 -0.049766488 0.76349556
-0.37953064 -0.049620613 0.76125765
-0.37574711 -0.049475599 0.75903291
-0.37198564 -0.04933143 0.7568211
-0.36824602 -0.049188096 0.75462216
-0.36452806 -0.049045593 0.75243592
-0.36083195 -0.048903961 0.75026309
-0.35715714 -0.048763152 0.74810284
-0.35350341 -0.048623145 0.74595493
-0.34987062 -0.048483945 0.74381936
-0.34625855 -0.048345536 0.74169594
-0.3426671 -0.04820792 0.73958474
-0.33909601 -0.048071083 0.73748541
-0.33554509 -0.047935016 0.73539793
-0.33275941 -0.047906995 0.73496807
-0.33013591 -0.047902074 0.73489255
-0.32751292 -0.047897145 0.73481697
-0.32489052 -0.047892228 0.73474151
-0.32226864 -0.047887307 0.73466599
-0.32226086 -0.048273895 0.74059689
-0.3224608 -0.048698161 0.74710578
-0.32266426 -0.049129948 0.75373006
-0.32287133 -0.049569458 0.76047283
-0.32308221 -0.05001691 0.76733744
-0.32329938 -0.050472897 0.774333
-0.3235181 -0.050936893 0.7814514
-0.32374087 -0.051409494 0.78870189
-0.32396781 -0.051890951 0.79608816
-0.32419658 -0.052381106 0.80360788
-0.32442993 -0.052880649 0.81127167
-0.32466781 -0.053389817 0.81908309
-0.32491025 -0.053908877 0.82704628
-0.39287663 -0.047253203 0.76636291
-0.38902852 -0.047114179 0.76410818
-0.385203 -0.046975974 0.76186675
-0.38139987 -0.046838578 0.75963843
-0.37761891 -0.046701983 0.7574231
-0.37385991 -0.046566185 0.75522065
-0.37012276 -0.046431173 0.75303102
-0.36640725 -0.046296943 0.75085407
-0.36271346 -0.046163533 0.74869037
-0.35904092 -0.046030886 0.74653912
-0.35538945 -0.045899004 0.7444002
-0.35175881 -0.045767874 0.74227351
-0.34814885 -0.045637492 0.74015892
-0.3445594 -0.045507845 0.7380563
-0.3409903 -0.045378938 0.73596567
-0.3379612 -0.045320466 0.73501736
-0.33533701 -0.045315813 0.7349419
-0.33271337 -0.045311157 0.73486638
-0.33009022 -0.0453065 0.73479086
-0.32746756 -0.04530184 0.73471522
-0.32484552 -0.045297187 0.73463976
-0.32222402 -0.045292534 0.7345643
-0.32066298 -0.045438074 0.73692471
-0.32084778 -0.045835398 0.74336863
-0.32103598 -0.046239752 0.74992651
-0.32122755 -0.046651304 0.75660115
-0.32142252 -0.047070242 0.76339561
-0.32161963 -0.047496568 0.77030987
-0.32182598 -0.04793153 0.77736413
-0.32203197 -0.0483739 0.78453863
-0.32224181 -0.048824515 0.79184681
-0.32245401 -0.049283363 0.79928845
-0.32266954 -0.049750809 0.80686963
-0.32288924 -0.050227214 0.81459606
-0.32311317 -0.050712828 0.82247186
-0.32334149 -0.051207926 0.8305015
-0.39472976 -0.044457618 0.76472187
-0.39088443 -0.044327099 0.7624768
-0.38706166 -0.044197351 0.76024497
-0.38326108 -0.044068348 0.758026
-0.37948278 -0.043940112 0.75582016
-0.37572628 -0.043812606 0.75362694
-0.3719916 -0.04368585 0.75144655
-0.3682785 -0.043559823 0.74927878
-0.3645871 -0.043434564 0.7471242
-0.36091685 -0.04331002 0.74498188
-0.35726756 -0.043186191 0.74285185
-0.35363913 -0.043063067 0.74073398
-0.35003129 -0.042940643 0.73862815
-0.34644392 -0.042818911 0.73653424
-0.3431637 -0.042733591 0.73506665
-0.3405388 -0.042729203 0.73499113
-0.33791441 -0.042724811 0.73491561
-0.33529058 -0.042720422 0.7348401
-0.33266726 -0.04271603 0.73476458
-0.33004451 -0.042711645 0.73468912
-0.32742226 -0.042707253 0.7346136
-0.32480058 -0.042702865 0.73453814
-0.32217944 -0.04269848 0.73446268
-0.31955883 -0.042694096 0.73438728
-0.3192507 -0.043001115 0.73966837
-0.31942409 -0.04337858 0.74616116
-0.31960037 -0.04376271 0.75276864
-0.31977984 -0.044153702 0.75949419
-0.31996253 -0.044551745 0.76634097
-0.32015148 -0.044957444 0.77331942
-0.32034102 -0.045370188 0.78041911
-0.32053405 -0.045790579 0.78765035
-0.32073072 -0.046218839 0.79501688
-0.32092816 -0.046654753 0.80251509
-0.32113007 -0.047099076 0.81015795
-0.32133582 -0.047551941 0.81794775
-0.32154563 -0.048013601 0.82588887
-0.32175955 -0.048484318 0.83398569
-0.40044013 -0.041796781 0.76533645
-0.39657497 -0.041673981 0.76308787
-0.39273241 -0.041551892 0.76085234
-0.38891235 -0.041430525 0.75862998
-0.38511449 -0.04130986 0.75642049
-0.38133872 -0.041189898 0.75422388
-0.37758482 -0.041070629 0.75203997
-0.37385258 -0.040952049 0.74986869
-0.37014201 -0.040834174 0.74771023
-0.36645293 -0.040716995 0.74556458
-0.36278498 -0.040600486 0.74343121
-0.35913795 -0.040484641 0.74131
-0.3555117 -0.040369462 0.73920095
-0.351906 -0.040254928 0.73710376
-0.34836689 -0.040146369 0.73511595
-0.34574127 -0.040142246 0.73504043
-0.34311616 -0.040138118 0.73496485
-0.34049165 -0.040133998 0.73488939
-0.33786765 -0.040129874 0.73481387
-0.33524418 -0.04012575 0.73473841
-0.33262122 -0.040121626 0.73466289
-0.32999879 -0.040117498 0.73458731
-0.32737693 -0.040113378 0.73451185
-0.32475564 -0.040109262 0.73443645
-0.32213485 -0.040105142 0.73436105
-0.31951463 -0.040101025 0.73428565
-0.31767026 -0.040195011 0.73600662
-0.31782827 -0.040545993 0.74243343
-0.31798959 -0.040903226 0.74897468
-0.31815386 -0.041266818 0.75563234
-0.31832105 -0.041636929 0.76240945
-0.31849122 -0.042013735 0.7693091
-0.31866771 -0.042397849 0.77634257
-0.31884432 -0.042788628 0.78349811
-0.31902421 -0.043186683 0.7907868
-0.31920576 -0.043591976 0.79820806
-0.31938994 -0.044004835 0.80576789
-0.31957799 -0.04442564 0.81347322
-0.31976965 -0.044854563 0.82132721
-0.31996506 -0.045291856 0.82933444
-0.40615973 -0.039131667 0.76595211
-0.40227461 -0.039016601 0.76369983
-0.39841232 -0.038902212 0.76146084
-0.39457256 -0.03878849 0.75923485
-0.39075524 -0.038675431 0.7570219
-0.38696003 -0.038563028 0.75482172
-0.38318691 -0.03845128 0.75263441
-0.37943554 -0.038340174 0.75045967
-0.37570581 -0.038229711 0.74829751
-0.37199765 -0.038119901 0.74614811
-0.36831096 -0.038010739 0.7440114
-0.36464533 -0.037902202 0.74188691
-0.36100057 -0.037794285 0.73977453
-0.35737649 -0.037686974 0.73767412
-0.35377294 -0.037580278 0.73558563
-0.35094446 -0.037554942 0.73508972
-0.34831867 -0.037551083 0.7350142
-0.34569341 -0.037547223 0.73493868
-0.34306869 -0.037543368 0.73486316
-0.34044451 -0.037539508 0.73478764
-0.33782086 -0.037535649 0.73471212
-0.33519775 -0.037531797 0.73463666
-0.33257523 -0.037527941 0.73456126
-0.32995313 -0.037524082 0.73448569
-0.32733166 -0.03752023 0.73441029
-0.32471073 -0.037516378 0.73433489
-0.3220903 -0.037512526 0.73425949
-0.31947044 -0.037508674 0.73418409
-0.31685111 -0.037504826 0.73410875
-0.31624863 -0.037741605 0.73874342
-0.31639501 -0.03807243 0.74521887
-0.31654429 -0.03840914 0.7518096
-0.31669629 -0.038751867 0.75851798
-0.31685099 -0.039100762 0.76534718
-0.3170093 -0.039456092 0.77230233
-0.31717232 -0.039818168 0.7793895
-0.31733578 -0.040186629 0.7866016
-0.31750229 -0.040561967 0.79394841
-0.31766862 -0.040943954 0.80142528
-0.31783924 -0.041333355 0.80904728
-0.31801316 -0.041730233 0.81681567
-0.31819043 -0.042134807 0.82473469
-0.3183721 -0.042547423 0.83281118
-0.40410125 -0.036248285 0.76207018
-0.40024185 -0.036142241 0.75984073
-0.39640489 -0.036036808 0.75762415
-0.39259028 -0.035931993 0.75542057
-0.38879782 -0.035827786 0.75322974
-0.38502729 -0.035724182 0.7510516
-0.38127849 -0.035621174 0.74888599
-0.37755123 -0.035518758 0.74673283
-0.37384561 -0.035416953 0.74459255
-0.37016129 -0.035315741 0.74246472
-0.36649799 -0.03521511 0.74034905
-0.36285549 -0.035115048 0.73824543
-0.35923362 -0.035015553 0.73615366
-0.35614833 -0.034967288 0.73513901
-0.35352179 -0.034963693 0.73506343
-0.35089585 -0.034960102 0.73498791
-0.34827042 -0.034956511 0.7349124
-0.34564555 -0.03495292 0.73483694
-0.34302118 -0.034949329 0.73476142
-0.34039739 -0.034945741 0.73468596
-0.33777413 -0.03494215 0.7346105
-0.33515137 -0.034938563 0.73453504
-0.33252916 -0.034934968 0.73445952
-0.32990748 -0.03493138 0.73438406
-0.32728636 -0.034927793 0.73430866
-0.32466578 -0.034924205 0.73423326
-0.32204571 -0.034920622 0.73415786
-0.31942624 -0.034917038 0.73408252
-0.31680727 -0.034913454 0.73400718
-0.31468496 -0.034964997 0.73509079
-0.31481639 -0.035269886 0.74150068
-0.314951 -0.03558024 0.74802542
-0.315088 -0.035896104 0.75466603
-0.31522754 -0.036217634 0.76142573
-0.31536955 -0.036544967 0.76830751
-0.31551775 -0.036878698 0.77532375
-0.31566513 -0.037218161 0.78246045
-0.31581524 -0.037563927 0.78972971
-0.31596735 -0.037916083 0.79713333
-0.31611931 -0.038274534 0.80466926
-0.31627584 -0.038640033 0.81235337
-0.31643543 -0.039012585 0.82018578
-0.31659856 -0.039392449 0.82817185
-0.40206358 -0.033393987 0.75822747
-0.39822945 -0.033296779 0.75602031
-0.39441761 -0.033200137 0.75382602
-0.39062786 -0.033104055 0.75164443
-0.38685992 -0.033008527 0.74947542
-0.38311368 -0.032913547 0.74731886
-0.37938899 -0.032819118 0.74517477
-0.37568584 -0.032725248 0.74304342
-0.37200391 -0.032631923 0.74092442
-0.36834294 -0.032539129 0.73881751
-0.36470273 -0.032446861 0.73672253
-0.36135289 -0.032379292 0.73518831
-0.3587257 -0.032375965 0.73511279
-0.35609904 -0.032372639 0.73503727
-0.35347286 -0.032369312 0.73496169
-0.35084727 -0.032365985 0.73488617
-0.3482222 -0.032362659 0.73481065
-0.34559768 -0.032359336 0.73473519
-0.34297371 -0.032356009 0.73465967
-0.34035027 -0.03235269 0.73458427
-0.3377274 -0.032349367 0.73450887
-0.335105 -0.032346044 0.73443341
-0.33248314 -0.032342717 0.73435789
-0.32986185 -0.032339398 0.73428249
-0.32724109 -0.032336075 0.73420709
-0.32462087 -0.032332756 0.73413169
-0.32200119 -0.032329436 0.73405635
-0.31938207 -0.032326121 0.73398101
-0.31676349 -0.032322805 0.73390573
-0.31414542 -0.032319486 0.73383039
-0.313254 -0.03249523 0.73782074
-0.31337342 -0.032779645 0.74427855
-0.31349602 -0.033069201 0.75085306
-0.31362063 -0.033363897 0.75754428
-0.31374747 -0.033663891 0.76435584
-0.31387681 -0.03396935 0.77129143
-0.31401193 -0.034280781 0.77836257
-0.31414598 -0.034597576 0.7855556
-0.31428254 -0.034920283 0.7928828
-0.3144179 -0.035248641 0.80033839
-0.31455743 -0.035583418 0.80793965
-0.31469962 -0.035924613 0.81568664
-0.31484458 -0.036272418 0.82358372
-0.31499431 -0.036627244 0.83164024
-0.40387762 -0.030657377 0.75662106
-0.40004635 -0.030568326 0.75442326
-0.39623728 -0.030479793 0.75223827
-0.39245015 -0.030391764 0.75006574
-0.38868496 -0.030304249 0.74790591
-0.38494125 -0.03021723 0.7457583
-0.38121906 -0.030130718 0.74362314
-0.37751845 -0.03004472 0.74150074
-0.37383896 -0.02995922 0.73939061
-0.37018031 -0.029874202 0.73729235
-0.36655819 -0.029790947 0.73523766
-0.36393026 -0.029787885 0.73516208
-0.36130285 -0.029784823 0.7350865
-0.35867602 -0.029781763 0.73501098
-0.35604972 -0.029778702 0.73493546
-0.35342392 -0.029775644 0.73485994
-0.35079873 -0.029772585 0.73478448
-0.34817401 -0.029769525 0.73470896
-0.34554988 -0.029766468 0.73463351
-0.34292626 -0.02976341 0.73455805
-0.34030315 -0.029760353 0.73448259
-0.33768064 -0.029757299 0.73440719
-0.33505863 -0.02975424 0.73433173
-0.33243716 -0.029751185 0.73425633
-0.32981622 -0.029748131 0.73418093
-0.32719585 -0.029745078 0.73410559
-0.32457602 -0.029742025 0.73403025
-0.32195669 -0.029738972 0.73395491
-0.3193379 -0.029735917 0.73387951
-0.31671968 -0.029732866 0.73380423
-0.31410193 -0.029729813 0.73372889
-0.31170714 -0.029747983 0.73417729
-0.3118124 -0.030007051 0.74057108
-0.31192172 -0.030270882 0.74708241
-0.31203005 -0.03053911 0.75370222
-0.31214198 -0.030812299 0.76044452
-0.31225598 -0.031090423 0.76730859
-0.31237602 -0.031374011 0.77430749
-0.31249431 -0.031662419 0.78142542
-0.31261483 -0.031956181 0.78867543
-0.31273678 -0.032255363 0.79605919
-0.31285757 -0.032559834 0.80357355
-0.3129828 -0.032870337 0.81123674
-0.31311041 -0.033186816 0.81904739
-0.31324148 -0.033509552 0.82701248
-0.40185556 -0.027851375 0.75283295
-0.39804927 -0.027770879 0.75065708
-0.39426488 -0.027690845 0.74849373
-0.3905023 -0.027611274 0.7463429
-0.38676122 -0.027532155 0.74420428
-0.38304156 -0.02745349 0.74207795
-0.37934345 -0.027375301 0.73996449
-0.37566638 -0.027297556 0.737863
-0.37201011 -0.027220253 0.73577344
-0.3691355 -0.027199458 0.73521137
-0.36650741 -0.027196663 0.73513579
-0.36387986 -0.027193869 0.73506027
-0.36125284 -0.027191075 0.73498476
-0.35862637 -0.027188281 0.73490924
-0.35600042 -0.027185487 0.73483372
-0.35337502 -0.027182693 0.7347582
-0.35075015 -0.027179901 0.73468274
-0.34812582 -0.027177108 0.73460728
-0.34550208 -0.02717432 0.73453188
-0.34287882 -0.027171528 0.73445642
-0.34025609 -0.02716874 0.73438102
-0.33763394 -0.027165949 0.73430562
-0.33501226 -0.027163155 0.7342301
-0.33239114 -0.027160365 0.7341547
-0.32977059 -0.027157579 0.73407936
-0.32715058 -0.027154792 0.73400402
-0.32453111 -0.027152004 0.73392868
-0.32191217 -0.027149219 0.7338534
-0.31929374 -0.027146433 0.73377806
-0.31667587 -0.027143646 0.73370278
-0.31405854 -0.027140861 0.7336275
-0.31144175 -0.027138079 0.73355228
-0.31026688 -0.027261944 0.73690039
-0.31036001 -0.027500255 0.74334204
-0.31045547 -0.027742829 0.74989891
-0.31055284 -0.027989741 0.75657302
-0.31065199 -0.028241089 0.76336706
-0.31075293 -0.028496994 0.77028424
-0.31085992 -0.028757967 0.77733845
-0.3109647 -0.029023373 0.78451246
-0.31107143 -0.029293722 0.79182011
-0.311176 -0.02956876 0.79925448
-0.31128457 -0.029849205 0.806835
-0.31139526 -0.030135024 0.81456083
-0.31150842 -0.030426402 0.82243687
-0.31162599 -0.030723689 0.83047265
-0.39985365 -0.025073331 0.74908257
-0.396072 -0.025001222 0.74692827
-0.39231205 -0.024929529 0.74478638
-0.38857365 -0.024858246 0.74265677
-0.38485652 -0.024787368 0.74053925
-0.38116089 -0.024716917 0.73843449
-0.37748626 -0.024646869 0.73634171
-0.37434149 -0.024610685 0.73526073
-0.37171265 -0.024608156 0.73518515
-0.36908439 -0.024605626 0.73510957
-0.36645666 -0.024603099 0.73503405
-0.36382946 -0.024600569 0.73495847
-0.36120281 -0.02459804 0.73488295
-0.35857669 -0.024595512 0.73480743
-0.35595116 -0.024592988 0.73473203
-0.35332614 -0.024590462 0.73465657
-0.3507016 -0.024587935 0.73458105
-0.34807765 -0.024585411 0.73450565
-0.34545425 -0.024582885 0.73443019
-0.34283137 -0.024580361 0.73435479
-0.34020904 -0.024577837 0.73427939
-0.33758718 -0.024575312 0.73420393
-0.33496594 -0.024572792 0.73412859
-0.33234519 -0.024570268 0.73405319
-0.329725 -0.024567746 0.73397785
-0.32710537 -0.024565225 0.73390257
-0.32448623 -0.024562703 0.73382723
-0.32186767 -0.024560183 0.73375195
-0.31924963 -0.024557663 0.73367667
-0.31663212 -0.024555145 0.73360139
-0.31401518 -0.024552627 0.73352617
-0.31139874 -0.024550108 0.73345095
-0.30878282 -0.024547588 0.73337567
-0.30881596 -0.024757398 0.73964387
-0.30889672 -0.024974627 0.74613374
-0.30897984 -0.025195781 0.75274086
-0.30906439 -0.025420882 0.75946587
-0.30915049 -0.025650041 0.76631218
-0.30923685 -0.025883261 0.77327979
-0.30933189 -0.026121359 0.78039312
-0.30942291 -0.026363388 0.78762388
-0.30951485 -0.026609873 0.7949878
-0.3096047 -0.026860682 0.80248088
-0.30969876 -0.027116483 0.81012309
-0.30979466 -0.027377203 0.81791228
-0.30989429 -0.027643153 0.82585776
-0.39787161 -0.02232283 0.74536943
-0.39411429 -0.022258947 0.74323636
-0.39037848 -0.022195432 0.74111557
-0.386664 -0.022132283 0.739007
-0.3829709 -0.022069508 0.73691094
-0.37954813 -0.022021564 0.73531002
-0.37691861 -0.022019299 0.73523444
-0.3742896 -0.022017036 0.73515886
-0.37166116 -0.022014773 0.73508328
-0.36903331 -0.022012513 0.73500782
-0.36640593 -0.022010252 0.7349323
-0.36377913 -0.022007989 0.73485678
-0.36115283 -0.022005728 0.73478127
-0.35852706 -0.022003466 0.73470575
-0.35590187 -0.022001207 0.73463029
-0.35327721 -0.021998946 0.73455483
-0.35065311 -0.02199669 0.73447949
-0.34802949 -0.021994431 0.73440403
-0.34540647 -0.021992171 0.73432863
-0.34278396 -0.021989914 0.73425323
-0.34016198 -0.021987656 0.73417783
-0.33754048 -0.021985395 0.73410237
-0.3349196 -0.021983139 0.73402703
-0.33229923 -0.021980884 0.73395169
-0.3296794 -0.021978626 0.73387635
-0.32706013 -0.021976372 0.73380107
-0.32444137 -0.021974117 0.73372579
-0.32182318 -0.021971863 0.73365051
-0.31920549 -0.021969609 0.73357522
-0.31658837 -0.021967355 0.7335
-0.31397176 -0.021965103 0.73342478
-0.31135571 -0.021962849 0.73334956
-0.30874017 -0.021960597 0.73327434
-0.30728725 -0.022041701 0.73598242
-0.30735421 -0.022234134 0.74240786
-0.30742237 -0.02242996 0.74894655
-0.30749297 -0.022629352 0.75560439
-0.30756453 -0.022832301 0.7623809
-0.30763739 -0.023038924 0.76928014
-0.30771616 -0.023249665 0.77631688
-0.30779183 -0.023463951 0.783472
-0.30786887 -0.023682222 0.79076016
-0.30794284 -0.02390424 0.79817343
-0.30802068 -0.024130654 0.8057335
-0.30809999 -0.024361394 0.81343806
-0.30818179 -0.024596671 0.82129401
-0.30826712 -0.024836687 0.82930827
-0.39590904 -0.019599458 0.74169278
-0.39217588 -0.019543648 0.73958081
-0.38846397 -0.01948816 0.737481
-0.38477337 -0.019432999 0.73539358
-0.38212523 -0.019430097 0.73528373
-0.37949556 -0.0194281 0.73520821
-0.3768664 -0.019426104 0.73513263
-0.37423778 -0.019424107 0.73505706
-0.37160972 -0.01942211 0.73498154
-0.3689822 -0.019420115 0.73490602
-0.36635518 -0.01941812 0.7348305
-0.36372873 -0.019416124 0.73475498
-0.36110285 -0.019414131 0.73467958
-0.35847747 -0.019412138 0.73460412
-0.35585263 -0.019410143 0.73452866
-0.35322833 -0.01940815 0.7344532
-0.35060456 -0.019406157 0.7343778
-0.34798136 -0.019404164 0.7343024
-0.3453587 -0.019402174 0.73422706
-0.34273657 -0.019400183 0.73415172
-0.34011492 -0.01939819 0.73407632
-0.33749381 -0.019396197 0.73400086
-0.33487329 -0.019394206 0.73392552
-0.33225331 -0.019392217 0.73385024
-0.32963386 -0.019390227 0.73377496
-0.32701492 -0.019388238 0.73369968
-0.32439655 -0.019386249 0.7336244
-0.32177868 -0.019384259 0.73354912
-0.31916139 -0.01938227 0.7334739
-0.31654462 -0.019380283 0.73339868
-0.3139284 -0.019378295 0.73332345
-0.31131271 -0.01937631 0.73324829
-0.30869755 -0.019374324 0.73317313
-0.30608293 -0.019372337 0.73309797
-0.30582705 -0.019520875 0.73871905
-0.30588147 -0.019691939 0.74519253
-0.30593833 -0.019866126 0.75178421
-0.30599475 -0.020043323 0.75848979
-0.30605307 -0.020223772 0.76531839
-0.3061142 -0.020407612 0.77227539
-0.30617782 -0.020594921 0.77936363
-0.30623958 -0.02078549 0.78657526
-0.30630055 -0.02097949 0.7939167
-0.30636066 -0.021177005 0.80139112
-0.30642375 -0.021378402 0.80901253
-0.30648798 -0.021583661 0.81678003
-0.30655649 -0.021793116 0.82470632
-0.30662623 -0.022006666 0.83278763
-0.39396581 -0.016902825 0.73805237
-0.39025658 -0.016854934 0.73596132
-0.38733259 -0.016840547 0.73533309
-0.38470218 -0.016838817 0.73525751
-0.38207233 -0.016837085 0.73518193
-0.37944299 -0.016835354 0.73510635
-0.37681422 -0.016833626 0.73503083
-0.37418598 -0.016831895 0.73495531
-0.37155828 -0.016830165 0.73487979
-0.36893111 -0.016828436 0.73480427
-0.36630449 -0.016826708 0.73472881
-0.36367843 -0.016824979 0.73465335
-0.36105287 -0.016823253 0.73457789
-0.35842785 -0.016821524 0.73450243
-0.3558034 -0.016819797 0.73442703
-0.35317948 -0.016818071 0.73435163
-0.35055608 -0.016816344 0.73427624
-0.3479332 -0.016814616 0.73420084
-0.34531093 -0.016812891 0.73412549
-0.34268916 -0.016811166 0.73405015
-0.34006786 -0.016809439 0.73397475
-0.33744717 -0.016807713 0.73389941
-0.33482701 -0.01680599 0.73382413
-0.33220738 -0.016804263 0.73374879
-0.32958829 -0.01680254 0.73367351
-0.32696971 -0.016800815 0.73359823
-0.3243517 -0.016799092 0.73352295
-0.32173422 -0.016797369 0.73344773
-0.31911728 -0.016795646 0.73337251
-0.31650087 -0.016793923 0.73329729
-0.313885 -0.016792202 0.73322213
-0.31126967 -0.016790481 0.73314697
-0.30865487 -0.01678876 0.7330718
-0.30604064 -0.016787039 0.7329967
-0.30431494 -0.016834443 0.73506659
-0.30435592 -0.016981231 0.741476
-0.30439764 -0.017130604 0.74799824
-0.30444121 -0.017282689 0.75463897
-0.30448502 -0.017437467 0.7613973
-0.30452994 -0.017595064 0.7682786
-0.30457798 -0.017755667 0.77529126
-0.30462736 -0.017919255 0.78243428
-0.30467492 -0.018085726 0.78970313
-0.30471846 -0.018255023 0.79709542
-0.30476567 -0.018427692 0.80463487
-0.30481401 -0.018603671 0.81231892
-0.30486479 -0.018783139 0.82015526
-0.30491763 -0.018966168 0.82814717
-0.39254063 -0.01425065 0.73538244
-0.38990951 -0.014249184 0.7353068
-0.38727897 -0.014247721 0.73523128
-0.38464892 -0.014246256 0.7351557
-0.3820194 -0.014244792 0.73508012
-0.37939048 -0.014243328 0.7350046
-0.37676206 -0.014241865 0.73492908
-0.37413418 -0.014240402 0.73485357
-0.37150684 -0.014238938 0.73477805
-0.36888006 -0.014237476 0.73470259
-0.36625379 -0.014236013 0.73462713
-0.36362809 -0.014234551 0.73455167
-0.36100292 -0.01423309 0.73447627
-0.35837826 -0.014231628 0.73440081
-0.35575417 -0.014230167 0.73432541
-0.35313061 -0.014228705 0.73425001
-0.35050762 -0.014227247 0.73417473
-0.3478851 -0.014225786 0.73409933
-0.34526318 -0.014224325 0.73402399
-0.34264177 -0.014222865 0.73394865
-0.34002081 -0.014221403 0.73387319
-0.3374005 -0.014219944 0.73379791
-0.33478069 -0.014218485 0.73372263
-0.33216143 -0.014217027 0.73364735
-0.32954273 -0.014215569 0.73357213
-0.32692453 -0.01421411 0.73349684
-0.32430688 -0.014212652 0.73342162
-0.32168978 -0.014211195 0.7333464
-0.3190732 -0.014209738 0.73327124
-0.31645718 -0.014208281 0.73319608
-0.31384167 -0.014206824 0.73312086
-0.31122673 -0.014205368 0.73304576
-0.30861226 -0.014203912 0.7329706
-0.30599838 -0.014202457 0.73289549
-0.30338502 -0.014201001 0.73282039
-0.30284557 -0.014297429 0.73779643
-0.30287382 -0.014422562 0.7442537
-0.30290264 -0.014549908 0.75082517
-0.30293292 -0.01467957 0.75751615
-0.30296367 -0.014811557 0.76432717
-0.30299497 -0.014945941 0.77126181
-0.30303204 -0.015083043 0.77833676
-0.30306461 -0.015222425 0.78552932
-0.30309477 -0.015364251 0.79284805
-0.30312547 -0.015508744 0.80030441
-0.30315772 -0.015656032 0.80790496
-0.3031916 -0.015806198 0.81565404
-0.30322796 -0.015959365 0.82355803
-0.30326501 -0.016115533 0.83161676
-0.39248621 -0.011658006 0.73528051
-0.38985547 -0.011656809 0.73520494
-0.3872253 -0.011655611 0.73512942
-0.38459563 -0.011654412 0.73505384
-0.3819665 -0.011653216 0.73497832
-0.37933794 -0.011652018 0.7349028
-0.37670991 -0.011650821 0.73482734
-0.37408239 -0.011649624 0.73475182
-0.37145543 -0.011648428 0.73467636
-0.36882898 -0.011647232 0.7346009
-0.3662031 -0.011646035 0.73452544
-0.36357772 -0.011644838 0.73444998
-0.36095297 -0.011643644 0.73437464
-0.3583287 -0.011642449 0.73429924
-0.35570496 -0.011641253 0.73422384
-0.35308176 -0.011640059 0.7341485
-0.3504591 -0.011638863 0.7340731
-0.34783697 -0.011637668 0.73399776
-0.34521541 -0.011636475 0.73392248
-0.34259433 -0.011635279 0.73384708
-0.33997384 -0.011634086 0.7337718
-0.33735389 -0.011632892 0.73369652
-0.33473444 -0.011631698 0.73362124
-0.33211556 -0.011630506 0.73354602
-0.32949719 -0.011629312 0.73347074
-0.32687938 -0.01162812 0.73339552
-0.32426211 -0.011626928 0.73332036
-0.32164535 -0.011625735 0.73324513
-0.31902915 -0.011624544 0.73316997
-0.31641346 -0.011623351 0.73309475
-0.31379831 -0.01162216 0.73301959
-0.31118372 -0.011620969 0.73294449
-0.30856967 -0.011619778 0.73286939
-0.30595613 -0.011618587 0.73279428
-0.30334312 -0.011617396 0.73271918
-0.30135006 -0.011640131 0.73415309
-0.3013652 -0.011741501 0.74054658
-0.30138054 -0.011844651 0.74705231
-0.30139625 -0.01194963 0.75367349
-0.30141345 -0.012056538 0.76041621
-0.30143058 -0.012165359 0.76727968
-0.30144289 -0.012275955 0.77425504
-0.30147129 -0.012389231 0.78139943
-0.3014895 -0.012504173 0.7886489
-0.30150276 -0.012621046 0.79602021
-0.30151954 -0.012740263 0.80353934
-0.30153617 -0.012861733 0.81120056
-0.30155692 -0.012985704 0.81901956
-0.30157751 -0.013112065 0.82698923
-0.3898015 -0.0090651512 0.73510313
-0.38717169 -0.0090642199 0.73502761
-0.38454235 -0.0090632876 0.73495203
-0.3819136 -0.0090623563 0.73487651
-0.37928537 -0.009061425 0.73480099
-0.37665775 -0.0090604955 0.73472559
-0.37403062 -0.0090595651 0.73465014
-0.37140402 -0.0090586348 0.73457468
-0.36877793 -0.0090577034 0.73449922
-0.36615241 -0.009056773 0.73442376
-0.36352745 -0.0090558445 0.73434842
-0.36090302 -0.0090549141 0.73427302
-0.35827911 -0.0090539847 0.73419762
-0.35565579 -0.0090530561 0.73412234
-0.35303295 -0.0090521267 0.734047
-0.35041067 -0.0090511981 0.73397166
-0.3477889 -0.0090502687 0.73389632
-0.3451677 -0.0090493402 0.73382103
-0.34254694 -0.0090484098 0.73374557
-0.33992684 -0.0090474822 0.73367035
-0.33730724 -0.0090465536 0.73359507
-0.33468816 -0.009045626 0.73351979
-0.33206964 -0.0090446984 0.73344457
-0.32945165 -0.0090437708 0.73336935
-0.3268342 -0.0090428432 0.73329419
-0.32421729 -0.0090419156 0.73321897
-0.32160091 -0.009040989 0.73314381
-0.31898504 -0.0090400623 0.73306865
-0.31636977 -0.0090391366 0.73299354
-0.31375498 -0.009038209 0.73291838
-0.31114075 -0.0090372832 0.73284328
-0.30852708 -0.0090363575 0.73276824
-0.3059139 -0.0090354318 0.73269314
-0.30330127 -0.009034506 0.73261809
-0.30068919 -0.0090335803 0.73254305
-0.2998715 -0.0090870159 0.73687613
-0.29987377 -0.0091664465 0.74331731
-0.29987603 -0.0092472788 0.74987203
-0.29987845 -0.0093295518 0.7565437
-0.29988226 -0.0094133448 0.76333851
-0.29988557 -0.0094986381 0.77025509
-0.29989153 -0.0095855743 0.77730483
-0.29989818 -0.0096741347 0.78448629
-0.29989758 -0.0097641069 0.79178226
-0.29989895 -0.0098558348 0.7992205
-0.29990146 -0.0099493368 0.80680275
-0.2999042 -0.010044639 0.81453085
-0.29990867 -0.010141839 0.82241297
-0.29991326 -0.010240941 0.83044922
-0.38974753 -0.0064742113 0.73500133
-0.38711801 -0.0064735455 0.73492575
-0.38448912 -0.006472881 0.73485029
-0.38186073 -0.0064722155 0.73477477
-0.37923288 -0.006471551 0.73469931
-0.37660557 -0.0064708861 0.73462385
-0.37397879 -0.0064702216 0.73454839
-0.37135258 -0.0064695575 0.73447299
-0.36872688 -0.0064688926 0.73439753
-0.36610177 -0.006468229 0.73432219
-0.36347714 -0.006467565 0.73424679
-0.36085311 -0.0064669014 0.73417145
-0.35822955 -0.0064662374 0.73409605
-0.35560656 -0.0064655733 0.73402071
-0.3529841 -0.0064649102 0.73394543
-0.35036221 -0.0064642471 0.73387015
-0.3477408 -0.0064635836 0.73379481
-0.34666315 -0.0064918194 0.73700035
-0.34249961 -0.0064622569 0.73364419
-0.33987987 -0.0064615943 0.73356897
-0.3372606 -0.0064609312 0.73349369
-0.33464193 -0.0064602685 0.73341846
-0.33202377 -0.0064596068 0.7333433
-0.32940614 -0.0064589442 0.73326808
-0.32678908 -0.006458282 0.73319292
-0.32417253 -0.0064576198 0.73311776
-0.32155651 -0.0064569581 0.7330426
-0.31894103 -0.006456296 0.73296744
-0.31632608 -0.0064556343 0.73289233
-0.31371167 -0.006454973 0.73281723
-0.3110978 -0.0064543113 0.73274213
-0.30848449 -0.0064536501 0.73266709
-0.30587167 -0.0064529888 0.73259199
-0.3032594 -0.0064523276 0.73251694
-0.30064768 -0.0064516668 0.7324419
-0.29839256 -0.0064587137 0.73324192
-0.29838195 -0.0065148897 0.73961943
-0.29837114 -0.0065720514 0.74610889
-0.29836011 -0.0066302246 0.75271314
-0.29835311 -0.0066895313 0.75944608
-0.29833931 -0.006749758 0.76628345
-0.29832917 -0.006811168 0.77325523
-0.29832351 -0.0068738135 0.7803672
-0.29831135 -0.0069374731 0.78759432
-0.29829574 -0.0070022475 0.79494798
-0.29828224 -0.0070682992 0.80244666
-0.29826951 -0.0071356338 0.81009102
-0.29825822 -0.0072043044 0.81788701
-0.29824674 -0.0072743106 0.82583463
-0.38706443 -0.0038835895 0.734824
-0.38443586 -0.0038831905 0.73474848
-0.38180786 -0.0038827918 0.73467308
-0.3791804 -0.0038823932 0.73459762
-0.37655345 -0.0038819944 0.73452216
-0.37392703 -0.0038815956 0.7344467
-0.37130117 -0.003881197 0.7343713
-0.36867589 -0.0038807988 0.73429596
-0.36605111 -0.0038804004 0.73422056
-0.36342686 -0.0038800023 0.73414522
-0.36080316 -0.0038796037 0.73406982
-0.35817999 -0.0038792056 0.73399448
-0.35555741 -0.0038788079 0.73391926
-0.35293528 -0.0038784097 0.73384392
-0.35132486 -0.0038892049 0.73588651
-0.35085192 -0.003912847 0.74035984
-0.35037324 -0.0039367778 0.74488789
-0.34245232 -0.0038768186 0.73354286
-0.33983293 -0.0038764211 0.73346764
-0.33721402 -0.0038760232 0.73339236
-0.33459568 -0.0038756258 0.73331714
-0.33197787 -0.0038752281 0.73324192
-0.32936063 -0.0038748309 0.73316675
-0.3267439 -0.0038744337 0.73309159
-0.32412773 -0.0038740367 0.73301649
-0.32151207 -0.0038736395 0.73294133
-0.31889698 -0.0038732425 0.73286623
-0.31628239 -0.0038728458 0.73279113
-0.31366834 -0.0038724488 0.73271602
-0.31105486 -0.0038720521 0.73264098
-0.30844191 -0.0038716556 0.73256594
-0.30582947 -0.003871259 0.7324909
-0.30321756 -0.0038708623 0.73241585
-0.30060619 -0.003870466 0.73234087
-0.29799539 -0.0038700697 0.73226589
-0.29690486 -0.0038895833 0.7359581
-0.29688123 -0.0039235405 0.74238318
-0.29685715 -0.0039580953 0.74892139
-0.29683268 -0.0039932644 0.7555759
-0.29681116 -0.0040291105 0.76235843
-0.29678434 -0.0040655388 0.76925111
-0.29675841 -0.004102651 0.77627319
-0.29674008 -0.0041405591 0.78344589
-0.29670897 -0.0041789999 0.79071933
-0.29668123 -0.0042182165 0.79813963
-0.29665154 -0.0042581563 0.80569673
-0.29662582 -0.0042989249 0.8134107
-0.29659864 -0.004340468 0.82127112
-0.2965709 -0.0043828213 0.82928491
-0.38701084 -0.0012943506 0.73472226
-0.38438269 -0.0012942178 0.73464686
-0.38175502 -0.0012940848 0.7345714
-0.37912792 -0.0012939519 0.73449594
-0.37650132 -0.0012938189 0.73442048
-0.37387529 -0.0012936861 0.73434508
-0.37124982 -0.0012935534 0.73426974
-0.36862487 -0.0012934206 0.73419434
-0.36600047 -0.0012932878 0.734119
-0.36337659 -0.0012931551 0.73404366
-0.36075324 -0.0012930224 0.73396832
-0.35813048 -0.0012928898 0.73389304
-0.35597244 -0.0012944452 0.73477596
-0.35552847 -0.0013023021 0.73923582
-0.35507905 -0.0013102548 0.7437501
-0.35462415 -0.0013183054 0.74831986
-0.35416356 -0.0013264553 0.75294608
-0.35369733 -0.0013347069 0.75762999
-0.33978593 -0.0012919618 0.73336625
-0.33716744 -0.0012918293 0.73329103
-0.33454949 -0.0012916968 0.73321587
-0.33193207 -0.0012915644 0.73314071
-0.32931516 -0.001291432 0.73306555
-0.32669881 -0.0012912996 0.73299038
-0.324083 -0.0012911673 0.73291528
-0.3214677 -0.001291035 0.73284018
-0.31885296 -0.0012909027 0.73276508
-0.31623873 -0.0012907704 0.73268998
-0.31362507 -0.0012906381 0.73261493
-0.31101194 -0.001290506 0.73253989
-0.30839932 -0.0012903737 0.73246485
-0.30578727 -0.0012902417 0.73238987
-0.30317572 -0.0012901095 0.73231483
-0.30056474 -0.0012899773 0.73223984
-0.29795426 -0.0012898453 0.73216486
-0.29544237 -0.0012901414 0.73233294
-0.29540613 -0.0013013486 0.73869455
-0.29536927 -0.0013127523 0.74516773
-0.29533172 -0.0013243575 0.7517553
-0.29529354 -0.0013361698 0.7584604
-0.29525599 -0.001348201 0.76528972
-0.29521731 -0.0013604483 0.77224183
-0.29518408 -0.0013729492 0.77933776
-0.29514161 -0.0013856413 0.7865423
-0.29509735 -0.0013985656 0.79387861
-0.29505256 -0.0014117347 0.80135393
-0.29501122 -0.001425175 0.80898309
-0.29496863 -0.0014388714 0.81675768
-0.29492521 -0.0014528336 0.82468319
-0.38432944 0.0012940385 0.73454511
-0.38170218 0.0012939057 0.73446971
-0.37907544 0.0012937728 0.73439425
-0.37644923 0.00129364 0.73431885
-0.37382358 0.0012935072 0.73424351
-0.37119848 0.0012933745 0.73416817
-0.36857387 0.0012932416 0.73409277
-0.36594984 0.0012931089 0.73401743
-0.36332631 0.0012929762 0.73394209
-0.36070338 0.0012928437 0.73386687
-0.36019084 0.0013003279 0.73811519
-0.35977051 0.0013082564 0.7426157
-0.35934511 0.0013162824 0.74717158
-0.35891441 0.0013244074 0.75178361
-0.35847834 0.0013326332 0.75645292
-0.35803682 0.0013409619 0.76118058
-0.35758981 0.0013493955 0.76596779
-0.33973897 0.0012917832 0.73326486
-0.33712083 0.0012916507 0.7331897
-0.33450323 0.0012915183 0.73311454
-0.3318862 0.001291386 0.73303944
-0.32926971 0.0012912537 0.73296434
-0.32665369 0.0012911214 0.73288918
-0.32403824 0.001290989 0.73281407
-0.32142332 0.0012908567 0.73273897
-0.31880891 0.0012907244 0.73266387
-0.31619507 0.0012905921 0.73258883
-0.31358176 0.00129046 0.73251379
-0.310969 0.0012903278 0.73243874
-0.30835676 0.0012901957 0.73236376
-0.30574507 0.0012900636 0.73228878
-0.3031339 0.0012899315 0.7322138
-0.30052325 0.0012897993 0.73213881
-0.29791316 0.0012896674 0.73206389
-0.29530361 0.0012895354 0.73198897
-0.29394564 0.0012949147 0.73504245
-0.2938962 0.0013062053 0.74145144
-0.29384592 0.0013176948 0.74797326
-0.29379472 0.0013293879 0.75461072
-0.29374191 0.0013412872 0.76136523
-0.29369116 0.0013534154 0.76824969
-0.29363799 0.001365758 0.7752558
-0.29359034 0.0013783583 0.78240824
-0.29352906 0.0013911329 0.78965956
-0.2934722 0.0014041732 0.79706168
-0.29341409 0.0014174593 0.8046034
-0.29335645 0.0014310072 0.81229365
-0.29329774 0.0014448165 0.82013237
-0.29323789 0.001458895 0.82812387
-0.38427624 0.0038815781 0.73444343
-0.38164935 0.0038811797 0.73436803
-0.37902296 0.0038807811 0.73429263
-0.37639716 0.003880383 0.73421729
-0.37377188 0.0038799848 0.73414195
-0.37114713 0.0038795867 0.73406661
-0.36852288 0.0038791881 0.73399121
-0.36589924 0.0038787904 0.73391593
-0.36483908 0.003895079 0.73699796
-0.36444768 0.0039187926 0.74148482
-0.36405155 0.0039427965 0.74602669
-0.36365053 0.0039670966 0.7506246
-0.36324456 0.0039916984 0.75527954
-0.36283347 0.0040166066 0.75999248
-0.36241722 0.0040418277 0.76476467
-0.36199576 0.0040673679 0.76959717
-0.3615689 0.0040932326 0.77449113
-0.36113659 0.0041194288 0.77944773
-0.33707425 0.0038744167 0.73308837
-0.33445704 0.0038740197 0.73301327
-0.33184037 0.0038736227 0.73293817
-0.3292242 0.003873226 0.73286307
-0.32660857 0.003872829 0.73278797
-0.3239935 0.0038724325 0.73271292
-0.32137895 0.0038720355 0.73263782
-0.31876493 0.0038716388 0.73256278
-0.31615144 0.0038712423 0.73248774
-0.31353852 0.003870846 0.73241276
-0.31092611 0.0038704495 0.73233771
-0.30831423 0.0038700532 0.73226273
-0.30570292 0.0038696572 0.73218781
-0.30309209 0.0038692609 0.73211282
-0.30048183 0.0038688648 0.7320379
-0.2978721 0.0038684688 0.73196298
-0.2952629 0.003868073 0.73188806
-0.29265422 0.0038676769 0.73181313
-0.29243779 0.0038991706 0.73777211
-0.29237497 0.0039332951 0.74422896
-0.29231107 0.0039680232 0.75079995
-0.29224598 0.0040033697 0.75748789
-0.29218414 0.0040394119 0.76430756
-0.29211417 0.0040760115 0.77123266
-0.29205009 0.0041133813 0.7783035
-0.29198018 0.0041513769 0.78549272
-0.29190752 0.0041900598 0.79281205
-0.29183277 0.0042294608 0.80026716
-0.29176182 0.0042696851 0.80787814
-0.29168808 0.0043106615 0.81563139
-0.29161298 0.0043524327 0.82353503
-0.29153639 0.0043950211 0.83159328
-0.38159654 0.0064677377 0.7342664
-0.37897053 0.0064670742 0.73419106
-0.3763451 0.0064664106 0.73411572
-0.37372017 0.006465747 0.73404038
-0.37109578 0.006465083 0.73396504
-0.36947325 0.006481987 0.73588407
-0.36911064 0.0065213894 0.74035734
-0.36874366 0.0065612746 0.74488544
-0.36837211 0.0066016507 0.74946922
-0.36799598 0.0066425265 0.75410974
-0.36761513 0.0066839117 0.75880808
-0.36722955 0.0067258156 0.76356536
-0.36683908 0.0067682485 0.76838267
-0.36644363 0.0068112202 0.77326113
-0.36604315 0.0068547404 0.77820188
-0.36563757 0.0068988218 0.78320634
-0.36522666 0.0069434727 0.78827542
-0.3370277 0.0064564692 0.73298711
-0.33441085 0.0064558079 0.73291206
-0.33179453 0.0064551467 0.73283696
-0.32917875 0.006454485 0.73276186
-0.32656351 0.0064538242 0.73268682
-0.32394877 0.0064531625 0.73261172
-0.3213346 0.0064525022 0.73253673
-0.31872097 0.0064518414 0.73246175
-0.31610781 0.0064511802 0.73238665
-0.31349525 0.0064505194 0.73231167
-0.31088319 0.0064498591 0.73223668
-0.30827171 0.0064491988 0.7321617
-0.30566072 0.0064485385 0.73208678
-0.30305028 0.0064478782 0.7320118
-0.30044037 0.0064472184 0.73193687
-0.29783103 0.006446559 0.73186201
-0.29522216 0.0064458987 0.73178709
-0.29261386 0.0064452393 0.73171222
-0.29099375 0.0064665275 0.73412901
-0.29091865 0.0065228394 0.74052197
-0.29084229 0.0065801423 0.7470274
-0.29076451 0.0066384589 0.75364798
-0.29068542 0.0066978205 0.76038712
-0.29060775 0.0067583197 0.76725549
-0.2905252 0.0068198401 0.77423972
-0.29044896 0.0068826769 0.78137344
-0.2903583 0.0069463714 0.7886045
-0.29026911 0.0070113316 0.79597926
-0.29018444 0.0070776693 0.80351043
-0.29009604 0.0071452227 0.81117964
-0.29000598 0.0072140791 0.81899673
-0.28991419 0.0072842767 0.82696605
-0.38154379 0.0090535814 0.73416489
-0.37891811 0.009052651 0.73408949
-0.37629303 0.0090517225 0.73401415
-0.37409344 0.0090610869 0.73477358
-0.37375948 0.0091160843 0.73923337
-0.37342137 0.0091717532 0.74374759
-0.37307915 0.0092281066 0.74831736
-0.37273273 0.0092851566 0.75294363
-0.37238193 0.0093429154 0.75762737
-0.37202677 0.0094013987 0.76236981
-0.37166718 0.0094606187 0.76717204
-0.37130296 0.0095205884 0.77203506
-0.3709341 0.0095813237 0.77696013
-0.37056056 0.0096428394 0.78194851
-0.37018213 0.0097051496 0.78700131
-0.36979881 0.0097682709 0.79211986
-0.36941046 0.0098322174 0.79730541
-0.369017 0.0098970076 0.80255932
-0.33436468 0.0090368837 0.73281085
-0.33174872 0.009035957 0.73273575
-0.3291333 0.0090350313 0.73266071
-0.32651839 0.0090341056 0.73258561
-0.3239041 0.0090331817 0.73251069
-0.32129025 0.009032256 0.73243564
-0.31867695 0.0090313312 0.7323606
-0.31606421 0.0090304064 0.73228562
-0.31345201 0.0090294816 0.73221064
-0.31084034 0.0090285577 0.73213571
-0.30822918 0.0090276329 0.73206073
-0.30561858 0.009026709 0.73198581
-0.3030085 0.0090257851 0.73191088
-0.30039898 0.0090248622 0.73183602
-0.29778996 0.0090239383 0.7317611
-0.29518148 0.0090230145 0.73168623
-0.29257354 0.0090220915 0.73161137
-0.28996614 0.0090211686 0.73153657
-0.28947681 0.009086716 0.73685187
-0.28938818 0.009166142 0.74329257
-0.28929803 0.0092469687 0.74984694
-0.28920624 0.0093292333 0.75651783
-0.28911281 0.0094129751 0.76330858
-0.28902337 0.0094984211 0.77023745
-0.28891811 0.0095849605 0.77725506
-0.28882712 0.0096736355 0.78444582
-0.28872675 0.0097637065 0.79174978
-0.28862399 0.0098554539 0.79918963
-0.28852129 0.0099490099 0.80677623
-0.28841662 0.01004436 0.81450826
-0.28830996 0.010141556 0.82239002
-0.28820121 0.010240652 0.8304258
-0.37886572 0.011637514 0.73398799
-0.37839416 0.011702913 0.73811275
-0.3780849 0.01177427 0.74261332
-0.37777176 0.011846501 0.74716902
-0.37745482 0.011919626 0.75178105
-0.37713394 0.011993659 0.75645036
-0.37680903 0.012068616 0.76117802
-0.37648004 0.012144517 0.76596516
-0.37614685 0.012221378 0.77081281
-0.37580949 0.01229922 0.77572238
-0.37546775 0.012378057 0.78069472
-0.37512162 0.012457914 0.78573132
-0.37477097 0.012538806 0.79083323
-0.37441579 0.012620756 0.79600197
-0.37405589 0.012703785 0.80123866
-0.37369123 0.012787913 0.80654466
-0.37332171 0.012873163 0.81192142
-0.37294725 0.012959558 0.81737041
-0.33170292 0.011616056 0.7326346
-0.32908785 0.011614866 0.73255956
-0.32647333 0.011613675 0.73248452
-0.32385936 0.011612487 0.73240954
-0.32124591 0.011611298 0.73233455
-0.31863299 0.011610109 0.73225957
-0.31602061 0.01160892 0.73218459
-0.31340876 0.011607732 0.73210961
-0.31079748 0.011606544 0.73203474
-0.30818668 0.011605357 0.73195982
-0.30557641 0.011604168 0.73188484
-0.30296671 0.011602981 0.73180997
-0.30035752 0.011601793 0.73173505
-0.29774889 0.011600606 0.73166019
-0.2951408 0.01159942 0.73158538
-0.29253322 0.011598233 0.73151052
-0.28992617 0.011597047 0.73143572
-0.28804916 0.011625303 0.73321784
-0.28794858 0.011726413 0.73959494
-0.28784621 0.011829297 0.74608392
-0.28774208 0.011934004 0.75268787
-0.28763604 0.012040578 0.75940961
-0.28752673 0.012149017 0.76624894
-0.28741986 0.012259615 0.77322441
-0.28731027 0.012372212 0.78032607
-0.2871961 0.012486787 0.78755236
-0.28707847 0.012603445 0.79491013
-0.28696355 0.012722522 0.80242038
-0.28684458 0.012843788 0.81006873
-0.28672335 0.012967388 0.8178643
-0.28659979 0.013093391 0.82581145
-0.33165711 0.014195441 0.73253345
-0.32904243 0.014193987 0.73245841
-0.32642826 0.014192534 0.73238343
-0.32381466 0.014191081 0.73230845
-0.32120156 0.014189628 0.73223346
-0.318589 0.014188174 0.73215848
-0.31597701 0.014186722 0.73208356
-0.31336555 0.014185272 0.7320087
-0.3107546 0.01418382 0.73193377
-0.30814418 0.014182368 0.73185885
-0.3055343 0.014180917 0.73178399
-0.30292496 0.014179466 0.73170912
-0.30031615 0.014178016 0.73163426
-0.29770786 0.014176565 0.7315594
-0.29510012 0.014175115 0.73148459
-0.2924929 0.014173665 0.73140973
-0.28988624 0.014172216 0.73133498
-0.28728008 0.014170767 0.73126018
-0.28652322 0.014261337 0.7359339
-0.28640893 0.014385837 0.74235857
-0.28629261 0.01451253 0.7488963
-0.28617427 0.014641475 0.75555032
-0.28605381 0.014772731 0.76232362
-0.28593406 0.014906515 0.76922733
-0.28914821 0.015218327 0.7853179
-0.28724939 0.01526446 0.78769851
-0.28554976 0.015322181 0.79067713
-0.28542247 0.015466243 0.7981112
-0.28528962 0.015612864 0.80567735
-0.28515416 0.01576229 0.81338823
-0.28501609 0.015914604 0.82124817
-0.28487536 0.016069891 0.82926154
-0.32899705 0.016772399 0.73235738
-0.32638323 0.016770681 0.7322824
-0.32376999 0.016768964 0.73220742
-0.32115725 0.016767247 0.73213243
-0.31854507 0.016765529 0.73205751
-0.31593344 0.016763816 0.73198265
-0.31332234 0.0167621 0.73190773
-0.31071174 0.016760385 0.7318328
-0.30810168 0.016758669 0.73175794
-0.30549216 0.016756956 0.73168308
-0.30288318 0.01675524 0.73160821
-0.30027476 0.016753526 0.73153341
-0.29766685 0.016751815 0.7314586
-0.29505944 0.016750099 0.73138374
-0.2924526 0.016748386 0.73130894
-0.2898463 0.016746674 0.73123419
-0.28724048 0.01674496 0.73115933
-0.28511193 0.016771289 0.73230898
-0.28498593 0.016916974 0.73867017
-0.28485772 0.017065208 0.74514282
-0.28472731 0.01721607 0.75173002
-0.28459451 0.017369617 0.75843465
-0.28445935 0.017525932 0.76526004
-0.29054227 0.018072007 0.7891041
-0.28831732 0.018106885 0.790627
-0.28597754 0.01813516 0.79186165
-0.28389874 0.018180707 0.79385042
-0.2837514 0.01835208 0.80133331
-0.28360203 0.018526765 0.80896086
-0.28344977 0.018704807 0.81673497
-0.28329462 0.018886309 0.82466012
-0.32895163 0.019350095 0.73225629
-0.3263382 0.019348115 0.73218131
-0.32372531 0.019346135 0.73210639
-0.32111293 0.019344153 0.7320314
-0.31850111 0.019342173 0.73195648
-0.31588987 0.019340197 0.73188168
-0.31327909 0.019338217 0.73180676
-0.31066889 0.019336239 0.73173189
-0.30805922 0.01933426 0.73165703
-0.30545005 0.019332282 0.73158216
-0.30284145 0.019330306 0.73150742
-0.30023339 0.01932833 0.73143262
-0.29762584 0.019326353 0.73135781
-0.29501882 0.019324375 0.73128301
-0.29241231 0.019322399 0.73120821
-0.28980637 0.019320425 0.73113346
-0.28720093 0.019318448 0.73105866
-0.28459606 0.019316474 0.73098397
-0.283577 0.019423081 0.73501825
-0.28343713 0.019592429 0.74142683
-0.28329486 0.019764759 0.74794817
-0.28315008 0.019940145 0.75458527
-0.28300011 0.02011849 0.7613343
-0.2914623 0.020918347 0.79160291
-0.2890659 0.020946804 0.79267979
-0.28659877 0.020970643 0.79358184
-0.28406572 0.020990077 0.79431736
-0.28222904 0.021061867 0.79703408
-0.2820667 0.021261308 0.8045814
-0.28190061 0.021464515 0.81227124
-0.28173137 0.021671643 0.82010955
-0.28155881 0.02188281 0.82810056
-0.32629317 0.021924837 0.73208028
-0.32368064 0.021922592 0.73200536
-0.32106864 0.021920349 0.73193043
-0.31845722 0.021918109 0.73185563
-0.31584629 0.021915864 0.73178071
-0.31323591 0.021913623 0.73170584
-0.31062606 0.021911381 0.73163098
-0.30801672 0.021909138 0.73155612
-0.30540797 0.021906901 0.73148137
