# .PCD v0.7 - Point Cloud Data file format
VERSION 0.7
FIELDS x y z
SIZE 4 4 4
TYPE F F F
COUNT 1 1 1
WIDTH 759
HEIGHT 1
VIEWPOINT 0 0 0 1 0 0 0
POINTS 759
DATA ascii
-0.29918393 -0.46425092 1.1712282
-0.29525763 -0.46456617 1.1720235
-0.29132602 -0.46488193 1.1728201
-0.28738901 -0.46519804 1.1736176
-0.28353208 -0.46565488 1.1747701
-0.28071532 -0.46785885 1.1803304
-0.27787206 -0.47008434 1.1859449
-0.27500159 -0.47233099 1.1916128
-0.31468064 -0.45865217 1.1674811
-0.3107774 -0.45896265 1.1682714
-0.30686885 -0.45927355 1.1690627
-0.30295506 -0.45958486 1.1698552
-0.29903594 -0.45989662 1.1706488
-0.29511148 -0.4602088 1.1714435
-0.29118168 -0.46052137 1.1722391
-0.28724656 -0.46083441 1.1730359
-0.28330606 -0.46114784 1.1738337
-0.28011507 -0.46270856 1.1778065
-0.277275 -0.46490467 1.1833966
-0.27440786 -0.46712181 1.1890402
-0.27151331 -0.46936023 1.194738
-0.26859084 -0.47162011 1.2004905
-0.26564008 -0.47390193 1.2062987
-0.32262024 -0.4541342 1.1664422
-0.31842163 -0.4540076 1.166117
-0.31452549 -0.45431456 1.1669054
-0.31062406 -0.45462194 1.1676949
-0.30671734 -0.45492977 1.1684855
-0.30280536 -0.45523798 1.1692772
-0.29888806 -0.45554662 1.1700699
-0.29496545 -0.45585567 1.1708637
-0.29103753 -0.45616519 1.1716588
-0.28710425 -0.45647511 1.1724547
-0.2831656 -0.45678541 1.1732517
-0.27951798 -0.45758128 1.1752959
-0.2766805 -0.45974728 1.1808593
-0.27381673 -0.4619351 1.1864787
-0.27092558 -0.46414381 1.1921518
-0.26800668 -0.46637383 1.1978796
-0.26505956 -0.46862531 1.2036625
-0.26208383 -0.47089857 1.2095014
-0.32773411 -0.45140737 1.1700268
-0.32285395 -0.45035043 1.1672872
-0.31826475 -0.44967729 1.1655425
-0.31437042 -0.44998121 1.1663302
-0.31047085 -0.45028555 1.167119
-0.306566 -0.45059028 1.1679089
-0.30265582 -0.4508954 1.1686997
-0.29874033 -0.45120093 1.1694916
-0.29481959 -0.45150691 1.1702847
-0.2908935 -0.45181331 1.1710789
-0.28696206 -0.45212007 1.171874
-0.28302529 -0.4524273 1.1726704
-0.27908319 -0.45273495 1.1734678
-0.27608901 -0.45461276 1.178335
-0.27322811 -0.45677066 1.1839281
-0.27034041 -0.45894998 1.1895769
-0.267425 -0.4611502 1.1952797
-0.26448151 -0.4633716 1.2010375
-0.26150957 -0.46561462 1.2068512
-0.33287951 -0.44866368 1.1736333
-0.32797226 -0.44760996 1.170877
-0.32308799 -0.44656113 1.1681334
-0.31822658 -0.44551721 1.1654027
-0.31421557 -0.44565213 1.1657556
-0.31031781 -0.44595343 1.1665437
-0.30641475 -0.44625506 1.1673328
-0.30250642 -0.4465571 1.1681229
-0.29859281 -0.44685957 1.1689141
-0.29467383 -0.44716239 1.1697062
-0.29074958 -0.44746569 1.1704996
-0.28682005 -0.4477694 1.1712941
-0.28288513 -0.44807351 1.1720896
-0.27894482 -0.448378 1.172886
-0.27550024 -0.44950038 1.175822
-0.27264228 -0.45162883 1.1813897
-0.26975775 -0.45377854 1.187013
-0.26684588 -0.45594928 1.1926913
-0.263906 -0.45814085 1.1984241
-0.26093778 -0.46035364 1.2042124
-0.33805671 -0.44590303 1.1772623
-0.33312213 -0.44485253 1.1744888
-0.32821074 -0.44380701 1.1717284
-0.32332239 -0.44276634 1.1689808
-0.31845686 -0.4417305 1.1662461
-0.31406084 -0.44132733 1.1651816
-0.3101649 -0.44162554 1.1659689
-0.30626366 -0.44192407 1.1667571
-0.30235717 -0.44222307 1.1675465
-0.29844537 -0.44252247 1.168337
-0.29452828 -0.44282222 1.1691284
-0.29060584 -0.44312239 1.1699209
-0.28667814 -0.44342303 1.1707146
-0.28274506 -0.44372401 1.1715093
-0.27880669 -0.44402546 1.1723051
-0.274914 -0.44440982 1.1733199
-0.27205938 -0.44650966 1.1788639
-0.26917765 -0.44862941 1.1844604
-0.26626927 -0.4507708 1.190114
-0.26333299 -0.45293278 1.195822
-0.2603685 -0.45511565 1.2015852
-0.25737521 -0.45731959 1.207404
-0.34326607 -0.44312531 1.1809138
-0.33830392 -0.44207811 1.1781231
-0.33336511 -0.44103581 1.1753454
-0.32844958 -0.43999848 1.172581
-0.32355708 -0.43896598 1.1698294
-0.31868753 -0.43793836 1.1670908
-0.31390622 -0.43700671 1.164608
-0.31001216 -0.4373019 1.1653947
-0.30611274 -0.43759739 1.1661822
-0.3022081 -0.43789336 1.1669708
-0.29829809 -0.4381896 1.1677604
-0.29438284 -0.43848631 1.1685511
-0.29046226 -0.43878344 1.1693429
-0.28653637 -0.43908089 1.1701356
-0.28260517 -0.43937886 1.1709297
-0.27866861 -0.43967712 1.1717246
-0.27472669 -0.43997586 1.1725206
-0.27147895 -0.44141233 1.1763488
-0.26860064 -0.44350338 1.1819214
-0.26569512 -0.44561467 1.1875479
-0.26276249 -0.44774729 1.1932312
-0.25980166 -0.44990042 1.1989692
-0.25681221 -0.45207438 1.2047628
-0.35352162 -0.44137904 1.1874095
-0.34850782 -0.44033024 1.184588
-0.34351781 -0.43928641 1.1817799
-0.3385514 -0.43824753 1.178985
-0.33360845 -0.43721354 1.1762034
-0.32868874 -0.43618444 1.1734349
-0.32379216 -0.43516019 1.1706793
-0.31891853 -0.43414068 1.1679367
-0.31406763 -0.43312594 1.1652068
-0.30985951 -0.4329825 1.1648209
-0.30596191 -0.43327492 1.1656076
-0.30205911 -0.43356782 1.1663955
-0.29815099 -0.43386108 1.1671845
-0.29423755 -0.43415469 1.1679744
-0.29031879 -0.43444869 1.1687653
-0.28639475 -0.43474311 1.1695573
-0.2824654 -0.43503797 1.1703506
-0.27853069 -0.43533316 1.1711447
-0.27459064 -0.43562877 1.17194
-0.27090096 -0.43633667 1.1738443
-0.26802611 -0.43839929 1.1793933
-0.26512393 -0.44048148 1.1849948
-0.26219442 -0.44258416 1.1906515
-0.25923732 -0.4447079 1.1963649
-0.25625166 -0.44685209 1.2021332
-0.2532371 -0.44901702 1.2079574
-0.35515139 -0.43921089 1.1928836
-0.34876421 -0.43647739 1.1854595
-0.34376991 -0.43544188 1.1826471
-0.3387993 -0.43441138 1.1798483
-0.33385211 -0.43338567 1.1770625
-0.32892826 -0.43236482 1.1742899
-0.32402754 -0.43134877 1.1715304
-0.31914982 -0.43033752 1.1687838
-0.3142949 -0.42933095 1.16605
-0.30970705 -0.42866737 1.1642478
-0.30581132 -0.42895681 1.1650338
-0.30191028 -0.42924657 1.1658208
-0.29800397 -0.42953673 1.1666089
-0.29409239 -0.42982736 1.1673982
-0.2901755 -0.43011826 1.1681883
-0.2862533 -0.43040961 1.1689796
-0.28232574 -0.43070132 1.1697719
-0.27839291 -0.43099347 1.1705654
-0.27445474 -0.43128601 1.1713599
-0.27051121 -0.43157896 1.1721555
-0.267454 -0.43331695 1.1768758
-0.26455534 -0.43537059 1.1824535
-0.26162907 -0.43744379 1.1880842
-0.25867537 -0.43953785 1.1937716
-0.25569355 -0.44165251 1.199515
-0.25268289 -0.4437876 1.2053138
-0.34902114 -0.43261901 1.1863327
-0.34402242 -0.43159175 1.1835158
-0.33904752 -0.43056956 1.1807127
-0.33409622 -0.42955226 1.1779231
-0.32916817 -0.42853966 1.1751463
-0.3242633 -0.42753187 1.1723827
-0.31938148 -0.42652878 1.1696321
-0.31452248 -0.4255304 1.1668943
-0.30968621 -0.42453673 1.1641694
-0.30566078 -0.42464286 1.1644604
-0.30176157 -0.42492956 1.1652466
-0.29785714 -0.42521673 1.1660341
-0.29394734 -0.42550421 1.1668224
-0.2900323 -0.42579213 1.167612
-0.28611198 -0.42608044 1.1684026
-0.28218627 -0.42636904 1.169194
-0.27825528 -0.42665809 1.1699866
-0.27431893 -0.4269475 1.1707803
-0.27037728 -0.42723739 1.1715752
-0.26688439 -0.42825633 1.1743693
-0.26398918 -0.43028161 1.1799231
-0.26106656 -0.43232623 1.1855298
-0.25811595 -0.43439028 1.1911899
-0.25513786 -0.43647552 1.1969081
-0.25213107 -0.43858096 1.2026817
-0.34927848 -0.42875502 1.1872075
-0.34427547 -0.42773619 1.1843864
-0.33929616 -0.42672214 1.1815785
-0.33434057 -0.42571315 1.1787846
-0.32940838 -0.4247089 1.1760039
-0.3244994 -0.42370942 1.1732364
-0.31961346 -0.42271456 1.1704817
-0.31475043 -0.42172441 1.16774
-0.30991009 -0.42073888 1.165011
-0.3055104 -0.42033312 1.1638875
-0.30161303 -0.42061684 1.1646731
-0.29771042 -0.42090091 1.1654598
-0.29380247 -0.42118537 1.1662474
-0.28988925 -0.4214702 1.1670361
-0.28597078 -0.42175546 1.1678259
-0.28204694 -0.42204103 1.1686167
-0.27811781 -0.42232701 1.1694086
-0.2741833 -0.42261335 1.1702014
-0.2702435 -0.42290014 1.1709955
-0.26631716 -0.42321721 1.1718735
-0.2634255 -0.42521438 1.1774036
-0.26050639 -0.42723048 1.182986
-0.25755954 -0.42926589 1.188622
-0.25458461 -0.43132105 1.1943127
-0.2515817 -0.43339705 1.2000611
-0.24854976 -0.43549317 1.2058651
-0.3534207 -0.42960721 1.201287
-0.34452891 -0.42387497 1.1852583
-0.33954531 -0.42286932 1.1824462
-0.33458537 -0.4218685 1.1796477
-0.32964897 -0.42087257 1.1768628
-0.32473582 -0.41988134 1.1740911
-0.31984577 -0.4188948 1.1713325
-0.31497869 -0.4179129 1.1685869
-0.31013432 -0.41693556 1.165854
-0.3053602 -0.41602767 1.1633153
-0.30146465 -0.41630831 1.1641001
-0.29756382 -0.41658935 1.1648859
-0.29365772 -0.41687074 1.1656728
-0.28974634 -0.41715255 1.1664608
-0.28582966 -0.41743469 1.1672497
-0.28190771 -0.41771725 1.1680398
-0.27798042 -0.41800019 1.168831
-0.27404779 -0.41828346 1.169623
-0.27010983 -0.41856718 1.1704164
-0.26616651 -0.41885117 1.1712105
-0.26286417 -0.42016873 1.1748947
-0.25994867 -0.42215663 1.1804534
-0.25700548 -0.42416349 1.1860651
-0.25403419 -0.42618957 1.1917305
-0.25103471 -0.42823565 1.1974518
-0.24800676 -0.43030232 1.2032307
-0.34478268 -0.42000797 1.1861312
-0.33979487 -0.41901085 1.1833153
-0.33483067 -0.4180184 1.1805125
-0.32988992 -0.41703063 1.1777231
-0.3249726 -0.41604775 1.1749473
-0.32007846 -0.41506949 1.1721846
-0.31520727 -0.41409582 1.1694349
-0.31035888 -0.41312671 1.1666981
-0.30553314 -0.41216213 1.163974
-0.30131641 -0.41200405 1.1635276
-0.29741737 -0.41228202 1.1643126
-0.29351312 -0.4125604 1.1650988
-0.28960356 -0.41283914 1.1658859
-0.28568873 -0.41311824 1.1666741
-0.28176862 -0.41339776 1.1674635
-0.27784318 -0.41367763 1.1682539
-0.2739124 -0.41395783 1.1690452
-0.26997632 -0.41423845 1.1698377
-0.26603484 -0.41451943 1.1706312
-0.26230526 -0.41514453 1.1723965
-0.25939336 -0.41710451 1.1779317
-0.25645381 -0.41908306 1.1835192
-0.25348628 -0.4210805 1.1891601
-0.25049031 -0.42309707 1.1948551
-0.2474661 -0.42513406 1.2006077
-0.24441288 -0.42719123 1.2064172
-0.34647763 -0.417873 1.1919622
-0.34004477 -0.41514668 1.1841855
-0.33507633 -0.41416267 1.1813787
-0.33013141 -0.41318333 1.1785852
-0.32520977 -0.41220859 1.1758047
-0.32031146 -0.41123858 1.1730379
-0.31543618 -0.41027319 1.1702842
-0.31058371 -0.40931231 1.1675433
-0.30575398 -0.40835598 1.1648154
-0.30116829 -0.40770403 1.1629558
-0.29727113 -0.40797898 1.16374
-0.29336867 -0.4082543 1.1645254
-0.28946093 -0.40852997 1.1653117
-0.28554794 -0.40880606 1.1660992
-0.28162965 -0.4090825 1.1668878
-0.27770606 -0.40935928 1.1676773
-0.27377716 -0.4096365 1.168468
-0.26984289 -0.40991402 1.1692597
-0.26590332 -0.41019195 1.1700524
-0.26195839 -0.41047025 1.1708462
-0.25884038 -0.41207388 1.1754205
-0.25590453 -0.41402438 1.1809843
-0.25294077 -0.41599348 1.186601
-0.24994868 -0.41798142 1.1922715
-0.24692784 -0.41998839 1.1979963
-0.24387866 -0.42201611 1.2037803
-0.3516655 -0.41986731 1.2098098
-0.34029505 -0.41127685 1.1850572
-0.33532235 -0.41030127 1.1822461
-0.33037323 -0.40933034 1.1794485
-0.32544747 -0.40836403 1.1766641
-0.3205449 -0.40740222 1.1738927
-0.31566542 -0.40644503 1.1711347
-0.31080893 -0.40549245 1.1683899
-0.30597514 -0.40454432 1.165658
-0.30116391 -0.40360063 1.1629388
-0.29712498 -0.40368015 1.163168
-0.29322433 -0.40395242 1.1639525
-0.28931844 -0.40422505 1.1647381
-0.2854073 -0.4044981 1.1655248
-0.2814908 -0.40477145 1.1663125
-0.27756906 -0.40504521 1.1671013
-0.27364203 -0.40531939 1.1678913
-0.26970965 -0.4055939 1.1686822
-0.26577187 -0.40586868 1.169474
-0.26182881 -0.40614387 1.170267
-0.25828978 -0.40706471 1.1729202
-0.25535759 -0.40898737 1.1784602
-0.25239757 -0.41092828 1.1840528
-0.24940935 -0.41288775 1.1896988
-0.24639249 -0.41486597 1.1953989
-0.24334678 -0.41686362 1.2011549
-0.24027219 -0.41888162 1.2069696
-0.34054565 -0.40740126 1.1859299
-0.33556876 -0.40643421 1.1831149
-0.3306154 -0.40547174 1.1803131
-0.32568547 -0.40451378 1.1775246
-0.32077876 -0.4035604 1.1747493
-0.31589514 -0.40261146 1.1719869
-0.31103444 -0.40166697 1.1692376
-0.30619663 -0.40072712 1.1665018
-0.30138141 -0.39979166 1.1637787
-0.29697898 -0.39938551 1.1625963
-0.29308015 -0.39965478 1.1633801
-0.28917611 -0.3999244 1.164165
-0.28526676 -0.40019438 1.164951
-0.28135213 -0.40046471 1.1657379
-0.27743223 -0.40073544 1.166526
-0.273507 -0.40100652 1.167315
-0.26957649 -0.40127799 1.1681052
-0.26564062 -0.40154979 1.1688964
-0.26169938 -0.40182191 1.1696886
-0.25775284 -0.40209442 1.1704819
-0.25481299 -0.40397182 1.175947
-0.25185674 -0.40588486 1.1815157
-0.24887237 -0.40781605 1.1871374
-0.24585946 -0.40976578 1.1928129
-0.24281761 -0.41173422 1.198543
-0.23974679 -0.41372234 1.2043303
-0.34468767 -0.40812713 1.2003542
-0.33581549 -0.40256143 1.1839848
-0.33085793 -0.40160742 1.1811789
-0.3259238 -0.40065792 1.1783863
-0.32101294 -0.39971289 1.1756068
-0.31612518 -0.3987723 1.1728405
-0.31126043 -0.39783618 1.1700872
-0.30641845 -0.39690444 1.1673468
-0.30159923 -0.39597723 1.1646198
-0.29683313 -0.39509514 1.1620255
-0.29293615 -0.39536136 1.1628084
-0.28903389 -0.39562795 1.1635925
-0.28512636 -0.39589489 1.1643776
-0.28121358 -0.39616218 1.1651638
-0.27729553 -0.3964299 1.1659511
-0.27337211 -0.39669788 1.1667393
-0.26944348 -0.39696634 1.1675289
-0.26550946 -0.39723507 1.1683192
-0.26157013 -0.39750418 1.1691108
-0.25762543 -0.39777365 1.1699033
-0.2542707 -0.39897761 1.1734443
-0.25131822 -0.40086293 1.1789893
-0.2483377 -0.4027662 1.184587
-0.24532872 -0.40468755 1.190238
-0.24229093 -0.40662739 1.1959432
-0.23922388 -0.40858591 1.2017035
-0.33606261 -0.39868298 1.1848561
-0.33110082 -0.39773747 1.1820461
-0.32616252 -0.39679644 1.1792494
-0.32124752 -0.39585984 1.1764659
-0.31635565 -0.39492762 1.1736954
-0.31148678 -0.39399984 1.1709381
-0.30664071 -0.39307636 1.1681936
-0.30181739 -0.39215729 1.1654621
-0.29701668 -0.39124265 1.1627439
-0.29279226 -0.39107218 1.1622373
-0.28889179 -0.3913357 1.1630205
-0.28498614 -0.39159963 1.1638049
-0.28107518 -0.39186394 1.1645904
-0.27715892 -0.39212856 1.1653768
-0.27323738 -0.39239353 1.1661643
-0.26931056 -0.39265892 1.166953
-0.26537842 -0.39292461 1.1677426
-0.26179853 -0.39372849 1.1701317
-0.25844011 -0.39489648 1.1736028
-0.2550613 -0.39607078 1.1770928
-0.25166225 -0.39725199 1.1806033
-0.24824294 -0.39844036 1.184135
-0.24480306 -0.39963576 1.1876876
-0.24176653 -0.40154266 1.1933548
-0.23870364 -0.40347254 1.1990902
-0.23561116 -0.40542102 1.204881
-0.33781648 -0.3965672 1.1910397
-0.33134407 -0.39386183 1.1829145
-0.32640156 -0.39292929 1.1801137
-0.32148239 -0.39200112 1.1773261
-0.31658641 -0.39107734 1.1745516
-0.31171346 -0.39015791 1.1717902
-0.30686337 -0.38924277 1.1690418
-0.30203599 -0.38833198 1.1663063
-0.29723111 -0.38742536 1.1635834
-0.29264849 -0.38678718 1.1616666
-0.28874987 -0.38704771 1.1624491
-0.28484601 -0.3873086 1.1632327
-0.2809369 -0.3875699 1.1640174
-0.27702248 -0.38783145 1.164803
-0.27370924 -0.38895527 1.1681782
-0.27039167 -0.39010707 1.1716375
-0.26705441 -0.39126575 1.1751175
-0.26369727 -0.39243138 1.1786183
-0.26032007 -0.39360395 1.18214
-0.25692198 -0.39478257 1.1856798
-0.25350374 -0.39596865 1.189242
-0.25006482 -0.39716178 1.1928254
-0.24660513 -0.39836213 1.1964306
-0.24312446 -0.39956975 1.2000575
-0.23962261 -0.4007847 1.2037065
-0.23609941 -0.4020071 1.2073778
-0.34287244 -0.39824313 1.2088654
-0.3315877 -0.38998049 1.1837842
-0.32664096 -0.38905644 1.1809793
-0.32171765 -0.38813677 1.1781876
-0.31681752 -0.38722143 1.1754091
-0.31194049 -0.3863104 1.1726437
-0.30708635 -0.38540366 1.1698912
-0.30225492 -0.38450116 1.1671517
-0.29744607 -0.38360286 1.1644249
-0.29265964 -0.38270876 1.1617109
-0.28883785 -0.38306865 1.1628033
-0.28558019 -0.38419783 1.1662309
-0.2823033 -0.38533372 1.1696789
-0.27900696 -0.38647628 1.1731472
-0.275691 -0.38762569 1.1766362
-0.27235526 -0.38878193 1.180146
-0.26899958 -0.38994512 1.1836768
-0.26562375 -0.39111528 1.1872288
-0.26222736 -0.39229211 1.1908011
-0.25881007 -0.39347547 1.1943932
-0.25537229 -0.39466625 1.1980078
-0.25191361 -0.39586425 1.2016443
-0.2484339 -0.39706957 1.2053031
-0.24493293 -0.39828226 1.2089841
-0.24141051 -0.39950234 1.2126877
-0.23786689 -0.40073073 1.2164165
-0.33183163 -0.38609341 1.1846551
-0.32688069 -0.38517791 1.181846
-0.32195324 -0.38426676 1.1790503
-0.31704897 -0.38335988 1.1762677
-0.31216782 -0.38245726 1.1734983
-0.30730963 -0.38155895 1.1707419
-0.30247417 -0.38066477 1.1679983
-0.29766136 -0.37977484 1.1652677
-0.29417485 -0.38057584 1.1677254
-0.29091948 -0.3817029 1.1711836
-0.28764448 -0.38283616 1.1746608
-0.28434995 -0.38397622 1.1781589
-0.28103572 -0.38512304 1.1816777
-0.27770168 -0.38627678 1.1852177
-0.2743476 -0.38743743 1.188779
-0.27097329 -0.38860509 1.1923617
-0.26757857 -0.38977981 1.1959661
-0.26416257 -0.3909606 1.1995891
-0.26072609 -0.392149 1.2032355
-0.25726861 -0.39334458 1.2069039
-0.25378999 -0.39454746 1.2105948
-0.25029004 -0.39575773 1.2143083
-0.24676853 -0.39697546 1.2180446
-0.24322577 -0.39820147 1.2218064
-0.2396611 -0.39943516 1.2255918
-0.33596703 -0.38667905 1.1994187
-0.32712084 -0.38129371 1.1827142
-0.32218915 -0.38039106 1.1799144
-0.31728077 -0.3794927 1.1771277
-0.31239551 -0.37859854 1.1743542
-0.3075332 -0.37770858 1.1715937
-0.30279085 -0.37694371 1.1692212
-0.29955688 -0.37806144 1.1726882
-0.29630369 -0.37918586 1.176176
-0.29303107 -0.38031694 1.1796844
-0.28973877 -0.38145462 1.1832134
-0.28642645 -0.38259885 1.1867626
-0.28309426 -0.38374999 1.1903332
-0.27974191 -0.38490802 1.1939253
-0.27636924 -0.38607308 1.1975391
-0.27297616 -0.38724527 1.201175
-0.26956239 -0.38842455 1.2048329
-0.26612681 -0.38960966 1.208509
-0.2626707 -0.39080271 1.2122097
-0.2591933 -0.39200309 1.2159331
-0.25569448 -0.39321086 1.2196794
-0.25217408 -0.39442614 1.223449
-0.24863201 -0.39564919 1.2272427
-0.24506858 -0.39688098 1.2310635
-0.24148259 -0.39811993 1.2349066
-0.34102619 -0.3882122 1.2174801
-0.32736129 -0.3774038 1.1835836
-0.32242543 -0.37650967 1.1807796
-0.3175129 -0.37561983 1.1779889
-0.31262353 -0.37473416 1.1752113
-0.30821648 -0.37441063 1.1741967
-0.3049849 -0.37552562 1.1776935
-0.30173394 -0.3766472 1.1812109
-0.29846355 -0.37777555 1.1847495
-0.29517353 -0.37891069 1.1883094
-0.29186383 -0.38005289 1.1918916
-0.28853357 -0.38120127 1.195493
-0.28518313 -0.38235664 1.1991163
-0.28181234 -0.38351905 1.2027618
-0.27842098 -0.38468856 1.2064295
-0.27500889 -0.38586521 1.2101196
-0.27157632 -0.3870497 1.2138344
-0.26812047 -0.38823843 1.2175623
-0.2646445 -0.38943622 1.2213187
-0.26114702 -0.39064142 1.2250984
-0.25762784 -0.39185411 1.2289015
-0.25408718 -0.39307502 1.2327305
-0.25052455 -0.39430383 1.2365842
-0.24693951 -0.39554027 1.2404618
-0.24333192 -0.39678448 1.2443638
-0.34623298 -0.38978431 1.2360686
-0.32916877 -0.37529433 1.1901186
-0.32266206 -0.37262264 1.1816462
-0.31774539 -0.37174135 1.1788515
-0.31368852 -0.37185591 1.1792148
-0.31045941 -0.37296799 1.1827414
-0.30721095 -0.3740868 1.1862893
-0.30394292 -0.37521231 1.1898584
-0.30065519 -0.37634459 1.1934491
-0.29734755 -0.37748379 1.1970617
-0.29401967 -0.37862965 1.2006954
-0.29067189 -0.37978294 1.2043527
-0.28730306 -0.38094258 1.2080301
-0.28391364 -0.38210934 1.2117301
-0.28050333 -0.3832832 1.2154526
-0.27707207 -0.38446435 1.2191982
-0.27361724 -0.38564947 1.2229564
-0.27014419 -0.38684648 1.2267523
-0.2666482 -0.38804901 1.2305657
-0.2631304 -0.38925904 1.2344029
-0.25959119 -0.39047751 1.2382668
-0.25602967 -0.39170352 1.2421547
-0.25244579 -0.39293733 1.2460674
-0.24883923 -0.39417896 1.2500048
-0.24520986 -0.39542851 1.2539673
-0.35159194 -0.39139482 1.2552004
-0.33408594 -0.37664464 1.2078967
-0.32289901 -0.36872983 1.182514
-0.31920746 -0.36927924 1.1842759
-0.31598106 -0.37038839 1.187833
-0.3127352 -0.37150422 1.1914114
-0.30946973 -0.37262681 1.1950115
-0.30618444 -0.3737562 1.1986334
-0.30287918 -0.37489241 1.2022773
-0.29955381 -0.37603563 1.2059436
-0.29620805 -0.37718579 1.2096322
-0.29284081 -0.37834176 1.2133393
-0.28945479 -0.37950739 1.2170775
-0.28604648 -0.38067842 1.2208329
-0.28261715 -0.38185674 1.2246119
-0.27916649 -0.38304237 1.2284142
-0.27569464 -0.38423586 1.2322416
-0.27219868 -0.38543335 1.236082
-0.26868248 -0.38664064 1.2399538
-0.2651442 -0.38785556 1.24385
-0.26158464 -0.38907966 1.2477757
-0.25800204 -0.39031076 1.2517239
-0.25439674 -0.39154974 1.2556973
-0.25076842 -0.39279655 1.2596958
-0.24711698 -0.3940514 1.26372
-0.33915183 -0.37803549 1.2262126
-0.32477427 -0.36668062 1.1893815
-0.32155046 -0.36778647 1.1929685
-0.31830737 -0.36889929 1.196578
-0.31504461 -0.37001884 1.2002095
-0.31176198 -0.37114522 1.203863
-0.30845928 -0.37227845 1.2075388
-0.30513638 -0.37341863 1.2112372
-0.30179304 -0.37456584 1.2149583
-0.2984291 -0.37572008 1.2187023
-0.29504469 -0.3768819 1.2224708
-0.29163897 -0.37805051 1.2262614
-0.28821167 -0.37922588 1.2300738
-0.28476301 -0.38040861 1.2339102
-0.2812928 -0.38159874 1.2377706
-0.27779916 -0.38279414 1.241648
-0.27428469 -0.38399854 1.2455547
-0.27074802 -0.38521057 1.2494861
-0.26718867 -0.38642991 1.2534411
-0.26360899 -0.38766026 1.257432
-0.26000506 -0.38889644 1.2614417
-0.25637805 -0.39014053 1.2654771
-0.25272778 -0.39139259 1.2695383
-0.24905398 -0.39265269 1.2736256
-0.34437054 -0.37946561 1.2450809
-0.32725409 -0.3652578 1.1984631
-0.32392871 -0.36627233 1.2017919
-0.32066885 -0.36738878 1.2054552
-0.31738752 -0.36851037 1.2091352
-0.31408843 -0.36964151 1.2128466
-0.31076816 -0.37077859 1.2165775
-0.30742747 -0.37192273 1.2203317
-0.30406603 -0.37307394 1.2241089
-0.30068377 -0.37423229 1.2279097
-0.2972804 -0.37539789 1.2317342
-0.29385379 -0.3765682 1.2355741
-0.29040989 -0.3777512 1.2394557
-0.28694171 -0.37893829 1.2433507
-0.28345278 -0.38013434 1.2472751
-0.27993774 -0.38133252 1.2512065
-0.27640292 -0.38254163 1.2551738
-0.27284911 -0.3837634 1.2591826
-0.26926729 -0.38498548 1.2631924
-0.26566494 -0.38621876 1.267239
-0.26203939 -0.38745996 1.2713115
-0.25839049 -0.38870919 1.2754104
-0.25471798 -0.38996649 1.2795358
-0.25102159 -0.39123186 1.2836877
-0.34974009 -0.38092712 1.2644948
-0.33217701 -0.36646625 1.2164917
-0.3263422 -0.36473539 1.210746
-0.32306537 -0.36585549 1.2144642
-0.31976834 -0.36698246 1.2182052
-0.31645095 -0.36811641 1.2219694
-0.31311047 -0.36925441 1.225747
-0.30975318 -0.37040415 1.2295636
-0.30637351 -0.37155935 1.2333983
-0.30297267 -0.37272179 1.237257
-0.29955053 -0.37389153 1.24114
-0.29610696 -0.37506881 1.245048
-0.29264161 -0.37625352 1.2489806
-0.28915402 -0.37744534 1.252937
-0.28563988 -0.37863889 1.256899
-0.2821095 -0.37984821 1.2609134
-0.27855563 -0.38106412 1.2649496
-0.27497768 -0.38228604 1.2690058
-0.27137706 -0.38351634 1.2730898
-0.26775315 -0.38475454 1.2772
-0.2641058 -0.38600078 1.2813369
-0.26043475 -0.38725513 1.2855008
-0.25673977 -0.38851768 1.2896918
-0.25302047 -0.3897883 1.2939097
-0.33725035 -0.36771169 1.2350712
-0.32879189 -0.36317536 1.2198346
-0.32549798 -0.36429906 1.2236089
-0.32218361 -0.36542973 1.2274065
-0.31884858 -0.3665674 1.2312278
-0.31549272 -0.36771223 1.235073
-0.31211421 -0.36886224 1.2389357
-0.30871594 -0.37002122 1.2428285
-0.30529672 -0.37118807 1.2467477
-0.30185556 -0.37236196 1.2506906
-0.29839185 -0.3735424 1.2546554
-0.29490614 -0.37473035 1.2586455
-0.29140073 -0.37592921 1.2626722
-0.28786755 -0.37712881 1.2667015
-0.28431562 -0.37834123 1.2707738
-0.28074086 -0.37956166 1.2748729
-0.27714217 -0.38078886 1.2789948
-0.27351725 -0.38201994 1.2831298
-0.26987517 -0.38326812 1.2873222
-0.26620448 -0.38451761 1.2915189
-0.26251119 -0.38577729 1.29575
-0.34248066 -0.36899531 1.2542255
-0.33127868 -0.36159176 1.2290606
-0.32796749 -0.36271903 1.2328923
-0.3246356 -0.36385331 1.2367477
-0.32128283 -0.36499479 1.2406276
-0.31790891 -0.36614338 1.2445318
-0.31451374 -0.36729926 1.2484607
-0.31109709 -0.3684625 1.2524145
-0.30765817 -0.36963248 1.2563913
-0.30419716 -0.3708097 1.2603927
-0.30071393 -0.37199426 1.2644191
-0.30412829 -0.38187537 1.2980052
-0.29967454 -0.38202786 1.2985235
-0.29494104 -0.38182291 1.2978269
-0.28987467 -0.38117379 1.2956206
-0.28416562 -0.37964529 1.2904251
-0.27934021 -0.37926677 1.2891386
-0.27569637 -0.38050658 1.2933526
-0.27202895 -0.3817549 1.2975957
-0.26833737 -0.38301143 1.3018668
-0.3338033 -0.35998395 1.2384272
-0.33047476 -0.36111483 1.2423176
-0.32712522 -0.36225277 1.2462324
-0.32375452 -0.36339793 1.250172
-0.32036245 -0.36455038 1.2541367
-0.31694874 -0.36571011 1.2581264
-0.31351334 -0.36687729 1.2621418
-0.31005585 -0.36805192 1.2661828
-0.30657619 -0.36923409 1.2702497
-0.30794671 -0.37637931 1.2948309
-0.30393326 -0.37706009 1.2971729
-0.29959249 -0.37734932 1.2981679
-0.29497504 -0.37729368 1.2979765
-0.29006031 -0.37685001 1.2964503
-0.28521588 -0.37648496 1.2951944
-0.28157383 -0.37772098 1.2994466
-0.27790847 -0.37896609 1.30373
-0.27421883 -0.38021937 1.3080416
-0.33636671 -0.35835147 1.2479376
-0.33302066 -0.35948586 1.251888
-0.32965335 -0.3606275 1.2558637
-0.32626456 -0.36177635 1.2598644
-0.32285413 -0.36293259 1.263891
-0.3194218 -0.36409619 1.2679431
-0.3159644 -0.36526382 1.2720094
-0.31248954 -0.36644456 1.2761213
-0.3105588 -0.36949697 1.286751
-0.30753011 -0.37131414 1.2930793
-0.30368859 -0.37218979 1.2961286
-0.29946747 -0.37261984 1.2976263
-0.29496014 -0.37270159 1.2979109
-0.29114637 -0.37367606 1.3013045
-0.28750795 -0.37491035 1.3056029
-0.28384399 -0.376151 1.3099233
-0.34056041 -0.35836747 1.2634963
-0.3356061 -0.35783166 1.2616072
-0.33222082 -0.35897687 1.2656448
-0.32881382 -0.36012942 1.2697084
-0.32538408 -0.36128852 1.273795
-0.32192981 -0.36245245 1.2778987
-0.31845537 -0.36362636 1.2820375
-0.31495839 -0.36480793 1.2862034
-0.31144056 -0.36599949 1.2904044
-0.30790237 -0.36720207 1.2946445
-0.30433559 -0.36840624 1.29889
-0.30074304 -0.3696155 1.3031534
-0.29713118 -0.37083814 1.3074641
-0.29349539 -0.37206894 1.3118036
-0.33823183 -0.3561514 1.2714778
-0.3348271 -0.35729873 1.2755738
-0.33140072 -0.35845384 1.2796977
-0.32795209 -0.35961643 1.2838482
-0.32448104 -0.36078662 1.2880257
-0.32098731 -0.36196443 1.2922306
-0.31747073 -0.36314994 1.296463
-0.31393483 -0.36434776 1.3007392
-0.31036937 -0.36554617 1.3050176
-0.30678427 -0.36675712 1.3093408
