# .PCD v0.7 - Point Cloud Data file format
VERSION 0.7
FIELDS x y z
SIZE 4 4 4
TYPE F F F
COUNT 1 1 1
WIDTH 1378
HEIGHT 1
VIEWPOINT 0 0 0 1 0 0 0
POINTS 1378
DATA ascii
0.05789303 -0.15950119 0.67065853
0.060714129 -0.16071387 0.67575747
0.063476428 -0.16168524 0.67984182
0.06618537 -0.16245501 0.68307847
0.068839692 -0.16304138 0.68554401
0.071431234 -0.16344436 0.6872384
0.073951513 -0.16366318 0.68815851
0.076382078 -0.16367589 0.68821192
0.078701586 -0.16345714 0.68729216
0.080867775 -0.16294253 0.68512839
0.082804784 -0.16200936 0.68120462
0.084288329 -0.16026655 0.67387658
0.08505138 -0.15728679 0.66134757
0.087303884 -0.15714699 0.66075975
0.089552395 -0.15700746 0.660173
0.091796942 -0.15686819 0.65958744
0.094037496 -0.15672916 0.65900284
0.096274085 -0.15659037 0.65841931
0.098506667 -0.15645176 0.6578365
0.10073516 -0.15631317 0.65725374
0.10295977 -0.15617493 0.65667248
0.10518073 -0.15603735 0.65609396
0.10739741 -0.15589947 0.65551424
0.10961036 -0.15576209 0.65493661
0.11181939 -0.15562493 0.65435988
0.11402454 -0.15548801 0.65378416
0.11622582 -0.15535134 0.65320951
0.11842321 -0.15521489 0.65263575
0.022730537 -0.15911375 0.67909002
0.025100287 -0.15896849 0.67847002
0.027465712 -0.15882346 0.67785108
0.029826831 -0.15867874 0.6772334
0.032183647 -0.15853426 0.67661673
0.034536172 -0.15839003 0.67600119
0.036884423 -0.15824607 0.67538679
0.03922841 -0.15810238 0.67477351
0.041568141 -0.15795894 0.67416131
0.043903638 -0.15781578 0.67355031
0.046234898 -0.15767285 0.67294031
0.048561946 -0.1575302 0.67233151
0.050884776 -0.15738781 0.67172372
0.053203419 -0.15724567 0.67111707
0.055517871 -0.15710376 0.67051148
0.057828169 -0.15696217 0.66990715
0.060446121 -0.157634 0.67277449
0.063157685 -0.15849003 0.67642802
0.06581793 -0.15915972 0.67928618
0.068423003 -0.15965366 0.68139434
0.070964202 -0.15997016 0.6827451
0.07343097 -0.16010359 0.68331456
0.075803548 -0.16002972 0.68299931
0.07805755 -0.15971775 0.68166786
0.080136776 -0.1590775 0.67893523
0.081941187 -0.1579446 0.67410016
0.083040982 -0.15555565 0.66390419
0.085230656 -0.15528326 0.6627416
0.087487832 -0.15514509 0.66215193
0.089740701 -0.15500666 0.66156113
0.091989599 -0.15486857 0.66097176
0.09423466 -0.15473098 0.66038454
0.096475713 -0.15459362 0.65979826
0.098712772 -0.15445645 0.65921289
0.10094588 -0.15431957 0.65862864
0.10317503 -0.15418291 0.65804541
0.10540023 -0.15404649 0.65746319
0.1076215 -0.15391032 0.65688199
0.10983885 -0.1537744 0.65630186
0.11205228 -0.15363869 0.65572268
0.11426181 -0.15350325 0.65514463
0.11646745 -0.15336803 0.65456754
0.11931763 -0.15407033 0.65756494
0.022779666 -0.1570598 0.68055779
0.025154488 -0.1569161 0.6799351
0.027524969 -0.15677266 0.67931354
0.02989112 -0.15662947 0.67869312
0.032252949 -0.15648654 0.67807376
0.034610476 -0.15634388 0.6774556
0.036963709 -0.15620148 0.67683858
0.039312653 -0.15605932 0.67622262
0.041657336 -0.15591745 0.67560786
0.043997753 -0.15577583 0.67499417
0.046333924 -0.15563446 0.67438161
0.048665855 -0.15549333 0.67377013
0.050993562 -0.15535249 0.67315978
0.053317059 -0.15521188 0.67255056
0.055636354 -0.15507154 0.67194241
0.057951685 -0.15493205 0.67133802
0.060262557 -0.15479207 0.67073143
0.062829249 -0.15529492 0.67291039
0.06544216 -0.15587133 0.67540801
0.067999162 -0.15627877 0.6771735
0.07049036 -0.1565125 0.67818624
0.072902143 -0.15656033 0.67839354
0.075215086 -0.15639962 0.67769718
0.077398069 -0.15598688 0.67590868
0.079382807 -0.15521115 0.6725474
0.081027128 -0.1538341 0.6665805
0.08314459 -0.15340763 0.66473252
0.085410297 -0.15327053 0.66413844
0.08767195 -0.15313368 0.66354543
0.089929573 -0.15299706 0.6629535
0.092183158 -0.15286067 0.66236252
0.094432727 -0.15272453 0.66177261
0.096678309 -0.15258867 0.66118383
0.098919898 -0.15245302 0.66059607
0.10115749 -0.15231761 0.66000932
0.10339113 -0.15218244 0.65942365
0.10562079 -0.15204751 0.65883899
0.10784651 -0.15191284 0.6582554
0.11006829 -0.15177839 0.65767282
0.11228614 -0.15164417 0.65709126
0.11450007 -0.15151019 0.65651071
0.1167101 -0.15137646 0.65593123
0.12037794 -0.15310206 0.6634084
0.022829009 -0.15499695 0.68203193
0.025208926 -0.15485483 0.68140656
0.02758448 -0.15471296 0.68078226
0.029955687 -0.15457135 0.68015915
0.03232256 -0.15443 0.67953718
0.034685105 -0.1542889 0.67891634
0.037043337 -0.15414807 0.67829663
0.039397266 -0.15400749 0.67767805
0.041746911 -0.15386719 0.6770606
0.044092275 -0.15372711 0.67644429
0.046433371 -0.1535873 0.67582905
0.048770212 -0.15344775 0.67521495
0.051102817 -0.15330845 0.67460203
0.053431183 -0.15316939 0.67399013
0.055755503 -0.15303107 0.67338145
0.058075447 -0.1528925 0.67277175
0.060391303 -0.15275447 0.67216438
0.062702939 -0.15261659 0.67155766
0.065055616 -0.152585 0.67141861
0.067566693 -0.15291409 0.67286676
0.070009455 -0.15307152 0.67355949
0.072366886 -0.15303817 0.67341274
0.074617438 -0.15278809 0.67231226
0.076724336 -0.15226829 0.67002505
0.078767858 -0.15165751 0.66733742
0.081045941 -0.15152067 0.66673529
0.083320513 -0.15138516 0.66613901
0.085590839 -0.15124957 0.66554236
0.087857105 -0.15111423 0.66494679
0.090119325 -0.15097913 0.66435236
0.092377499 -0.15084428 0.66375893
0.094631642 -0.15070966 0.66316658
0.09688177 -0.15057528 0.6625753
0.099127881 -0.15044114 0.66198504
0.10137 -0.15030724 0.66139585
0.10360812 -0.15017357 0.66080767
0.10584228 -0.15004015 0.66022056
0.10807247 -0.14990698 0.65963453
0.1102987 -0.14977401 0.65904951
0.11252099 -0.14964132 0.65846556
0.11473933 -0.14950882 0.65788257
0.11695375 -0.14937659 0.65730065
0.12145729 -0.1521164 0.6693567
0.022878567 -0.15292515 0.68351251
0.025263596 -0.15278462 0.68288434
0.027644249 -0.15264434 0.68225735
0.030020535 -0.15250432 0.68163157
0.032392468 -0.15236457 0.68100691
0.034760054 -0.15222506 0.68038338
0.037123308 -0.15208581 0.67976099
0.039482243 -0.15194681 0.67913973
0.041836869 -0.15180807 0.67851961
0.044187199 -0.15166958 0.67790061
0.046533246 -0.15153134 0.67728275
0.048875026 -0.15139337 0.67666608
0.051212538 -0.15125564 0.67605042
0.053545911 -0.15111846 0.67543733
0.055874985 -0.15098134 0.67482448
0.058199849 -0.15084451 0.67421287
0.060520478 -0.15070786 0.6736021
0.062836923 -0.15057148 0.67299259
0.065148801 -0.15043451 0.67238033
0.067457013 -0.15029897 0.67177451
0.069761224 -0.15016399 0.67117125
0.072060935 -0.1500285 0.67056566
0.074356392 -0.14989305 0.6699602
0.076647453 -0.14975734 0.66935366
0.078934707 -0.1496225 0.668751
0.081218258 -0.14948867 0.66815287
0.083497152 -0.14935406 0.66755116
0.085772157 -0.14922006 0.66695225
0.088043071 -0.14908627 0.66635424
0.090309896 -0.14895268 0.66575718
0.092572667 -0.14881934 0.66516125
0.094831392 -0.14868626 0.6645664
0.097086087 -0.14855342 0.66397262
0.099336751 -0.1484208 0.66337985
0.10158341 -0.14828841 0.66278821
0.10382605 -0.14815627 0.66219759
0.10606471 -0.14802438 0.66160804
0.10829937 -0.14789268 0.66101944
0.11053007 -0.14776126 0.66043198
0.11275681 -0.14763005 0.65984559
0.11497959 -0.14749907 0.65926015
0.11719844 -0.14736834 0.65867585
0.12255615 -0.15111293 0.6754126
0.022928338 -0.15084432 0.68499947
0.025318509 -0.15070541 0.68436861
0.02770428 -0.15056674 0.68373889
0.030085664 -0.15042832 0.68311036
0.032462675 -0.15029016 0.68248296
0.034835327 -0.15015227 0.68185675
0.037203621 -0.15001461 0.68123162
0.039567586 -0.14987722 0.68060774
0.041927218 -0.14974007 0.67998493
0.044282544 -0.14960319 0.67936331
0.04663356 -0.14946653 0.67874277
0.048980281 -0.14933012 0.6781233
0.051322784 -0.14919414 0.67750579
0.05366106 -0.14905851 0.67688984
0.055994999 -0.14892288 0.67627394
0.058324676 -0.14878744 0.67565894
0.060650129 -0.14865227 0.67504513
0.062971279 -0.14851716 0.67443156
0.065288462 -0.14838286 0.67382169
0.067601562 -0.14824903 0.67321396
0.069910221 -0.14811487 0.67260474
0.072214715 -0.14798097 0.67199671
0.074515045 -0.14784731 0.6713897
0.076811045 -0.14771354 0.67078227
0.079102769 -0.1475798 0.6701749
0.081390701 -0.14744693 0.66957152
0.083674632 -0.14731449 0.66897011
0.085954294 -0.14718202 0.66836852
0.088229798 -0.14704967 0.66776752
0.090501271 -0.14691766 0.66716802
0.092768662 -0.14678586 0.66656953
0.095031992 -0.14665431 0.66597217
0.097291268 -0.14652298 0.66537583
0.099546507 -0.14639191 0.66478062
0.10179771 -0.14626107 0.66418642
0.10404488 -0.14613046 0.66359329
0.10628806 -0.14600007 0.66300124
0.10852724 -0.14586994 0.66241026
0.11076242 -0.14574002 0.66182029
0.11299363 -0.14561035 0.6612314
0.11522086 -0.14548089 0.66064352
0.11744414 -0.14535166 0.66005671
0.12367507 -0.1500911 0.68157899
0.022978326 -0.14875443 0.68649292
0.025373658 -0.14861713 0.68585932
0.02776457 -0.14848009 0.68522686
0.030151078 -0.14834331 0.68459558
0.032533191 -0.14820676 0.68396544
0.034910925 -0.14807047 0.6833365
0.037284292 -0.14793445 0.68270874
0.039653298 -0.14779866 0.68208206
0.042017959 -0.14766312 0.68145657
0.044378288 -0.14752783 0.68083221
0.046734296 -0.14739278 0.68020898
0.049086001 -0.14725801 0.67958701
0.051433537 -0.14712384 0.67896783
0.05377667 -0.14698957 0.67834818
0.056115448 -0.14685532 0.67772865
0.058449958 -0.14672132 0.67711025
0.060780447 -0.14658815 0.67649561
0.063106813 -0.14645544 0.67588317
0.065428704 -0.14632237 0.67526913
0.067746393 -0.14618959 0.67465627
0.070059858 -0.14605699 0.67404443
0.072369158 -0.14592469 0.67343384
0.074674256 -0.14579259 0.6728242
0.076975189 -0.14566074 0.6722157
0.079271741 -0.14552872 0.67160642
0.081564113 -0.1453969 0.6709981
0.08385282 -0.14526615 0.67039472
0.086137012 -0.14513497 0.66978931
0.088417344 -0.14500445 0.66918695
0.090693451 -0.14487396 0.66858476
0.092965491 -0.14474374 0.66798383
0.095233433 -0.14461373 0.66738385
0.097497314 -0.14448397 0.666785
0.099757135 -0.14435445 0.66618723
0.10201291 -0.14422515 0.66559052
0.10426465 -0.14409609 0.66499496
0.10651235 -0.14396724 0.66440034
0.10875605 -0.14383864 0.66380686
0.11099574 -0.14371027 0.66321445
0.11323144 -0.14358214 0.66262305
0.11546315 -0.14345421 0.66203272
0.11769088 -0.14332652 0.66144341
0.12481414 -0.14904989 0.68785644
0.023028536 -0.14665541 0.68799293
0.025429048 -0.14651975 0.68735653
0.027825125 -0.14638434 0.68672132
0.030216776 -0.1462492 0.68608731
0.032604016 -0.14611429 0.68545443
0.034986854 -0.14597964 0.68482274
0.037365306 -0.14584522 0.68419218
0.039739382 -0.14571106 0.68356282
0.042109095 -0.14557715 0.68293458
0.044474456 -0.14544348 0.68230754
0.046835475 -0.14531006 0.68168163
0.049192294 -0.14517726 0.68105859
0.051544715 -0.14504443 0.68043548
0.053892765 -0.14491166 0.67981261
0.056236401 -0.14477882 0.67918944
0.058576047 -0.14464697 0.67857093
0.060911544 -0.14451562 0.67795473
0.063242547 -0.14438394 0.67733693
0.065569311 -0.14425249 0.67672032
0.067891836 -0.14412127 0.67610472
0.070210151 -0.14399031 0.67549038
0.07252425 -0.14385958 0.67487705
0.074834146 -0.14372908 0.67426485
0.077139862 -0.14359881 0.67365378
0.079441398 -0.14346878 0.67304379
0.081738479 -0.14333849 0.67243254
0.084031507 -0.14320862 0.67182332
0.086320996 -0.14308001 0.67121994
0.088605553 -0.14295028 0.67061138
0.090886459 -0.14282158 0.67000759
0.093163148 -0.14269292 0.66940403
0.095435739 -0.14256449 0.66880155
0.097704247 -0.14243631 0.66820019
0.099968664 -0.14230834 0.66759986
0.10222903 -0.14218061 0.66700065
0.10448534 -0.14205311 0.66640252
0.10673761 -0.14192583 0.6658054
0.10898584 -0.14179878 0.66520941
0.11123005 -0.14167196 0.66461444
0.11347024 -0.14154536 0.66402054
0.11570645 -0.14141899 0.66342777
0.11793865 -0.14129284 0.66283596
0.12597392 -0.14798878 0.69424808
0.023078961 -0.14454718 0.68949944
0.025484679 -0.14441319 0.6888603
0.027885942 -0.14427944 0.68822229
0.030282762 -0.14414595 0.68758553
0.032675147 -0.14401269 0.68694991
0.035063114 -0.14387968 0.68631542
0.037446678 -0.14374693 0.68568218
0.039825842 -0.1436144 0.68505001
0.042200621 -0.14348212 0.68441904
0.044571038 -0.14335009 0.68378925
0.046937205 -0.14321865 0.68316227
0.049298979 -0.14308728 0.68253565
0.051656365 -0.14295599 0.68190938
0.054009255 -0.14282447 0.68128204
0.056358214 -0.14269421 0.68066061
0.058702782 -0.14256389 0.68003905
0.061042968 -0.14243358 0.67941749
0.063378878 -0.14230351 0.67879701
0.065710522 -0.14217368 0.67817771
0.06803792 -0.14204408 0.67755949
0.070361085 -0.14191473 0.67694247
0.072680011 -0.14178559 0.67632651
0.074994728 -0.1416567 0.67571169
0.077305228 -0.14152804 0.67509794
0.079611555 -0.14139962 0.67448539
0.081913672 -0.1412714 0.67387378
0.084211305 -0.14114289 0.67326075
0.086504988 -0.14101498 0.67265064
0.088794969 -0.14088802 0.67204499
0.091080323 -0.1407605 0.67143673
0.093361653 -0.14063337 0.67083037
0.095638894 -0.14050652 0.67022526
0.097912043 -0.14037992 0.66962135
0.1001811 -0.14025354 0.66901851
0.10244607 -0.14012739 0.66841674
0.10470697 -0.14000146 0.66781604
0.10696381 -0.13987575 0.66721642
0.10921659 -0.13975027 0.66661787
0.11146535 -0.13962501 0.66602039
0.11371007 -0.13949998 0.66542399
0.11595078 -0.13937518 0.66482866
0.11818748 -0.13925059 0.6642344
0.12715547 -0.14690778 0.70075965
0.02312961 -0.14242971 0.69101262
0.025540555 -0.14229737 0.69037062
0.027947027 -0.1421653 0.68972987
0.030349033 -0.14203347 0.68909025
0.032746587 -0.14190188 0.68845183
0.03513971 -0.14177056 0.68781465
0.037528399 -0.14163944 0.68717855
0.039912682 -0.14150859 0.68654376
0.042292554 -0.14137797 0.68590999
0.044668145 -0.14124793 0.68527907
0.047039337 -0.14111802 0.68464881
0.049406037 -0.14098796 0.68401784
0.0517684 -0.1408582 0.68338829
0.054126643 -0.14072928 0.6827628
0.056480393 -0.14060013 0.68213624
0.058829825 -0.14047122 0.68151081
0.061174959 -0.14034255 0.68088657
0.06351579 -0.1402141 0.6802634
0.065852351 -0.14008591 0.67964143
0.068184629 -0.13995793 0.67902052
0.07051266 -0.13983019 0.67840081
0.072836444 -0.13970268 0.67778218
0.075156003 -0.13957542 0.67716479
0.077471323 -0.13944839 0.67654842
0.079782441 -0.13932157 0.67593318
0.082089357 -0.139195 0.67531908
0.084392056 -0.1390686 0.67470586
0.086690225 -0.13894187 0.67409098
0.088984556 -0.13881591 0.67347991
0.091275007 -0.13869061 0.67287195
0.093561023 -0.13856506 0.67226291
0.095842943 -0.1384398 0.67165518
0.098120734 -0.13831477 0.67104858
0.10039443 -0.13818997 0.67044312
0.10266403 -0.13806543 0.66983885
0.10492954 -0.13794108 0.66923559
0.10719097 -0.13781697 0.6686334
0.10944834 -0.13769308 0.66803235
0.11170164 -0.1375694 0.66743231
0.11395092 -0.13744596 0.6668334
0.11619614 -0.13732271 0.66623551
0.11843734 -0.1371997 0.66563869
0.023180481 -0.14030291 0.69253242
0.02559668 -0.14017229 0.69188768
0.028008381 -0.1400419 0.69124407
0.030415598 -0.13991176 0.69060165
0.032818343 -0.13978185 0.68996042
0.035216637 -0.13965218 0.68932039
0.037610482 -0.13952276 0.6886816
0.039999891 -0.13939357 0.68804389
0.042384978 -0.13926493 0.68740892
0.044765636 -0.13913643 0.68677473
0.047141679 -0.13900751 0.68613833
0.049513552 -0.13887948 0.68550634
0.051881157 -0.13875192 0.6848768
0.054244254 -0.13862421 0.68424636
0.056603003 -0.13849671 0.68361706
0.058957424 -0.13836946 0.68298894
0.061307512 -0.13824242 0.6823619
0.063653298 -0.13811564 0.68173611
0.065994777 -0.13798909 0.6811114
0.068331979 -0.13786276 0.68048787
0.07066489 -0.13773665 0.67986542
0.072993554 -0.13761081 0.67924422
0.075317957 -0.13748516 0.67862403
0.077638119 -0.13735975 0.67800504
0.07995405 -0.13723457 0.67738712
0.082265779 -0.13710964 0.67677045
0.084573291 -0.1369849 0.67615479
0.086876579 -0.13686037 0.67554009
0.089175321 -0.1367355 0.67492372
0.091470249 -0.1366114 0.67431122
0.093761116 -0.13648771 0.67370063
0.096047834 -0.13636421 0.67309105
0.098330326 -0.13624081 0.67248195
0.10060868 -0.13611762 0.67187393
0.10288291 -0.13599466 0.67126697
0.10515305 -0.13587193 0.67066115
0.1074191 -0.1357494 0.6700564
0.10968106 -0.13562712 0.66945279
0.11193894 -0.13550504 0.66885018
0.11419278 -0.13538319 0.66824877
0.11644255 -0.13526154 0.66764832
0.11896385 -0.13545388 0.6685977
0.023231579 -0.13816676 0.69405901
0.025653047 -0.13803783 0.69341135
0.028070005 -0.13790914 0.69276494
0.030482454 -0.1377807 0.69211966
0.032890417 -0.13765249 0.69147563
0.035293903 -0.13752452 0.69083279
0.037692923 -0.13739678 0.69019115
0.040087573 -0.13726957 0.68955213
0.042477716 -0.13714235 0.68891299
0.044863321 -0.13701501 0.68827337
0.047244817 -0.13688883 0.68763953
0.049621727 -0.13676232 0.68700403
0.051994238 -0.13663602 0.6863696
0.054362379 -0.13650998 0.68573642
0.056726154 -0.13638416 0.68510437
0.05908557 -0.13625856 0.68447345
0.061440647 -0.13613319 0.68384373
0.063791402 -0.13600808 0.6832152
0.066137828 -0.13588318 0.6825878
0.068479955 -0.1357585 0.68196154
0.070817783 -0.13563406 0.6813364
0.073151343 -0.13550986 0.68071252
0.075480618 -0.13538587 0.68008965
0.077805646 -0.13526213 0.67946804
0.08012642 -0.13513859 0.67884743
0.082442954 -0.13501528 0.67822802
0.084755272 -0.1348922 0.67760974
0.08706338 -0.13476934 0.6769926
0.089367248 -0.13464665 0.67637628
0.091666609 -0.13452372 0.67575878
0.093962274 -0.13440174 0.67514598
0.096253559 -0.13427967 0.67453277
0.09854079 -0.13415794 0.67392135
0.10082384 -0.13403641 0.67331082
0.10310274 -0.13391505 0.67270124
0.10537753 -0.13379395 0.67209285
0.10764821 -0.13367304 0.67148554
0.10991476 -0.13355236 0.67087924
0.11217727 -0.13343191 0.6702742
0.11443567 -0.13331164 0.6696701
0.11669 -0.13319162 0.66906714
0.12003891 -0.13430096 0.67463976
0.023282899 -0.13602115 0.69559222
0.025709666 -0.13589396 0.69494176
0.028131898 -0.13576698 0.69429249
0.030549604 -0.13564025 0.69364434
0.032962807 -0.13551375 0.69299752
0.035371508 -0.1353875 0.69235182
0.037775803 -0.13526174 0.69170874
0.040175509 -0.1351358 0.69106472
0.042570818 -0.13501032 0.69042295
0.04496178 -0.13488534 0.68978387
0.047348209 -0.13476029 0.68914437
0.049730215 -0.13463546 0.68850601
0.052107815 -0.13451087 0.68786889
0.054481018 -0.13438651 0.68723291
0.056849834 -0.13426238 0.68659812
0.059214279 -0.13413846 0.68596447
0.06157437 -0.1340148 0.68533206
0.063930102 -0.13389134 0.68470073
0.066281505 -0.13376813 0.68407059
0.068628579 -0.13364512 0.68344158
0.070971347 -0.13352236 0.68281382
0.073309809 -0.13339981 0.68218714
0.075643994 -0.13327751 0.68156165
0.077973887 -0.13315541 0.68093723
0.080299519 -0.13303353 0.680314
0.082620904 -0.13291189 0.67969191
0.084938049 -0.13279048 0.67907101
0.087250948 -0.13266926 0.67845112
0.089559652 -0.13254827 0.67783248
0.091864087 -0.13242745 0.67721456
0.094164059 -0.13230646 0.67659587
0.096460469 -0.13218658 0.67598277
0.098752208 -0.13206621 0.67536724
0.10103992 -0.13194625 0.67475379
0.10332351 -0.13182655 0.67414165
0.10560296 -0.13170707 0.67353064
0.10787828 -0.13158779 0.6729207
0.11014949 -0.13146874 0.6723119
0.11241659 -0.13134991 0.67170417
0.11467959 -0.13123129 0.67109758
0.11693852 -0.13111287 0.67049205
0.1211336 -0.13312702 0.68079209
0.023334451 -0.13386606 0.69713235
0.025766533 -0.13374057 0.6964789
0.028194062 -0.13361534 0.69582671
0.030617055 -0.13349035 0.69517583
0.033035513 -0.13336559 0.69452608
0.03544952 -0.13324131 0.69387883
0.037858967 -0.13311702 0.69323158
0.040263906 -0.13299291 0.69258523
0.042664465 -0.13286933 0.69194174
0.045060486 -0.13274576 0.69129819
0.047452059 -0.13262242 0.69065589
0.049839187 -0.13249931 0.69001472
0.052221887 -0.13237642 0.68937474
0.054600172 -0.13225375 0.68873596
0.056974061 -0.13213132 0.68809843
0.05934355 -0.13200912 0.68746203
0.061708666 -0.13188715 0.68682683
0.064069413 -0.1317654 0.68619275
0.0664258 -0.13164386 0.68555987
0.068777852 -0.13152255 0.68492812
0.071125574 -0.13140148 0.68429762
0.073468968 -0.13128062 0.6836682
0.075808063 -0.13115998 0.68303996
0.078142859 -0.13103956 0.68241286
0.080473378 -0.13091938 0.68178695
0.082799621 -0.1307994 0.68116218
0.085121609 -0.13067965 0.68053854
0.087439343 -0.13056011 0.67991602
0.089752845 -0.1304408 0.67929471
0.092062123 -0.1303217 0.67867446
0.094367124 -0.13020274 0.67805493
0.0966677 -0.1300837 0.67743498
0.09896455 -0.1299655 0.67681944
0.10125693 -0.12984712 0.67620301
0.10354523 -0.12972908 0.67558825
0.10582937 -0.12961124 0.67497462
0.10810935 -0.12949362 0.67436206
0.11038521 -0.12937622 0.67375064
0.11265694 -0.12925902 0.67314035
0.11492456 -0.12914203 0.67253113
0.11718809 -0.12902527 0.67192304
0.1222482 -0.13193123 0.68705636
0.023386227 -0.13170138 0.69867921
0.025823655 -0.13157767 0.6980229
0.028256508 -0.13145418 0.69736785
0.030684799 -0.13133094 0.69671398
0.033108599 -0.13120815 0.69606262
0.035527766 -0.1310852 0.69541037
0.03794254 -0.13096297 0.69476187
0.040352728 -0.13084066 0.69411308
0.04275842 -0.1307186 0.69346553
0.045159627 -0.13059676 0.69281912
0.047556359 -0.13047513 0.69217396
0.049948633 -0.13035375 0.69152999
0.052336466 -0.1302326 0.69088727
0.054719858 -0.13011166 0.69024569
0.057098821 -0.12999094 0.68960524
0.059473388 -0.12987046 0.6889661
0.061843548 -0.12975019 0.68832809
0.064209327 -0.12963015 0.68769127
0.066570729 -0.12951033 0.68705559
0.068927772 -0.12939073 0.68642116
0.071280465 -0.12927134 0.6857878
0.07362882 -0.12915219 0.68515569
0.075972848 -0.12903325 0.68452471
0.078312568 -0.12891454 0.68389493
0.080647983 -0.12879603 0.68326622
0.082979113 -0.12867776 0.68263876
0.085305952 -0.12855968 0.68201238
0.087628543 -0.12844184 0.68138725
0.089946866 -0.1283242 0.68076313
0.092260957 -0.12820677 0.68014026
0.094570808 -0.12808958 0.67951846
0.096876383 -0.12797251 0.67889744
0.099177547 -0.12785539 0.67827612
0.1014748 -0.12773886 0.67765796
0.1037679 -0.12762259 0.67704111
0.10605674 -0.12750642 0.6764248
0.1083414 -0.12739044 0.67580956
0.11062194 -0.12727471 0.67519557
0.11289832 -0.12715916 0.6745826
0.11517058 -0.12704384 0.67397082
0.11743872 -0.12692872 0.67336011
0.1233828 -0.13071246 0.69343299
0.023438238 -0.12952709 0.70023304
0.02588103 -0.12940514 0.69957376
0.028319228 -0.12928343 0.69891578
0.030752897 -0.12916216 0.69826019
0.033181909 -0.12904076 0.69760388
0.03560647 -0.12891997 0.69695091
0.038026433 -0.1287992 0.696298
0.040441871 -0.12867868 0.69564641
0.042852785 -0.12855835 0.69499594
0.045259204 -0.12843828 0.69434679
0.047661122 -0.12831841 0.69369876
0.050058566 -0.12819877 0.69305199
0.05245154 -0.12807934 0.69240636
0.054840062 -0.12796015 0.69176197
0.057224143 -0.12784117 0.69111878
0.059603792 -0.12772241 0.69047678
0.061979026 -0.12760387 0.68983597
0.064349853 -0.12748556 0.68919635
0.066716291 -0.12736747 0.68855792
0.069078349 -0.1272496 0.68792069
0.07143604 -0.12713192 0.68728459
0.073789373 -0.1270145 0.68664974
0.076138362 -0.12689726 0.68601596
0.078483023 -0.12678026 0.68538344
0.080823354 -0.12666346 0.68475205
0.08315938 -0.12654689 0.68412179
0.085491113 -0.12643053 0.68349272
0.08781857 -0.12631439 0.68286484
0.090141736 -0.12619844 0.68223804
0.092460662 -0.12608272 0.68161249
0.094775319 -0.1259672 0.68098795
0.097085752 -0.1258519 0.68036467
0.099391885 -0.12573671 0.67974198
0.10169365 -0.12562156 0.67911941
0.10399155 -0.12550704 0.67850029
0.10628509 -0.12539251 0.67788118
0.10857447 -0.12527823 0.67726338
0.11085969 -0.12516417 0.67664671
0.11314073 -0.12505029 0.67603105
0.11541765 -0.12493663 0.67541665
0.11769043 -0.12482318 0.67480332
0.12453867 -0.12947088 0.69992918
0.023490474 -0.1273431 0.70179367
0.02593866 -0.12722296 0.70113152
0.028382273 -0.12710322 0.7004717
0.030821247 -0.12698354 0.69981211
0.033255637 -0.12686409 0.69915384
0.035685454 -0.12674488 0.69849688
0.038110703 -0.12662588 0.69784105
0.040531404 -0.12650712 0.69718653
0.042947572 -0.12638856 0.6965332
0.045359217 -0.12627025 0.69588119
0.047766343 -0.12615214 0.69523025
0.050168984 -0.12603427 0.69458067
0.052567124 -0.1259166 0.69393218
0.054960802 -0.12579916 0.69328499
0.05735001 -0.12568194 0.69263893
0.059734773 -0.12556493 0.69199413
0.062115099 -0.12544814 0.69135046
0.064491004 -0.12533158 0.6907081
0.066862494 -0.12521522 0.69006681
0.069229588 -0.12509908 0.68942678
0.071592286 -0.12498315 0.68878788
0.073950619 -0.12486745 0.68815023
0.076304585 -0.12475195 0.68751371
0.078654215 -0.12463667 0.68687844
0.080999486 -0.1245216 0.68624425
0.083340444 -0.12440675 0.68561131
0.08567708 -0.12429211 0.6849795
0.088009402 -0.12417766 0.68434876
0.090337455 -0.12406344 0.68371934
0.092661224 -0.12394942 0.68309098
0.094980724 -0.12383562 0.68246382
0.097295962 -0.12372203 0.6818378
0.099606968 -0.12360865 0.68121296
0.10191365 -0.12349536 0.6805886
0.10421607 -0.12338224 0.6799652
0.10651442 -0.1232695 0.67934388
0.10880853 -0.12315691 0.67872339
0.11109845 -0.12304453 0.67810404
0.1133842 -0.12293234 0.67748582
0.11566579 -0.12282038 0.67686874
0.11794321 -0.1227086 0.67625272
0.1257164 -0.12820584 0.70654827
0.023542948 -0.12514935 0.70336133
0.025996566 -0.1250311 0.70269674
0.028445544 -0.12491304 0.70203322
0.030889893 -0.12479517 0.70137078
0.033329636 -0.12467752 0.70070958
0.03576478 -0.1245601 0.70004964
0.038195346 -0.1244429 0.69939095
0.04062134 -0.12432592 0.69873351
0.043042779 -0.12420917 0.69807732
0.045459669 -0.12409261 0.69742227
0.047872037 -0.1239763 0.69676858
0.050279878 -0.12386019 0.69611603
0.052683219 -0.12374431 0.69546473
0.055082064 -0.12362863 0.69481462
0.057476431 -0.12351318 0.69416577
0.059866328 -0.12339794 0.6935181
0.062251769 -0.12328292 0.69287163
0.064632766 -0.1231681 0.69222635
0.067009337 -0.12305351 0.69158232
0.069381483 -0.12293912 0.69093943
0.071749225 -0.12282495 0.69029778
0.074112579 -0.122711 0.68965733
0.076471552 -0.12259725 0.68901807
0.078826144 -0.12248371 0.68837994
0.081176385 -0.12237038 0.68774301
0.083522283 -0.12225726 0.68710726
0.085863851 -0.12214435 0.68647271
0.088201091 -0.12203165 0.6858393
0.090534024 -0.12191916 0.68520707
0.092862666 -0.12180687 0.68457603
0.095187016 -0.1216948 0.68394613
0.097507097 -0.12158292 0.68331736
0.099822909 -0.12147126 0.68268979
0.10213447 -0.12135978 0.68206328
0.10444173 -0.12124845 0.68143755
0.10674485 -0.12113742 0.68081355
0.10904361 -0.12102642 0.68018973
0.11133826 -0.12091574 0.67956769
0.11362872 -0.12080527 0.67894685
0.11591499 -0.12069499 0.67832702
0.11819711 -0.12058492 0.67770845
0.12691663 -0.12691663 0.71329373
0.023595659 -0.12294581 0.70493615
0.02605471 -0.12282935 0.7042684
0.028509099 -0.12271308 0.70360178
0.030958844 -0.12259702 0.70293635
0.033403967 -0.12248121 0.7022723
0.035844468 -0.12236559 0.70160937
0.038280368 -0.1222502 0.70094776
0.040711679 -0.12213503 0.7002874
0.043138411 -0.12202008 0.69962829
0.045560576 -0.12190532 0.69897032
0.047978196 -0.1217908 0.69831371
0.050391272 -0.12167649 0.69765824
0.052799828 -0.1215624 0.69700408
0.05520387 -0.12144852 0.69635111
0.057603415 -0.12133485 0.69569939
0.059998464 -0.12122139 0.69504881
0.062389046 -0.12110814 0.69439954
0.064775154 -0.1209951 0.69375139
0.067156821 -0.12088228 0.69310451
0.069534048 -0.12076967 0.69245881
0.071906857 -0.12065727 0.69181436
0.074275248 -0.12054507 0.69117105
0.076639242 -0.12043309 0.69052899
0.078998841 -0.12032131 0.68988806
0.081354067 -0.12020974 0.68924832
0.083704926 -0.12009837 0.68860978
0.086051442 -0.11998723 0.68797249
0.088393606 -0.11987627 0.68733627
0.090731457 -0.11976552 0.6867013
0.093064979 -0.11965498 0.68606746
0.095394216 -0.11954465 0.68543488
0.09771914 -0.11943451 0.68480337
0.1000398 -0.11932457 0.68417305
0.10235617 -0.11921484 0.68354386
0.1046683 -0.11910532 0.68291587
0.10697613 -0.11899592 0.68228865
0.10927963 -0.11888663 0.68166202
0.1115791 -0.11877775 0.68103772
0.11387429 -0.118669 0.68041414
0.11616527 -0.11856043 0.67979169
0.11845207 -0.11845207 0.67917037
0.12813997 -0.12560256 0.72016919
0.023595398 -0.12046072 0.70492834
0.026077937 -0.12045524 0.70489627
0.028560242 -0.12044971 0.70486397
0.031028109 -0.12038906 0.70450902
0.033478625 -0.12027506 0.70384187
0.035924509 -0.12016129 0.70317608
0.038365766 -0.12004772 0.70251149
0.040802415 -0.11993437 0.70184821
0.04323446 -0.11982122 0.70118606
0.04566193 -0.11970831 0.70052528
0.048084822 -0.11959559 0.69986564
0.050503161 -0.11948308 0.69920731
0.052916951 -0.1193708 0.69855022
0.055326216 -0.11925873 0.69789439
0.05773095 -0.11914685 0.6972397
0.060131185 -0.1190352 0.69658631
0.062526919 -0.11892375 0.69593412
0.064918175 -0.11881252 0.69528317
0.067304969 -0.11870149 0.69463342
0.069687292 -0.11859065 0.69398487
0.072065175 -0.11848003 0.6933375
0.074438632 -0.11836963 0.69269145
0.076807663 -0.11825942 0.69204646
0.079172291 -0.11814942 0.69140279
0.081532523 -0.11803962 0.69076025
0.083888367 -0.11793002 0.69011891
0.086239845 -0.11782064 0.68947875
0.088586964 -0.11771145 0.68883979
0.090929739 -0.11760246 0.68820202
0.093268178 -0.11749368 0.68756545
0.095602296 -0.1173851 0.68693
0.097932108 -0.11727672 0.68629581
0.10025761 -0.11716853 0.68566269
0.10257884 -0.11706056 0.68503082
0.10489578 -0.11695276 0.68440002
0.10720847 -0.11684518 0.68377048
0.10951686 -0.11673775 0.68314177
0.11182098 -0.11663049 0.68251407
0.11412091 -0.11652346 0.68188775
0.11641664 -0.11641664 0.68126267
0.11870816 -0.11631001 0.68063867
0.020978017 -0.11723009 0.7004655
0.023444964 -0.11722482 0.70043403
0.025911693 -0.11721957 0.70040262
0.028378198 -0.1172143 0.70037115
0.030844484 -0.11720904 0.70033973
0.033310544 -0.11720376 0.7003082
0.035776362 -0.11719843 0.70027632
0.03824196 -0.1171931 0.70024449
0.040707324 -0.11718775 0.70021254
0.043172471 -0.11718243 0.70018071
0.045637395 -0.1171771 0.70014888
0.048102092 -0.11717176 0.70011699
0.050566562 -0.11716642 0.7000851
0.053030811 -0.1171611 0.70005327
0.055449098 -0.11705921 0.69944447
0.057859059 -0.11694916 0.69878691
0.060264498 -0.11683933 0.69813067
0.06266541 -0.11672969 0.69747555
0.06506183 -0.11662026 0.69682169
0.067453757 -0.11651104 0.69616908
0.069841214 -0.11640202 0.69551766
0.0722242 -0.11629321 0.69486749
0.074602738 -0.11618459 0.69421852
0.076976836 -0.11607618 0.69357073
0.079346508 -0.11596797 0.6929242
0.081711762 -0.11585996 0.6922788
0.084072627 -0.11575217 0.69163471
0.086429082 -0.11564455 0.6909917
0.088781178 -0.11553714 0.69034994
0.091128901 -0.11542994 0.68970937
0.093472272 -0.11532293 0.68906999
0.095811307 -0.11521613 0.6884318
0.098146006 -0.11510952 0.6877948
0.10047639 -0.1150031 0.68715894
0.10280247 -0.11489688 0.68652427
0.10512426 -0.11479086 0.68589079
0.10744178 -0.11468504 0.68525851
0.10975501 -0.1145794 0.68462729
0.11206387 -0.11447384 0.68399656
0.11436862 -0.11436862 0.68336785
0.1166691 -0.11426355 0.68274003
0.11968821 -0.11485232 0.68625802
0.020845111 -0.11403502 0.69602776
0.023296438 -0.11402994 0.6959967
0.025747549 -0.11402486 0.69596571
0.028198438 -0.11401977 0.69593465
0.030649107 -0.11401468 0.6959036
0.033099558 -0.11400959 0.69587255
0.035549793 -0.11400452 0.69584155
0.037999809 -0.11399943 0.6958105
0.040449604 -0.11399434 0.69577944
0.042899158 -0.11398919 0.69574803
0.045348488 -0.11398403 0.69571656
0.047797594 -0.11397888 0.69568509
0.050246481 -0.11397372 0.69565362
0.052695148 -0.11396857 0.69562221
0.055143591 -0.11396342 0.69559073
0.057591811 -0.11395826 0.69555926
0.060039815 -0.11395312 0.69552785
0.062487591 -0.11394797 0.69549638
0.064935155 -0.11394282 0.69546497
0.067382485 -0.11393766 0.6954335
0.069829606 -0.11393251 0.69540209
0.072276503 -0.11392736 0.69537067
0.074723177 -0.11392222 0.69533926
0.077146746 -0.11388329 0.69510168
0.079521485 -0.11377689 0.69445223
0.081891797 -0.1136707 0.69380409
0.084257677 -0.1135647 0.69315708
0.086619154 -0.11345889 0.69251126
0.088976234 -0.11335328 0.6918667
0.091328934 -0.11324788 0.69122332
0.093677253 -0.11314265 0.69058108
0.09602122 -0.11303764 0.68994009
0.098360837 -0.11293282 0.6893003
0.10069612 -0.11282819 0.68866169
0.10302708 -0.11272375 0.68802422
0.10535374 -0.11261951 0.687388
0.10767607 -0.11251545 0.68675286
0.10999414 -0.1124116 0.68611896
0.11230792 -0.11230792 0.6854862
0.11461737 -0.11220437 0.68485415
0.11692265 -0.11210109 0.68422377
0.12079776 -0.11347668 0.69261986
0.018277764 -0.1108851 0.69167656
0.020713881 -0.11088019 0.69164592
0.023149781 -0.11087526 0.69161522
0.025585469 -0.11087036 0.69158465
0.028020937 -0.11086544 0.69155395
0.030456191 -0.11086053 0.69152331
0.032891229 -0.11085562 0.69149268
0.035326049 -0.11085071 0.69146204
0.037760656 -0.1108458 0.6914314
0.040195044 -0.11084088 0.69140071
0.04262922 -0.11083598 0.69137013
0.045063179 -0.11083106 0.69133949
0.047496922 -0.11082615 0.69130886
0.049930427 -0.11082119 0.69127792
0.052363705 -0.11081621 0.69124687
0.054796766 -0.11081123 0.69121581
0.057229601 -0.11080625 0.6911847
0.059662227 -0.11080128 0.69115371
0.062094629 -0.1107963 0.69112265
0.064526811 -0.11079132 0.6910916
0.066958778 -0.11078634 0.69106054
0.069390528 -0.11078136 0.69102949
0.071822062 -0.11077639 0.69099849
0.074253365 -0.11077142 0.69096744
0.07668446 -0.11076644 0.69093639
0.079115339 -0.11076147 0.69090539
0.081545986 -0.11075649 0.69087434
0.083976425 -0.11075152 0.69084328
0.086406648 -0.11074655 0.69081229
0.088836648 -0.11074158 0.6907813
0.091266431 -0.11073661 0.6907503
0.093695991 -0.11073163 0.69071925
0.096125342 -0.11072666 0.69068825
0.09855447 -0.11072169 0.69065726
0.10091683 -0.11064374 0.69017106
0.10325268 -0.11054111 0.68953079
0.10558421 -0.11043866 0.68889177
0.10791142 -0.1103364 0.68825388
0.11023433 -0.11023433 0.68761718
0.11255294 -0.11013245 0.68698168
0.11486728 -0.11003076 0.68634737
0.11717732 -0.10992923 0.68571407
0.12192807 -0.11207529 0.69910073
0.018163411 -0.10776956 0.68734914
0.020584291 -0.10776482 0.68731886
0.023004958 -0.10776007 0.68728858
0.025425415 -0.10775533 0.68725836
0.027845656 -0.10775059 0.68722808
0.030265685 -0.10774584 0.6871978
0.0326855 -0.1077411 0.68716753
0.035105105 -0.10773636 0.68713731
0.037524492 -0.1077316 0.68710703
0.039943665 -0.10772686 0.68707675
0.04236263 -0.10772212 0.68704653
0.044781379 -0.10771737 0.68701625
0.04719992 -0.10771263 0.68698603
0.049618244 -0.1077079 0.68695581
0.052036356 -0.10770316 0.68692559
0.054454252 -0.10769841 0.68689531
0.056871921 -0.10769363 0.68686485
0.059289359 -0.10768883 0.68683422
0.061706573 -0.10768402 0.68680352
0.064123571 -0.1076792 0.68677282
0.06654036 -0.1076744 0.68674219
0.068956934 -0.1076696 0.68671155
0.071373291 -0.10766479 0.68668091
0.073789425 -0.10765998 0.68665022
0.07620535 -0.10765518 0.68661958
0.07862106 -0.10765038 0.68658894
0.08103656 -0.10764558 0.68655837
0.08345183 -0.10764077 0.68652767
0.085866891 -0.10763597 0.68649703
0.088281751 -0.10763117 0.68646646
0.09069638 -0.10762637 0.68643582
0.093110785 -0.10762156 0.68640512
0.095524989 -0.10761676 0.68637455
0.09793897 -0.10761195 0.68634391
0.10035275 -0.10760716 0.68631333
0.1027663 -0.10760236 0.68628269
0.10517963 -0.10759755 0.68625206
0.10759276 -0.10759276 0.68622148
0.11000568 -0.10758797 0.6861909
0.11241836 -0.10758317 0.68616027
0.11483084 -0.10757836 0.68612963
0.1172431 -0.10757357 0.68609905
0.12307973 -0.11064743 0.70570403
0.015644433 -0.10469735 0.68310541
0.018050477 -0.10469276 0.68307543
0.020456314 -0.10468819 0.68304563
0.022861937 -0.10468361 0.6830157
0.025267351 -0.10467903 0.68298584
0.027672553 -0.10467444 0.68295592
0.030077551 -0.10466988 0.68292612
0.032482333 -0.10466529 0.6828962
0.0348869 -0.1046607 0.68286628
0.037291262 -0.10465613 0.68283641
0.039695412 -0.10465154 0.68280649
0.042099357 -0.10464697 0.68277669
0.044503085 -0.10464239 0.68274677
0.046906609 -0.10463782 0.68271697
0.049309917 -0.10463323 0.68268704
0.05171302 -0.10462867 0.68265724
0.054115903 -0.10462408 0.68262732
0.056518588 -0.10461951 0.68259752
0.05892105 -0.10461493 0.6825676
0.061323307 -0.10461035 0.68253773
0.063725345 -0.10460576 0.68250775
0.066127144 -0.10460111 0.68247747
0.068528727 -0.10459648 0.68244725
0.070930101 -0.10459184 0.68241698
0.073331252 -0.10458719 0.68238664
0.075732201 -0.10458256 0.68235642
0.078132927 -0.10457792 0.68232614
0.080533452 -0.10457329 0.68229592
0.082933754 -0.10456865 0.68226564
0.085333847 -0.104564 0.68223536
0.087733731 -0.10455938 0.68220514
0.090133399 -0.10455474 0.68217492
0.092532851 -0.1045501 0.68214464
0.094932087 -0.10454546 0.68211436
0.097331114 -0.10454083 0.68208414
0.099729925 -0.10453619 0.68205386
0.10212854 -0.10453156 0.68202364
0.10452693 -0.10452693 0.68199342
0.10692511 -0.1045223 0.68196321
0.10932306 -0.10451765 0.68193293
0.11172082 -0.10451303 0.68190277
0.11411837 -0.1045084 0.68187255
0.1165157 -0.10450377 0.68184233
0.12425335 -0.10919234 0.71243328
0.015547759 -0.10165843 0.67888421
0.017938942 -0.10165401 0.6788547
0.020329917 -0.10164959 0.6788252
0.022720683 -0.10164516 0.67879564
0.025111243 -0.10164075 0.67876613
0.027501591 -0.10163631 0.67873657
0.029891741 -0.10163192 0.67870718
0.032281674 -0.10162749 0.67867762
0.034671396 -0.10162306 0.67864805
0.03706092 -0.10161866 0.67861861
0.039450228 -0.10161422 0.67858905
0.041839335 -0.10160982 0.6785596
0.04422823 -0.10160539 0.67853004
0.046616919 -0.10160098 0.67850059
0.049005397 -0.10159655 0.67847103
0.051393673 -0.10159215 0.67844158
0.053781737 -0.10158773 0.67841208
0.056169592 -0.10158331 0.67838258
0.058557242 -0.10157889 0.67835307
0.060944684 -0.10157447 0.67832357
0.063331924 -0.10157006 0.67829412
0.065718949 -0.10156564 0.67826462
0.068105772 -0.10156123 0.67823517
0.070492379 -0.10155682 0.67820567
0.072878733 -0.10155234 0.67817575
0.075264886 -0.10154787 0.67814589
0.077650823 -0.10154338 0.67811596
0.080036551 -0.1015389 0.67808604
0.08242207 -0.10153443 0.67805618
0.084807381 -0.10152996 0.67802632
0.087192476 -0.10152549 0.67799646
0.089577362 -0.10152101 0.67796654
0.091962039 -0.10151654 0.67793667
0.094346508 -0.10151207 0.67790681
0.096730769 -0.1015076 0.67787695
0.099114805 -0.10150311 0.67784703
0.10149864 -0.10149864 0.67781717
0.10388228 -0.10149418 0.67778736
0.10626569 -0.10148971 0.6777575
0.10864889 -0.10148522 0.67772758
0.1110319 -0.10148077 0.67769778
0.11341468 -0.10147629 0.67766792
0.11579727 -0.10147183 0.67763811
0.1254496 -0.10770925 0.71929216
0.013077537 -0.098675959 0.67484576
0.015452274 -0.098656826 0.67471492
0.017828776 -0.098652557 0.67468572
0.020205073 -0.098648295 0.67465657
0.022581164 -0.098644033 0.67462742
0.024957052 -0.098639771 0.67459828
0.027332729 -0.098635502 0.67456907
0.029708205 -0.09863124 0.67453992
0.032083474 -0.098626979 0.67451078
0.034458537 -0.09862271 0.67448157
0.036833402 -0.098618463 0.67445254
0.039208051 -0.098614193 0.67442334
0.041582506 -0.098609939 0.67439425
0.043956745 -0.09860567 0.67436504
0.046330787 -0.098601416 0.67433596
0.048704617 -0.098597154 0.67430681
0.051078245 -0.098592892 0.67427766
0.053451668 -0.098588631 0.67424852
0.055824883 -0.098584369 0.67421937
0.058197901 -0.098580115 0.67419028
0.060570706 -0.098575853 0.67416114
0.06294331 -0.098571599 0.67413205
0.065315709 -0.098567337 0.6741029
0.067687899 -0.098563083 0.67407382
0.070059888 -0.098558821 0.67404467
0.072431669 -0.098554567 0.67401558
0.074803248 -0.098550305 0.67398643
0.077174626 -0.098546065 0.67395741
0.079545744 -0.098541744 0.67392784
0.081916653 -0.09853743 0.67389834
0.08428736 -0.098533116 0.67386883
0.086657859 -0.098528795 0.67383933
0.08902815 -0.098524481 0.67380983
0.091398232 -0.098520167 0.67378032
0.093768105 -0.098515853 0.67375082
0.09613777 -0.098511539 0.67372131
0.098507226 -0.098507226 0.67369181
0.10087648 -0.098502912 0.6736623
0.10324553 -0.098498605 0.67363286
0.10561436 -0.098494291 0.67360336
0.10798298 -0.09848997 0.67357379
0.11035141 -0.098485664 0.67354435
0.11271963 -0.098481357 0.6735149
0.11606289 -0.099311545 0.67919254
0.12666866 -0.10619695 0.72628194
0.01310753 -0.096519083 0.67639351
0.015475676 -0.096425369 0.67573678
0.017839231 -0.096331842 0.67508137
0.020198204 -0.096238501 0.67442721
0.022552611 -0.096145339 0.67377436
0.024902461 -0.096052349 0.6731227
0.027247773 -0.095959552 0.67247236
0.029588558 -0.095866926 0.67182326
0.031924825 -0.095774472 0.67117536
0.034256592 -0.095682204 0.67052877
0.036608655 -0.095654875 0.67033726
0.038968828 -0.095650762 0.67030841
0.041328803 -0.095646657 0.67027968
0.043688573 -0.095642552 0.67025089
0.046048146 -0.095638454 0.67022216
0.048407506 -0.095634341 0.67019337
0.050766665 -0.095630229 0.67016453
0.053125627 -0.095626131 0.6701358
0.055484381 -0.095622018 0.67010701
0.05784294 -0.09561792 0.67007828
0.060201291 -0.095613815 0.67004949
0.062559433 -0.095609702 0.6700207
0.064917378 -0.095605597 0.66999191
0.067275129 -0.095601499 0.66996318
0.069632664 -0.095597386 0.66993439
0.071990006 -0.095593289 0.66990566
0.074347146 -0.095589191 0.66987693
0.076704077 -0.095585085 0.66984814
0.079060815 -0.09558098 0.66981941
0.081417337 -0.095576875 0.66979063
0.083773665 -0.095572777 0.6697619
0.086129762 -0.095568642 0.66973293
0.088485628 -0.095564485 0.66970378
0.090841293 -0.09556032 0.66967463
0.09319675 -0.095556162 0.66964549
0.095551997 -0.095551997 0.66961628
0.097907044 -0.09554784 0.66958714
0.10026189 -0.095543683 0.66955805
0.10261653 -0.095539525 0.6695289
0.10497096 -0.095535368 0.66949975
0.10732518 -0.09553121 0.66947061
0.10967921 -0.09552706 0.66944152
0.11203303 -0.095522895 0.66941237
0.11712563 -0.09780594 0.68541163
0.013137661 -0.09435229 0.67794836
0.015511218 -0.094260477 0.67728865
0.01788016 -0.094168842 0.67663026
0.0202445 -0.094077379 0.67597306
0.022604251 -0.093986101 0.67531717
0.024959428 -0.093894988 0.67466253
0.027310044 -0.093804061 0.6740092
0.029656114 -0.093713321 0.67335719
0.031997643 -0.093622737 0.67270631
0.034334656 -0.093532339 0.67205679
0.036667153 -0.093442105 0.67140841
0.038995162 -0.093352057 0.67076141
0.041318685 -0.093262181 0.67011559
0.043637741 -0.093172468 0.66947103
0.045952331 -0.093082935 0.66882765
0.048262488 -0.092993572 0.66818559
0.050568208 -0.092904381 0.66754472
0.052869506 -0.092815354 0.66690505
0.055166405 -0.092726514 0.66626668
0.057492282 -0.092691638 0.6660161
0.059836347 -0.092687674 0.66598761
0.062180221 -0.092683725 0.66595924
0.064523891 -0.092679769 0.66593081
0.066867366 -0.09267582 0.66590244
0.069210634 -0.092671864 0.665874
0.0715537 -0.092667907 0.66584557
0.073896565 -0.092663951 0.66581714
0.076239236 -0.092659995 0.66578871
0.078581706 -0.092656046 0.66576034
0.080923975 -0.092652082 0.66573191
0.08326605 -0.092648141 0.66570354
0.085607924 -0.092644192 0.66567516
0.087949596 -0.092640243 0.66564679
0.090291061 -0.09263628 0.66561836
0.092632316 -0.092632316 0.66558987
0.094973326 -0.0926283 0.66556102
0.097314134 -0.092624299 0.66553223
0.099654742 -0.092620291 0.66550344
0.10199516 -0.09261629 0.66547471
0.10433535 -0.092612274 0.66544586
0.10667535 -0.092608273 0.66541708
0.10901515 -0.092604272 0.66538835
0.11135475 -0.092600264 0.66535956
0.11820903 -0.096273333 0.6917516
0.013167931 -0.092175514 0.67951041
0.015546923 -0.092085615 0.67884767
0.017921276 -0.091995887 0.67818618
0.020291008 -0.091906331 0.677526
0.02265613 -0.091816947 0.67686707
0.025016658 -0.091727749 0.67620951
0.027372602 -0.091638714 0.67555314
0.02972398 -0.091549858 0.67489809
0.032070797 -0.091461159 0.67424423
0.034413077 -0.091372654 0.67359179
0.036750827 -0.091284305 0.67294049
0.039084058 -0.091196135 0.6722905
0.041412786 -0.091108128 0.67164171
0.043737024 -0.091020294 0.67099422
0.046056785 -0.09093263 0.67034793
0.048372086 -0.090845138 0.66970295
0.050682928 -0.090757802 0.66905916
0.052989334 -0.090670638 0.66841656
0.055291317 -0.090583645 0.66777527
0.057588883 -0.090496816 0.66713518
0.059882052 -0.090410158 0.66649634
0.062170833 -0.090323664 0.66585869
0.064455241 -0.090237334 0.66522229
0.066735283 -0.090151168 0.66458708
0.069010973 -0.090065174 0.66395313
0.071282335 -0.089979336 0.66332036
0.07354936 -0.089893669 0.66268879
0.075812079 -0.089808151 0.66205841
0.078108385 -0.089766353 0.66175026
0.080436558 -0.089762539 0.66172212
0.082764551 -0.089758739 0.66169411
0.085092336 -0.089754932 0.66166604
0.087419927 -0.089751132 0.66163802
0.089747317 -0.089747317 0.66160995
0.092074521 -0.089743517 0.66158193
0.094401516 -0.08973971 0.66155386
0.09672831 -0.089735903 0.66152579
0.09905491 -0.089732096 0.66149771
0.10138125 -0.089728229 0.66146922
0.1037074 -0.089724377 0.66144079
0.10603335 -0.089720525 0.66141242
0.10835909 -0.089716665 0.66138399
0.11068463 -0.089712806 0.6613555
0.11931265 -0.094712108 0.69820994
0.013198341 -0.089988686 0.68107969
0.015582791 -0.089900717 0.68041384
0.017962584 -0.089812919 0.67974937
0.020337731 -0.089725286 0.67908609
0.022708248 -0.089637816 0.67842412
0.02507415 -0.08955054 0.67776352
0.027435446 -0.089463413 0.67710412
0.029792156 -0.089376464 0.67644608
0.032144286 -0.08928968 0.67578924
0.034491856 -0.089203075 0.67513376
0.036834873 -0.089116625 0.67447948
0.039173357 -0.089030355 0.67382652
0.041507315 -0.088944241 0.6731748
0.043836761 -0.088858299 0.67252433
0.046161711 -0.08877252 0.67187512
0.048482176 -0.088686913 0.67122716
0.05079817 -0.088601463 0.67058045
0.053109702 -0.088516168 0.66993493
0.0554168 -0.08843106 0.66929078
0.057719454 -0.088346101 0.66864777
0.06001769 -0.088261306 0.668006
0.062311523 -0.088176683 0.66736549
0.064600959 -0.088092215 0.66672623
0.066886008 -0.088007905 0.6660881
0.069166698 -0.087923765 0.66545129
0.071443014 -0.087839775 0.6648156
0.073715001 -0.087755956 0.66418123
0.075982653 -0.087672286 0.66354799
0.07824599 -0.087588795 0.66291606
0.080505013 -0.087505452 0.66228527
0.082759738 -0.087422259 0.66165566
0.085010186 -0.08733923 0.66102725
0.087256357 -0.087256357 0.66040003
0.089498281 -0.087173656 0.65977407
0.091735944 -0.087091088 0.65914917
0.09396939 -0.087008692 0.65852559
0.096198596 -0.086926445 0.65790308
0.098462068 -0.086878292 0.65753865
0.10077457 -0.086874634 0.65751094
0.1030869 -0.086870976 0.65748328
0.10539902 -0.086867325 0.65745562
0.10771088 -0.086863607 0.65742749
0.1105212 -0.087253578 0.66037899
0.12043709 -0.093121469 0.70479012
0.013228892 -0.087791741 0.68265623
0.015618825 -0.087705709 0.68198729
0.01800408 -0.087619863 0.68131971
0.020384669 -0.087534167 0.68065339
0.022760607 -0.087448649 0.67998838
0.025131909 -0.087363303 0.67932475
0.027498582 -0.087278105 0.6786623
0.029860647 -0.087193094 0.67800122
0.032218114 -0.087108232 0.67734134
0.034570999 -0.087023549 0.67668289
0.036919307 -0.086939014 0.67602557
0.039263066 -0.086854659 0.67536962
0.041602273 -0.086770453 0.67471486
0.043936957 -0.086686425 0.67406148
0.046267118 -0.086602554 0.67340928
0.048592776 -0.086518846 0.6727584
0.050913941 -0.086435296 0.67210871
0.053230625 -0.086351901 0.67146027
0.055542845 -0.086268671 0.67081308
0.05785061 -0.086185604 0.67016715
0.060153943 -0.086102702 0.66952252
0.062452845 -0.086019956 0.66887909
0.064747341 -0.085937381 0.66823697
0.067037426 -0.085854948 0.66759598
0.069323123 -0.085772678 0.66695631
0.071604438 -0.085690558 0.66631776
0.073881395 -0.085608602 0.66568047
0.076154001 -0.085526802 0.66504437
0.078422263 -0.085445158 0.66440952
0.080686212 -0.085363671 0.66377592
0.082945831 -0.085282333 0.66314346
0.085201159 -0.085201159 0.66251224
0.087452188 -0.085120127 0.66188216
0.089698955 -0.085039265 0.66125339
0.091941439 -0.084958546 0.6606257
0.094179675 -0.084877983 0.65999925
0.096413679 -0.084797569 0.659374
0.098643452 -0.084717318 0.65874994
0.100869 -0.084637202 0.65812701
0.10309036 -0.084557265 0.65750539
0.10530752 -0.084477462 0.65688485
0.10752051 -0.084397815 0.65626556
0.11150456 -0.085682452 0.6662547
0.12158292 -0.091500551 0.7114954
0.013259584 -0.085584588 0.68424004
0.015655028 -0.085500531 0.683568
0.01804577 -0.085416645 0.68289733
0.020431824 -0.085332915 0.68222791
0.022813207 -0.085249357 0.68155986
0.025189931 -0.085165955 0.68089312
0.027562007 -0.085082717 0.68022764
0.029929455 -0.084999651 0.67956352
0.03229228 -0.084916733 0.6789006
0.034650501 -0.084833987 0.67823905
0.037004132 -0.084751397 0.67757875
0.039353188 -0.084668979 0.67691982
0.04169767 -0.084586702 0.67626202
0.044037607 -0.084504597 0.6756056
0.046373002 -0.084422648 0.67495042
0.048703879 -0.084340863 0.67429656
0.051030241 -0.084259234 0.67364395
0.053352103 -0.084177762 0.67299259
0.055669479 -0.084096447 0.67234248
0.057982381 -0.084015287 0.67169362
0.060290825 -0.083934285 0.67104602
0.062594816 -0.083853431 0.67039961
