# .PCD v0.7 - Point Cloud Data file format
VERSION 0.7
FIELDS x y z
SIZE 4 4 4
TYPE F F F
COUNT 1 1 1
WIDTH 1009
HEIGHT 1
VIEWPOINT 0 0 0 1 0 0 0
POINTS 1009
DATA ascii
-0.024160599 -0.0018585076 1.0549591
-0.020443587 -0.0018585079 1.0549592
-0.016726574 -0.0018585082 1.0549594
-0.013009559 -0.0018585084 1.0549595
-0.0092925429 -0.0018585087 1.0549597
-0.0055755274 -0.001858509 1.0549599
-0.0018585093 -0.0018585093 1.05496
0.0018585101 -0.0018585101 1.0549605
0.0055755409 -0.0018585137 1.0549625
0.0092925858 -0.0018585171 1.0549644
0.013009644 -0.0018585207 1.0549664
0.016726715 -0.001858524 1.0549684
0.020443803 -0.0018585275 1.0549704
0.024160905 -0.0018585311 1.0549724
0.027878018 -0.0018585345 1.0549743
-0.034972727 0.0018406698 1.0448337
-0.031291392 0.00184067 1.0448338
-0.027610054 0.0018406702 1.0448339
-0.023928719 0.0018406707 1.0448341
-0.020247379 0.0018406708 1.0448343
-0.016566042 0.0018406713 1.0448345
-0.012884701 0.0018406715 1.0448346
-0.0092033586 0.0018406718 1.0448347
-0.005522016 0.0018406719 1.0448349
-0.0018406721 0.0018406721 1.044835
0.0018406726 0.0018406726 1.0448352
0.0055220183 0.0018406728 1.0448353
0.0092033651 0.001840673 1.0448354
0.012884713 0.0018406732 1.0448356
0.016566062 0.0018406736 1.0448358
0.020247413 0.0018406739 1.0448359
0.023928765 0.0018406742 1.0448362
0.027610136 0.0018406757 1.044837
0.031291544 0.0018406791 1.0448389
0.034972969 0.0018406826 1.0448409
0.038654402 0.0018406858 1.0448427
-0.045579273 0.0054695131 1.0349007
-0.041932944 0.0054695141 1.0349009
-0.038286604 0.005469515 1.034901
-0.034640267 0.0054695164 1.0349013
-0.030993929 0.0054695169 1.0349014
-0.027347587 0.0054695173 1.0349015
-0.023701245 0.0054695182 1.0349016
-0.020054905 0.0054695192 1.0349019
-0.016408559 0.0054695201 1.034902
-0.012762215 0.0054695206 1.0349021
-0.0091158682 0.005469521 1.0349022
-0.005469522 0.005469522 1.0349023
-0.0018231744 0.0054695229 1.0349026
0.0018231745 0.0054695238 1.0349027
0.0054695248 0.0054695248 1.0349029
0.0091158757 0.0054695257 1.034903
0.012762228 0.0054695262 1.0349032
0.016408581 0.0054695271 1.0349033
0.020054935 0.0054695276 1.0349034
0.023701292 0.005469529 1.0349036
0.027347647 0.0054695294 1.0349038
0.030994004 0.0054695299 1.0349039
0.034640361 0.0054695308 1.034904
0.038286723 0.0054695318 1.0349042
0.041933082 0.0054695327 1.0349044
0.045579448 0.0054695336 1.0349046
0.049225811 0.0054695345 1.0349047
-0.045149453 0.0090298904 1.0251414
-0.041537501 0.0090298923 1.0251415
-0.037925549 0.0090298932 1.0251416
-0.034313601 0.0090298951 1.0251418
-0.030701647 0.009029896 1.025142
-0.027089691 0.0090298969 1.0251421
-0.023477739 0.0090298988 1.0251423
-0.019865781 0.0090299007 1.0251424
-0.016253822 0.0090299016 1.0251426
-0.012641863 0.0090299025 1.0251427
-0.0090299044 0.0090299044 1.0251429
-0.0054179435 0.0090299053 1.025143
-0.0018059815 0.0090299072 1.0251433
0.0018059817 0.009029909 1.0251434
0.0054179458 0.00902991 1.0251435
0.0090299109 0.0090299109 1.0251436
0.012641878 0.0090299128 1.0251439
0.016253846 0.0090299137 1.025144
0.019865811 0.0090299137 1.025144
0.023477774 0.0090299128 1.0251439
0.027089735 0.0090299118 1.0251437
0.030701693 0.00902991 1.0251435
0.034313653 0.009029909 1.0251434
0.037925612 0.0090299072 1.0251433
0.041537572 0.0090299062 1.0251431
0.045149527 0.0090299053 1.025143
0.04876148 0.0090299034 1.0251428
-0.048305847 0.012523738 1.0155637
-0.044727638 0.012523739 1.0155638
-0.041149437 0.012523742 1.0155641
-0.037571229 0.012523743 1.0155642
-0.033993024 0.012523746 1.0155644
-0.030414816 0.012523748 1.0155646
-0.026836606 0.012523749 1.0155647
-0.023258394 0.012523751 1.0155648
-0.019680185 0.012523754 1.015565
-0.016101971 0.012523755 1.0155652
-0.012523754 0.012523754 1.015565
-0.0089455359 0.012523751 1.0155648
-0.005367321 0.012523749 1.0155647
-0.0017891069 0.012523748 1.0155646
0.0017891066 0.012523746 1.0155644
0.0053673191 0.012523745 1.0155643
0.0089455312 0.012523743 1.0155642
0.012523741 0.012523741 1.015564
0.016101951 0.012523739 1.0155638
0.019680159 0.012523738 1.0155637
0.023258364 0.012523735 1.0155635
0.02683657 0.012523733 1.0155634
0.030414777 0.012523732 1.0155632
0.033992983 0.01252373 1.0155631
0.037571188 0.012523728 1.015563
0.041149389 0.012523727 1.0155629
0.044727586 0.012523725 1.0155627
0.048305787 0.012523723 1.0155625
-0.047878399 0.015959466 1.0065773
-0.044331584 0.015959369 1.0065712
-0.040784813 0.015959276 1.0065652
-0.037238084 0.015959179 1.0065591
-0.033691399 0.015959084 1.0065532
-0.030144755 0.015958987 1.0065471
-0.026598152 0.015958892 1.006541
-0.023051595 0.015958797 1.0065351
-0.019505082 0.015958702 1.0065291
-0.015958605 0.015958605 1.006523
-0.012412175 0.01595851 1.0065169
-0.0088657867 0.015958415 1.006511
-0.0053194398 0.015958318 1.0065049
-0.0017731361 0.015958223 1.0064989
0.0017731254 0.015958128 1.0064929
0.0053193443 0.015958034 1.0064869
0.0088655204 0.015957937 1.0064808
0.012411654 0.01595784 1.0064747
0.015957747 0.015957747 1.0064688
0.019503795 0.01595765 1.0064627
0.023049802 0.015957555 1.0064567
0.026595766 0.01595746 1.0064507
0.030141685 0.015957363 1.0064446
0.033687565 0.015957268 1.0064386
0.037233405 0.015957173 1.0064327
0.040779196 0.015957078 1.0064266
0.044324946 0.015956981 1.0064205
0.047870658 0.015956886 1.0064145
0.051416323 0.015956789 1.0064085
-0.047940407 0.019531278 1.0078809
-0.044389006 0.019531162 1.007875
-0.040837642 0.019531047 1.007869
-0.037286319 0.019530928 1.0078629
-0.033735041 0.019530812 1.007857
-0.030183801 0.019530695 1.0078509
-0.026632609 0.019530579 1.0078449
-0.023081455 0.019530462 1.0078388
-0.019530345 0.019530345 1.0078328
-0.015979277 0.019530226 1.0078267
-0.012428252 0.01953011 1.0078207
-0.0088772699 0.019529993 1.0078146
-0.0053263297 0.019529875 1.0078086
-0.0017754327 0.01952976 1.0078026
0.001775422 0.019529643 1.0077965
0.0053262338 0.019529523 1.0077904
0.0088770036 0.019529408 1.0077845
0.01242773 0.01952929 1.0077784
0.015978415 0.019529173 1.0077723
0.019529056 0.019529056 1.0077662
0.023079656 0.01952894 1.0077603
0.026630212 0.019528821 1.0077542
0.030180728 0.019528706 1.0077482
0.0337312 0.019528588 1.0077422
0.037281625 0.019528471 1.0077361
0.040832009 0.019528354 1.00773
0.044382356 0.019528238 1.007724
0.047932658 0.019528119 1.007718
0.051482912 0.019528002 1.0077119
-0.048002582 0.023112355 1.0091881
-0.044446573 0.023112219 1.0091821
-0.040890601 0.023112079 1.009176
-0.037334677 0.023111943 1.0091701
-0.033778794 0.023111805 1.0091641
-0.030222952 0.023111669 1.0091581
-0.02666715 0.02311153 1.0091521
-0.023111392 0.023111392 1.009146
-0.019555675 0.023111252 1.0091399
-0.016000001 0.023111112 1.0091338
-0.01244437 0.023110973 1.0091277
-0.0088887829 0.023110837 1.0091218
-0.0053332378 0.023110697 1.0091157
-0.0017777353 0.023110557 1.0091096
0.0017777245 0.02311042 1.0091035
0.0053331414 0.02311028 1.0090975
0.0088885156 0.02311014 1.0090914
0.012443848 0.023110004 1.0090854
0.015999136 0.023109864 1.0090793
0.019554384 0.023109725 1.0090733
0.023109587 0.023109587 1.0090672
0.026664747 0.023109447 1.0090611
0.030219864 0.023109308 1.009055
0.033774942 0.023109172 1.0090491
0.037329976 0.023109032 1.009043
0.040884964 0.023108892 1.0090369
0.044439912 0.023108754 1.0090308
0.047994815 0.023108615 1.0090247
-0.048064917 0.026702732 1.0104985
-0.044504289 0.026702574 1.0104926
-0.040943701 0.026702413 1.0104865
-0.037383158 0.026702255 1.0104805
-0.033822656 0.026702099 1.0104746
-0.030262195 0.026701936 1.0104685
-0.02670178 0.02670178 1.0104625
-0.023141406 0.026701622 1.0104566
-0.019581072 0.026701462 1.0104505
-0.01602078 0.026701301 1.0104444
-0.012460532 0.026701139 1.0104383
-0.0089003267 0.026700979 1.0104322
-0.0053401636 0.026700819 1.0104262
-0.0017800439 0.026700659 1.0104201
0.0017800332 0.026700497 1.010414
0.0053400672 0.026700336 1.0104079
0.0089000585 0.026700176 1.0104018
0.012460007 0.026700016 1.0103958
0.016019912 0.026699854 1.0103897
0.019579777 0.026699698 1.0103837
0.023139598 0.026699537 1.0103776
0.026699375 0.026699375 1.0103716
0.03025911 0.026699215 1.0103655
0.0338188 0.026699051 1.0103593
0.037378449 0.026698891 1.0103532
0.040938057 0.026698733 1.0103472
0.04449762 0.026698573 1.0103412
0.048057143 0.026698412 1.0103351
-0.048127413 0.030302446 1.0118124
-0.044562157 0.030302268 1.0118065
-0.040996939 0.030302085 1.0118004
-0.037431762 0.030301902 1.0117943
-0.033866633 0.030301724 1.0117884
-0.030301547 0.030301547 1.0117824
-0.026736498 0.030301364 1.0117763
-0.023171492 0.030301182 1.0117702
-0.019606531 0.030301003 1.0117643
-0.01604161 0.03030082 1.0117582
-0.012476735 0.030300643 1.0117522
-0.0089119002 0.030300461 1.0117462
-0.005347108 0.030300278 1.0117401
-0.0017823586 0.030300096 1.011734
0.0017823479 0.030299915 1.0117279
0.0053470111 0.030299729 1.0117217
0.008911632 0.03029955 1.0117158
0.01247621 0.030299367 1.0117097
0.016040744 0.030299183 1.0117035
0.019605236 0.030299 1.0116974
0.023169685 0.030298818 1.0116913
0.026734091 0.030298635 1.0116853
0.030298455 0.030298455 1.0116792
0.033862773 0.030298272 1.0116731
0.037427053 0.03029809 1.011667
0.040991288 0.030297907 1.0116609
0.044555474 0.030297723 1.0116547
0.048119627 0.030297544 1.0116488
-0.048190068 0.03391153 1.0131297
-0.044620171 0.033911332 1.0131238
-0.041050311 0.033911128 1.0131177
-0.037480496 0.033910923 1.0131116
-0.033910725 0.033910725 1.0131056
-0.030340992 0.03391052 1.0130996
-0.026771307 0.033910323 1.0130936
-0.023201659 0.033910118 1.0130875
-0.019632056 0.033909913 1.0130814
-0.016062494 0.033909712 1.0130754
-0.012492978 0.033909511 1.0130694
-0.0089235017 0.03390931 1.0130633
-0.0053540692 0.033909105 1.0130572
-0.0017846792 0.033908904 1.0130513
0.0017846685 0.033908702 1.0130452
0.0053539728 0.033908494 1.013039
0.0089232344 0.033908289 1.0130329
0.012492453 0.033908088 1.0130268
0.016061628 0.033907883 1.0130208
0.019630762 0.033907682 1.0130147
0.023199849 0.033907473 1.0130085
0.026768897 0.033907268 1.0130024
0.0303379 0.033907067 1.0129963
0.033906862 0.033906862 1.0129902
0.03747578 0.033906657 1.0129842
0.041044652 0.033906452 1.012978
0.044613484 0.033906247 1.0129719
0.048182271 0.033906043 1.0129658
-0.048252895 0.037530031 1.0144506
-0.044678342 0.037529804 1.0144445
-0.041103825 0.03752958 1.0144384
-0.037529361 0.037529361 1.0144324
-0.033954933 0.037529133 1.0144264
-0.030380547 0.03752891 1.0144203
-0.026806204 0.037528686 1.0144142
-0.023231903 0.037528459 1.0144081
-0.019657647 0.037528235 1.014402
-0.016083432 0.037528012 1.014396
-0.012509262 0.037527785 1.0143899
-0.0089351349 0.037527565 1.0143839
-0.0053610485 0.037527341 1.0143778
-0.0017870055 0.037527114 1.0143718
0.0017869947 0.037526891 1.0143657
0.005360953 0.037526671 1.0143597
0.0089348676 0.037526444 1.0143536
0.012508739 0.037526216 1.0143474
0.016082568 0.037525989 1.0143414
0.019656353 0.037525766 1.0143353
0.023230096 0.037525542 1.0143292
0.026803793 0.037525311 1.014323
0.030377451 0.037525088 1.0143169
0.033951063 0.037524857 1.0143107
0.037524633 0.037524633 1.0143046
0.041098159 0.037524406 1.0142986
0.044671647 0.037524182 1.0142925
0.048245084 0.037523951 1.0142863
-0.048315883 0.041157972 1.0157747
-0.044736661 0.041157726 1.0157686
-0.04115748 0.04115748 1.0157626
-0.037578344 0.041157234 1.0157565
-0.033999249 0.041156989 1.0157504
-0.030420201 0.041156743 1.0157443
-0.026841192 0.041156493 1.0157382
-0.023262227 0.041156247 1.0157322
-0.019683307 0.041156009 1.0157262
-0.016104426 0.041155756 1.01572
-0.01252559 0.04115551 1.0157139
-0.0089467959 0.041155264 1.0157079
-0.0053680465 0.041155022 1.0157019
-0.0017893381 0.041154776 1.0156958
0.0017893274 0.04115453 1.0156897
0.0053679501 0.041154284 1.0156837
0.0089465296 0.041154038 1.0156776
0.012525067 0.041153789 1.0156715
0.01610356 0.041153543 1.0156654
0.019682012 0.041153297 1.0156593
0.023260418 0.041153047 1.0156531
0.026838783 0.041152801 1.0156471
0.030417105 0.041152552 1.015641
0.033995379 0.041152302 1.0156348
0.037573613 0.041152053 1.0156286
0.041151803 0.041151803 1.0156225
0.044729948 0.041151553 1.0156163
0.048308056 0.041151308 1.0156102
-0.04837903 0.044795398 1.0171024
-0.044795129 0.044795129 1.0170963
-0.041211274 0.044794865 1.0170902
-0.037627459 0.044794597 1.0170841
-0.034043688 0.044794329 1.017078
-0.030459961 0.04479406 1.017072
-0.026876276 0.044793792 1.0170659
-0.023292633 0.044793524 1.0170598
-0.01970903 0.044793252 1.0170536
-0.016125476 0.044792987 1.0170476
-0.012541962 0.044792723 1.0170416
-0.0089584896 0.044792447 1.0170354
-0.0053750616 0.044792179 1.0170293
-0.0017916765 0.044791915 1.0170232
0.0017916658 0.044791646 1.0170171
0.0053749653 0.044791378 1.017011
0.0089582223 0.04479111 1.017005
0.012541436 0.044790842 1.0169989
0.016124606 0.044790573 1.0169928
0.019707736 0.044790305 1.0169867
0.02329082 0.044790037 1.0169806
0.026873862 0.044789772 1.0169746
0.030456858 0.044789497 1.0169684
0.03403981 0.044789225 1.0169622
0.037622724 0.044788957 1.0169561
0.041205592 0.044788688 1.01695
0.044788416 0.044788416 1.0169438
0.048371196 0.044788145 1.0169376
-0.048442345 0.048442345 1.0184335
-0.044853754 0.048442055 1.0184274
-0.041265208 0.048441768 1.0184213
-0.037676703 0.048441477 1.0184152
-0.034088243 0.048441187 1.0184091
-0.030499822 0.048440892 1.0184029
-0.026911447 0.048440605 1.0183969
-0.023323115 0.048440315 1.0183908
-0.019734826 0.048440024 1.0183847
-0.016146578 0.04843973 1.0183785
-0.012558375 0.048439447 1.0183725
-0.0089702131 0.048439153 1.0183663
-0.0053820959 0.048438862 1.0183603
-0.0017940212 0.048438575 1.0183542
0.0017940105 0.048438285 1.0183481
0.0053819991 0.04843799 1.0183419
0.0089699449 0.0484377 1.0183358
0.012557847 0.048437413 1.0183297
0.016145708 0.048437122 1.0183237
0.019733524 0.048436832 1.0183176
0.023321297 0.048436537 1.0183114
0.026909027 0.048436251 1.0183053
0.030496716 0.04843596 1.0182992
0.034084361 0.048435669 1.0182931
0.037671965 0.048435383 1.0182871
0.04125952 0.048435088 1.0182809
0.04484703 0.048434794 1.0182747
0.048434503 0.048434503 1.0182686
-0.044912536 0.052098542 1.019762
-0.041319285 0.052098226 1.0197558
-0.037726078 0.052097917 1.0197498
-0.034132913 0.052097604 1.0197437
-0.03053979 0.052097287 1.0197375
-0.026946712 0.052096978 1.0197314
-0.023353675 0.052096661 1.0197252
-0.019760685 0.052096352 1.0197191
-0.016167736 0.052096039 1.019713
-0.01257483 0.052095722 1.0197068
-0.0089819673 0.052095413 1.0197008
-0.0053891484 0.0520951 1.0196947
-0.0017963721 0.052094791 1.0196886
0.0017963612 0.052094474 1.0196824
0.0053890515 0.052094165 1.0196763
0.0089816991 0.052093852 1.0196702
0.012574302 0.052093536 1.019664
0.016166864 0.052093226 1.019658
0.019759381 0.052092917 1.0196519
0.023351856 0.052092601 1.0196457
0.026944287 0.052092288 1.0196396
0.030536672 0.052091971 1.0196334
0.03412902 0.052091662 1.0196273
0.037721321 0.052091349 1.0196213
0.041313585 0.05209104 1.0196152
0.0449058 0.052090731 1.0196091
0.048497971 0.052090414 1.0196029
-0.048265778 0.055416264 1.0147214
-0.044690482 0.0554162 1.0147202
-0.041115314 0.05541629 1.0147219
-0.037540045 0.05541626 1.0147213
-0.033964787 0.055416234 1.0147208
-0.030389529 0.0554162 1.0147202
-0.026814278 0.055416174 1.0147197
-0.023239028 0.055416141 1.0147191
-0.019663783 0.055416115 1.0147187
-0.01608854 0.055416081 1.0147181
-0.012513303 0.055416055 1.0147176
-0.0089380695 0.055416029 1.0147171
-0.0053628385 0.055415999 1.0147165
-0.0017876117 0.055415966 1.0147159
0.0017876109 0.05541594 1.0147154
0.0053628301 0.055415913 1.014715
0.0089380452 0.05541588 1.0147144
0.012513258 0.055415854 1.0147139
0.016088465 0.05541582 1.0147133
0.019663669 0.055415794 1.0147128
0.023238869 0.055415764 1.0147122
0.026814066 0.055415738 1.0147117
0.030389257 0.055415705 1.0147111
0.033964448 0.055415679 1.0147107
0.037539631 0.055415645 1.0147101
0.041114815 0.055415619 1.0147096
0.044689994 0.055415593 1.0147091
0.048265159 0.055415556 1.0147084
-0.047863841 0.058500253 1.0062712
-0.044318326 0.058500189 1.0062702
-0.040772811 0.058500122 1.006269
-0.037227307 0.058500051 1.0062678
-0.033682104 0.058500495 1.0062754
-0.030136529 0.058500323 1.0062724
-0.026591042 0.058500294 1.006272
-0.023045557 0.05850026 1.0062714
-0.019500077 0.05850023 1.0062709
-0.015954601 0.058500204 1.0062704
-0.012409126 0.058500171 1.0062698
-0.0088636577 0.058500141 1.0062693
-0.0053181914 0.058500107 1.0062687
-0.0017727297 0.058500078 1.0062683
0.0017727289 0.058500051 1.0062678
0.0053181835 0.058500018 1.0062672
0.0088636344 0.058499988 1.0062667
0.012409082 0.058499955 1.0062661
0.015954526 0.058499929 1.0062656
0.019499967 0.058499899 1.0062652
0.023045402 0.058499865 1.0062646
0.026590835 0.058499835 1.0062641
0.030136261 0.058499802 1.0062635
0.033681687 0.058499776 1.006263
0.037226923 0.058499448 1.0062574
0.040772513 0.05849969 1.0062616
0.044317931 0.058499672 1.0062612
0.047863349 0.058499649 1.0062609
0.051408764 0.058499631 1.0062605
-0.047468554 0.06153331 0.99796081
-0.043952312 0.061533235 0.99795961
-0.040436082 0.061533168 0.99795854
-0.036919858 0.061533097 0.99795735
-0.033403646 0.06153303 0.99795628
-0.0298877 0.0615335 0.99796391
-0.026371557 0.061533634 0.99796605
-0.02285539 0.061533742 0.99796784
-0.019339077 0.061533425 0.99796271
-0.015822874 0.061533395 0.99796224
-0.012306672 0.061533362 0.99796164
-0.0087904762 0.061533332 0.99796116
-0.0052742828 0.061533302 0.99796069
-0.0017580932 0.061533265 0.99796009
0.0017580924 0.061533235 0.99795961
0.0052742749 0.061533205 0.99795914
0.008790453 0.061533168 0.99795854
0.012306628 0.061533138 0.99795806
0.0158228 0.061533112 0.99795759
0.019338965 0.061533075 0.99795699
0.022855131 0.061533045 0.99795651
0.026371185 0.061532766 0.99795198
0.029887475 0.061533038 0.9979564
0.033403575 0.061532903 0.99795425
0.036919728 0.061532881 0.99795389
0.04043588 0.061532859 0.99795353
0.043952029 0.06153284 0.99795318
0.047468178 0.061532825 0.99795294
0.050984323 0.061532803 0.99795258
-0.047079731 0.064516671 0.98978639
-0.0435923 0.064516604 0.98978537
-0.040104866 0.064516522 0.98978418
-0.03661745 0.064516462 0.98978317
-0.033130035 0.06451638 0.98978198
-0.02964263 0.064516313 0.9897809
-0.026155232 0.064516239 0.98977977
-0.022668179 0.064517125 0.98979342
-0.019180676 0.06451682 0.98978865
-0.015693337 0.064517051 0.98979223
-0.012205895 0.064516872 0.98978955
-0.0087184915 0.064516842 0.98978901
-0.0052310927 0.064516813 0.98978853
-0.0017436967 0.064516775 0.98978806
0.0017436957 0.064516738 0.98978746
0.0052310843 0.064516708 0.98978698
0.0087184701 0.064516678 0.98978651
0.012205851 0.064516641 0.98978597
0.015693348 0.064517103 0.989793
0.019180413 0.064515933 0.98977512
0.022667859 0.064516217 0.98977941
0.026155312 0.064516433 0.98978281
0.029642681 0.064516418 0.98978257
0.033130046 0.064516403 0.98978233
0.036617406 0.06451638 0.98978198
0.040104762 0.064516358 0.98978162
0.043592118 0.064516336 0.98978126
0.04707947 0.064516313 0.9897809
0.050566826 0.064516298 0.98978066
-0.046697229 0.067451552 0.98174483
-0.043238133 0.067451485 0.98174381
-0.039779034 0.06745141 0.98174268
-0.036319949 0.067451335 0.98174161
-0.032860868 0.067451254 0.98174047
-0.0294018 0.067451186 0.98173946
-0.025942735 0.067451112 0.98173839
-0.022483679 0.067451037 0.98173726
-0.019024631 0.067450963 0.98173624
-0.015565884 0.067452163 0.98175371
-0.012106668 0.06745144 0.9817431
-0.0086477529 0.067452475 0.98175818
-0.0051886332 0.067452237 0.98175472
-0.0017295338 0.06745182 0.98174864
0.001729533 0.067451783 0.98174816
0.0051885964 0.067451753 0.98174769
0.0086476607 0.067451753 0.98174769
0.012106542 0.067450732 0.98173285
0.015565588 0.067450881 0.98173505
0.019024776 0.067451477 0.98174369
0.022483833 0.067451499 0.98174405
0.025942875 0.067451477 0.98174369
0.029401915 0.067451455 0.98174334
0.032860957 0.06745144 0.9817431
0.036319993 0.067451417 0.9817428
0.039779026 0.067451388 0.98174244
0.043238055 0.067451365 0.98174208
0.046697084 0.067451343 0.98174173
0.050156109 0.067451321 0.98174137
-0.046320893 0.070339136 0.97383285
-0.04288967 0.070339061 0.97383183
-0.039458457 0.070338987 0.97383082
-0.036027245 0.070338905 0.97382969
-0.032596044 0.07033883 0.97382867
-0.029164847 0.070338748 0.97382754
-0.025733663 0.070338674 0.97382653
-0.022302482 0.070338592 0.9738254
-0.018871311 0.070338525 0.97382438
-0.015440147 0.07033845 0.97382337
-0.012008989 0.070338368 0.97382224
-0.0085891718 0.07043121 0.97510761
-0.0051661888 0.070604585 0.97750795
-0.0017242536 0.070694394 0.97875142
0.0017248584 0.070719197 0.97909474
0.0051719239 0.070682958 0.97859305
0.0086072888 0.070579767 0.97716439
0.012017401 0.070387632 0.97450429
0.01544033 0.070339277 0.97383487
0.01887151 0.07033927 0.97383469
0.022302685 0.07033924 0.97383434
0.025733858 0.070339218 0.97383398
0.029165031 0.070339195 0.97383368
0.032596201 0.070339166 0.97383332
0.036027368 0.070339151 0.97383308
0.039458532 0.070339128 0.97383273
0.042889696 0.070339106 0.97383243
0.046320856 0.070339076 0.97383207
0.049752012 0.070339054 0.97383171
-0.04595058 0.073180556 0.96604753
-0.042546783 0.073180467 0.96604639
-0.039143212 0.073180787 0.96605062
-0.035739433 0.07318075 0.96605009
-0.032335587 0.073180534 0.96604729
-0.028931769 0.073180355 0.9660449
-0.025528036 0.07318037 0.96604514
-0.022124339 0.073180504 0.96604693
-0.018720673 0.073180817 0.96605098
-0.015316978 0.073181115 0.96605498
-0.011986158 0.073629253 0.9719708
-0.008600452 0.073963888 0.97638822
-0.0051730014 0.074146353 0.97879696
-0.001726536 0.07424105 0.98004699
0.0017271425 0.074267127 0.98039126
0.0051787649 0.074228965 0.97988749
0.0086186295 0.074120216 0.97845191
0.012033095 0.073917583 0.97577697
0.015390914 0.073534369 0.9707182
0.018720457 0.073179968 0.96603984
0.022124197 0.073180035 0.96604073
0.025528006 0.073180281 0.96604395
0.028931832 0.073180519 0.96604705
0.032335453 0.073180236 0.96604329
0.035739422 0.07318072 0.96604973
0.03914316 0.07318069 0.96604937
0.042546906 0.073180683 0.96604919
0.045950644 0.073180653 0.96604884
0.049354378 0.073180631 0.96604854
-0.045741983 0.076236635 0.96166205
-0.042209376 0.075976871 0.95838535
-0.038832586 0.075976796 0.95838439
-0.035455801 0.075976714 0.95838338
-0.032079026 0.07597664 0.95838237
-0.028702261 0.075976573 0.95838153
-0.025325498 0.075976491 0.95838052
-0.021948742 0.075976416 0.95837957
-0.018571993 0.075976335 0.95837855
-0.015195254 0.075976275 0.95837778
-0.012001669 0.077153586 0.97322857
-0.008611761 0.077505857 0.97767216
-0.005179828 0.077697419 0.98008859
-0.0017288242 0.077797092 0.98134589
0.0017294327 0.077824473 0.9816913
0.0051856129 0.077784188 0.98118317
0.0086299749 0.07766977 0.97973984
0.012048804 0.077456601 0.97705084
0.015410657 0.077053286 0.97196341
0.018572316 0.075977661 0.95839524
0.021949222 0.075978078 0.95840055
0.025325969 0.075977907 0.9583984
0.028702702 0.075977743 0.95839632
0.032079417 0.075977571 0.95839411
0.035456117 0.075977392 0.9583919
0.038832802 0.075977221 0.95838976
0.042209473 0.07597705 0.95838755
0.045586132 0.075976886 0.95838547
0.049156453 0.076277256 0.96217442
-0.045805987 0.079736345 0.96300763
-0.042239979 0.079411164 0.95908028
-0.038702942 0.079088621 0.95518482
-0.03519452 0.078768693 0.95132089
-0.031826634 0.078729041 0.95084202
-0.028476434 0.078728959 0.95084107
-0.025126239 0.078728884 0.95084012
-0.02177605 0.078728803 0.9508391
-0.018425871 0.078728721 0.95083815
-0.015075699 0.078728653 0.95083731
-0.011725691 0.078729637 0.95084924
-0.0083754603 0.078729324 0.95084548
-0.0051866723 0.081257865 0.98138362
-0.0017311187 0.081362575 0.98264825
0.0017317277 0.0813912 0.98299402
0.0051924675 0.081348658 0.98248017
0.0086413482 0.081228673 0.98103106
0.011725629 0.07872922 0.95084417
0.015075687 0.078728586 0.95083654
0.018426176 0.078730024 0.95085388
0.021776341 0.078729846 0.95085174
0.025126491 0.078729667 0.95084959
0.028476626 0.078729495 0.95084751
0.031826746 0.078729317 0.95084536
0.035176851 0.078729138 0.95084321
0.038568471 0.078813829 0.95186603
0.042092033 0.079133019 0.95572102
0.04564425 0.079454802 0.95960736
0.049225472 0.079779215 0.96352535
-0.045870163 0.083245851 0.9643569
-0.042298928 0.082905896 0.9604187
-0.038756736 0.082568698 0.95651239
-0.035243239 0.082234226 0.95263779
-0.031758089 0.081902444 0.94879425
-0.028300954 0.081573337 0.94498175
-0.024930093 0.08143831 0.94341749
-0.02160606 0.081438228 0.94341654
-0.018282032 0.081438147 0.94341558
-0.014958063 0.081438348 0.94341791
-0.011634128 0.081438892 0.94342428
-0.008310101 0.081438996 0.94342542
-0.0049860529 0.081438862 0.94342393
-0.0016620173 0.081438847 0.94342375
0.0016620167 0.081438825 0.94342345
0.0049860491 0.081438802 0.94342321
0.0083100796 0.08143878 0.94342291
0.011634111 0.08143878 0.94342297
0.014958167 0.081438906 0.94342446
0.018281979 0.081437908 0.9434129
0.02160616 0.081438601 0.94342089
0.024930127 0.081438415 0.94341874
0.028254082 0.081438236 0.94341666
0.031649485 0.081622355 0.94554961
0.035121735 0.081950717 0.94935346
0.03862204 0.082281739 0.95318812
0.042150736 0.082615443 0.9570539
0.045708165 0.082951859 0.96095109
0.049294684 0.083291017 0.96488011
-0.045934524 0.086765215 0.96570998
-0.042358033 0.086410388 0.96176076
-0.03881067 0.086058445 0.95784354
-0.035292089 0.085709356 0.95395815
-0.031801935 0.08536309 0.95010412
-0.028339868 0.085019611 0.94628114
-0.024905551 0.084678873 0.94248873
-0.02149865 0.084340855 0.93872654
-0.018140426 0.084105611 0.93610823
-0.014842167 0.084105611 0.93610823
-0.011543904 0.084105588 0.93610799
-0.0082456432 0.084105566 0.9361077
-0.0049473848 0.084105544 0.93610746
-0.0016491278 0.084105514 0.93610716
0.0016491273 0.084105492 0.93610692
0.0049473811 0.084105477 0.93610674
0.008245633 0.084105454 0.93610644
0.011543883 0.084105432 0.9361062
0.01484213 0.084105402 0.93610591
0.018140377 0.08410538 0.93610567
0.021438617 0.084105343 0.93610525
0.024821727 0.084393866 0.93931657
0.028243711 0.084731132 0.94307035
0.031693157 0.085071102 0.94685429
0.035170391 0.085413806 0.95066863
0.038675759 0.08575929 0.95451391
0.042209599 0.086107582 0.95839047
0.045772258 0.086458713 0.96229857
0.049364094 0.086812712 0.96623868
-0.045999065 0.090294465 0.96706688
-0.042417303 0.089924678 0.96310645
-0.038864758 0.089557923 0.95917845
-0.035341073 0.089194134 0.95528221
-0.031845897 0.088833287 0.95141751
-0.028378885 0.088475347 0.94758391
-0.024939705 0.088120289 0.94378114
-0.021528015 0.087768063 0.94000876
-0.018154254 0.087470502 0.93682182
-0.014853391 0.087469973 0.93681616
-0.011552567 0.087469436 0.93681043
-0.0082517825 0.0874689 0.93680465
-0.0049510389 0.087468356 0.93679887
-0.0016503363 0.087467819 0.93679315
0.0016503263 0.08746729 0.93678749
0.0049509485 0.087466761 0.93678176
0.0082515301 0.087466218 0.93677598
0.011552071 0.087465681 0.9367702
0.014852572 0.087465145 0.93676448
0.01815303 0.087464608 0.9367587
0.021456135 0.087475009 0.93687016
0.024855748 0.087823644 0.94060403
0.028282579 0.088175096 0.94436818
0.031736944 0.088529371 0.9481625
0.035219185 0.088886507 0.9519875
0.038729627 0.089246534 0.95584339
0.04226863 0.089609489 0.95973074
0.045836534 0.089975417 0.96364987
0.049433697 0.090344347 0.96760112
-0.046063788 0.093833648 0.9684276
-0.04247674 0.093448825 0.96445602
-0.038918998 0.093067169 0.96051705
-0.035390195 0.092688605 0.95661002
-0.031889983 0.092313103 0.95273459
-0.028418014 0.091940634 0.94889045
-0.024973949 0.091571145 0.94507706
-0.021557458 0.091204628 0.94129431
-0.018178452 0.090892255 0.93807048
-0.014873189 0.090891711 0.93806481
-0.011567966 0.09089116 0.93805915
-0.0082627824 0.090890601 0.93805337
-0.0049576391 0.09089005 0.93804771
-0.0016525362 0.090889491 0.93804193
0.0016525261 0.090888932 0.93803614
0.0049575479 0.090888381 0.93803042
0.008262529 0.090887815 0.93802464
0.011567469 0.090887256 0.93801886
0.014872368 0.090886697 0.93801308
0.018177228 0.090886138 0.9380073
0.021485474 0.090900086 0.93815124
0.024889875 0.091262877 0.94189548
0.028321557 0.091628566 0.94566965
0.031780854 0.091997214 0.94947433
0.035268109 0.092368856 0.95330995
0.038783647 0.092743509 0.95717663
0.042327825 0.093121216 0.96107483
0.045900989 0.093502015 0.96500498
0.049503494 0.093885943 0.96896732
-0.046128694 0.097382799 0.96979213
-0.042536344 0.096982867 0.9658094
-0.038973387 0.09658622 0.96185935
-0.035439454 0.0961928 0.95794147
-0.031934187 0.09580256 0.95405525
-0.028457247 0.095415473 0.95020044
-0.025008291 0.095031507 0.94637668
-0.021586983 0.094650611 0.9425835
-0.018202716 0.094323166 0.93932259
-0.01489304 0.094322592 0.93931687
-0.011583405 0.094322011 0.93931109
-0.0082738101 0.094321437 0.93930542
-0.0049642562 0.094320871 0.93929976
-0.0016547419 0.09432029 0.93929398
0.0016547318 0.094319709 0.9392882
0.0049641649 0.094319128 0.93928242
0.0082735568 0.094318546 0.93927658
0.011582907 0.094317965 0.93927079
0.014892219 0.094317384 0.93926501
0.018201491 0.09431681 0.93925935
0.021514896 0.09433455 0.93943596
0.024924094 0.094711557 0.9431904
0.028360648 0.095091581 0.94697493
0.031824894 0.09547469 0.95079011
0.035317171 0.095860891 0.95463616
0.03883782 0.096250251 0.95851362
0.042387187 0.096642792 0.96242273
0.045965623 0.097038537 0.96636379
0.049573492 0.097437561 0.97033745
-0.046193782 0.10094197 0.97116053
-0.04259612 0.10052684 0.9671666
-0.039027926 0.10011511 0.9632054
-0.035488848 0.099706762 0.95927662
-0.031978518 0.099301711 0.95537966
-0.02849659 0.098899923 0.95151407
-0.025042726 0.098501392 0.94767976
-0.021616586 0.098106042 0.94387615
-0.018227044 0.097763233 0.94057798
-0.014912944 0.097762629 0.9405722
-0.011598886 0.097762041 0.94056648
-0.0082848687 0.097761452 0.94056082
-0.0049708905 0.097760849 0.94055504
-0.0016569535 0.097760253 0.94054931
0.0016569432 0.097759657 0.94054353
0.0049707987 0.097759046 0.94053769
0.0082846154 0.097758457 0.94053203
0.01159839 0.097757854 0.94052625
0.014912123 0.09775725 0.94052041
0.018225815 0.097756647 0.94051462
0.021544397 0.097778417 0.94072407
0.024958404 0.098169722 0.94448882
0.028399851 0.098564193 0.94828397
0.031869061 0.098961823 0.95210958
0.035366379 0.099362686 0.95596629
0.038892146 0.099766806 0.9598543
0.042446718 0.10017425 0.96377432
0.046030447 0.10058504 0.96772659
0.049643688 0.10099923 0.9717114
-0.046259049 0.10451119 0.97253269
-0.04265606 0.10408078 0.96852756
-0.03908262 0.10365391 0.96455526
-0.035538379 0.10323053 0.96061546
-0.032022964 0.10281057 0.95670754
-0.028536042 0.10239404 0.95283145
-0.025077257 0.10198085 0.94898653
-0.021646274 0.10157098 0.94517249
-0.018251436 0.10121251 0.94183671
-0.014932903 0.10121189 0.94183099
-0.011614409 0.10121128 0.94182527
-0.0082959551 0.10121065 0.94181943
-0.0049775429 0.10121004 0.94181377
-0.001659171 0.10120942 0.94180804
0.0016591608 0.10120881 0.94180232
0.0049774521 0.1012082 0.94179654
0.0082957018 0.10120756 0.9417907
0.011613911 0.10120694 0.94178486
0.014932079 0.10120632 0.94177908
0.018250206 0.10120568 0.94177324
0.021573979 0.10123175 0.94201577
0.024992814 0.10163745 0.94579101
0.028439159 0.10204639 0.94959646
0.031913355 0.10245866 0.95343286
0.035415728 0.10287426 0.95730019
0.038946632 0.10329324 0.96119905
0.042506419 0.10371567 0.96512991
0.046095446 0.10414156 0.96909314
0.049714085 0.10457101 0.97308934
-0.046324506 0.10809052 0.97390884
-0.042716168 0.10764474 0.96989238
-0.039137471 0.10720264 0.96590894
-0.035588045 0.10676413 0.96195793
-0.032067541 0.10632922 0.95803928
-0.028575603 0.10589782 0.95415241
-0.02511188 0.1054699 0.95029676
-0.021676041 0.10504543 0.94647223
-0.018275894 0.10467103 0.94309884
-0.014952912 0.10467038 0.943093
-0.011629972 0.10466975 0.94308728
-0.0083070723 0.10466911 0.94308156
-0.004984213 0.10466848 0.94307584
-0.0016613941 0.10466783 0.94306999
0.001661384 0.10466719 0.94306427
0.0049841218 0.10466656 0.94305855
0.008306819 0.10466592 0.94305277
0.011629474 0.10466527 0.94304693
0.014952089 0.10466462 0.94304109
0.018274661 0.10466398 0.94303524
0.021603646 0.10469459 0.9433111
0.025027316 0.10511473 0.94709659
0.02847858 0.10553826 0.95091271
0.031957764 0.10596522 0.95475966
0.035465214 0.10639565 0.95863783
0.039001279 0.10682959 0.96254772
0.042566299 0.10726707 0.96648949
0.046160646 0.10770817 0.97046387
0.049784675 0.10815291 0.97447103
-0.046390153 0.11167999 0.97528893
-0.042776447 0.11121877 0.97126102
-0.039192472 0.11076134 0.96726638
-0.035637852 0.11030764 0.96330428
-0.032112237 0.10985766 0.95937467
-0.028615272 0.10941133 0.95547694
-0.025146605 0.10896862 0.9516108
-0.02170589 0.10852945 0.94777554
-0.018300418 0.10813883 0.94436431
-0.014972978 0.10813817 0.94435859
-0.011645579 0.10813752 0.94435287
-0.0083182193 0.10813685 0.94434702
-0.0049909009 0.10813618 0.94434124
-0.0016636236 0.10813553 0.94433552
0.0016636135 0.10813487 0.9443298
0.0049908091 0.1081342 0.9443239
0.0083179651 0.10813355 0.94431818
0.011645079 0.10813288 0.94431233
0.014972154 0.10813222 0.94430661
0.018299187 0.10813155 0.94430077
0.02163339 0.10816695 0.94460988
0.025061917 0.10860164 0.94840598
0.028518109 0.10903982 0.9522326
0.0320023 0.10948155 0.95609015
0.035514843 0.10992689 0.9599793
0.039056074 0.11037586 0.96390003
0.042626355 0.11082852 0.96785307
0.046226032 0.11128489 0.97183853
0.049855478 0.11174504 0.97585696
-0.039247628 0.11433005 0.96862763
-0.0356878 0.11386108 0.96465445
-0.032157063 0.11339596 0.9607138
-0.028655052 0.11293462 0.95680523
-0.025181418 0.112477 0.95292825
-0.021735825 0.11202309 0.94908261
-0.018325008 0.11161596 0.94563329
-0.014993098 0.11161529 0.94562757
-0.011661226 0.11161458 0.94562167
-0.0083293961 0.11161391 0.94561595
-0.0049976073 0.11161323 0.94561017
-0.0016658588 0.11161254 0.94560432
0.0016658487 0.11161186 0.94559854
0.0049975156 0.11161118 0.94559282
0.0083291419 0.1116105 0.94558704
0.011660727 0.11160982 0.94558126
0.014992271 0.11160913 0.94557542
0.018323774 0.11160844 0.94556957
0.021663219 0.11164889 0.94591236
0.025096608 0.11209819 0.94971883
0.028557744 0.11255111 0.95355606
0.032046963 0.11300772 0.95742452
0.035564605 0.11346803 0.96132439
0.039111026 0.11393212 0.96525627
0.04268657 0.11440001 0.96922034
-0.032202013 0.11694415 0.9620567
-0.028694943 0.11646771 0.95813721
-0.025216332 0.11599512 0.95424944
-0.021765837 0.11552637 0.95039314
-0.018349662 0.11510243 0.94690555
-0.015013269 0.11510172 0.94689977
-0.011676916 0.11510103 0.94689405
-0.0083406037 0.11510033 0.94688827
-0.005004331 0.11509961 0.94688237
-0.0016681001 0.11509891 0.94687659
0.00166809 0.11509822 0.94687086
0.0050042388 0.11509749 0.94686496
0.0083403476 0.11509679 0.94685918
0.011676415 0.11509609 0.9468534
0.015012442 0.11509538 0.94684762
0.018348427 0.11509468 0.94684178
0.021693127 0.11514045 0.9472183
0.025131397 0.11560443 0.95103532
0.028597495 0.11607218 0.95488334
0.032091748 0.11654372 0.95876253
-0.02525134 0.11952301 0.95557427
-0.021795934 0.11903933 0.9517073
-0.018374387 0.11859831 0.94818139
-0.015033497 0.11859759 0.94817561
-0.011692649 0.11859687 0.94816983
-0.0083518401 0.11859613 0.94816393
-0.0050110733 0.11859541 0.94815814
-0.0016703476 0.11859468 0.94815236
0.0016703372 0.11859394 0.9481464
0.0050109811 0.11859322 0.94814062
0.008351584 0.11859249 0.94813484
0.011692145 0.11859176 0.94812894
0.015032666 0.11859103 0.94812316
0.018373147 0.11859031 0.94811738
0.02172312 0.11864165 0.94852787
0.025166288 0.11912043 0.95235562
