# .PCD v0.7 - Point Cloud Data file format
VERSION 0.7
FIELDS x y z
SIZE 4 4 4
TYPE F F F
COUNT 1 1 1
WIDTH 479
HEIGHT 1
VIEWPOINT 0 0 0 1 0 0 0
POINTS 479
DATA ascii
0.017944308 -0.2896724 1.4551238
0.023095483 -0.2899766 1.4566519
0.028257491 -0.2902815 1.4581835
0.033430364 -0.29058701 1.4597181
0.0075515071 -0.27940577 1.4288402
0.012594359 -0.27959478 1.4298067
0.017650312 -0.27988353 1.4312834
0.022716701 -0.28017265 1.4327619
0.027793569 -0.28046238 1.4342436
0.032880947 -0.28075269 1.4357282
0.037978873 -0.28104365 1.437216
0.043087367 -0.28133515 1.4387068
0.048206475 -0.2816273 1.4402008
0.053336225 -0.28192005 1.4416978
0.058476653 -0.28221342 1.4431981
0.063627787 -0.28250736 1.4447013
0.068789661 -0.28280196 1.4462078
0.073962308 -0.28309712 1.4477172
0.0075379885 -0.27388024 1.4262823
0.012552653 -0.27364781 1.4250718
0.017558813 -0.2734158 1.4238635
0.022556491 -0.27318415 1.4226573
0.027545707 -0.27295291 1.421453
0.032526486 -0.27272207 1.4202508
0.037498843 -0.2724916 1.4190506
0.042462807 -0.27226153 1.4178525
0.047423553 -0.27206144 1.4168104
0.052469153 -0.27233991 1.4182606
0.057525102 -0.27261895 1.4197139
0.062591419 -0.27289858 1.42117
0.067668132 -0.27317876 1.4226291
0.072755285 -0.27345952 1.4240912
0.077852912 -0.27374086 1.4255564
0.082961023 -0.27402279 1.4270245
0.088079676 -0.27430528 1.4284956
0.094004519 -0.27693224 1.442176
0.0025103013 -0.26860225 1.4249418
0.0075245188 -0.2683745 1.4237336
0.012530241 -0.26814717 1.4225276
0.017527491 -0.2679202 1.4213235
0.022516286 -0.26769364 1.4201216
0.027496651 -0.26746741 1.4189215
0.03246861 -0.26724163 1.4177237
0.037432175 -0.2670162 1.4165277
0.042387377 -0.26679114 1.4153339
0.047334231 -0.26656646 1.4141419
0.052272763 -0.26634216 1.4129521
0.057202987 -0.26611826 1.4117641
0.062124934 -0.26589471 1.4105783
0.067038618 -0.26567155 1.4093944
0.071944058 -0.26544875 1.4082124
0.076841272 -0.26522633 1.4070325
0.081966355 -0.26576972 1.4099151
0.088021562 -0.2690945 1.4275532
0.094229862 -0.27250257 1.4456332
0.0025058198 -0.26311108 1.4223979
0.007511097 -0.2628884 1.4211941
0.01250791 -0.26266611 1.4199923
0.017496277 -0.26244417 1.4187925
0.022476224 -0.26222262 1.4175948
0.027447773 -0.26200145 1.4163992
0.032410938 -0.26178065 1.4152055
0.037365746 -0.26156023 1.4140139
0.042312216 -0.26134017 1.4128242
0.047250371 -0.26112047 1.4116365
0.052180231 -0.26090115 1.4104508
0.057101812 -0.26068217 1.4092671
0.062015139 -0.2604636 1.4080853
0.066920243 -0.26024538 1.4069058
0.071817137 -0.26002756 1.4057282
0.076705843 -0.25981012 1.4045526
0.082158692 -0.26141402 1.4132235
0.088230707 -0.26469213 1.4309452
0.0944563 -0.26805165 1.4491071
0.0025013543 -0.2576395 1.4198631
0.0074977227 -0.25742182 1.4186635
0.012485657 -0.25720453 1.417466
0.017465176 -0.2569876 1.4162705
0.022436308 -0.25677109 1.4150772
0.027399065 -0.25655487 1.4138857
0.032353472 -0.25633904 1.4126962
0.037299551 -0.25612357 1.4115088
0.042237323 -0.25590849 1.4103234
0.047166802 -0.25569373 1.4091399
0.052088026 -0.25547937 1.4079585
0.057001002 -0.25526536 1.4067792
0.061905757 -0.2550517 1.4056017
0.066802308 -0.25483844 1.4044263
0.071690671 -0.2546255 1.4032528
0.076570883 -0.25441292 1.4020814
0.082351938 -0.25703788 1.4165475
0.088440843 -0.26026875 1.4343531
0.094683819 -0.26357928 1.4525975
-0.0024990139 -0.2524004 1.4185346
0.0024969047 -0.25218737 1.4173373
0.0074843965 -0.25197467 1.416142
0.012463484 -0.25176239 1.4149488
0.017434189 -0.25155044 1.4137577
0.022396531 -0.25133884 1.4125684
0.027350528 -0.25112757 1.4113811
0.032296211 -0.25091672 1.4101961
0.037233591 -0.2507062 1.4090128
0.042162698 -0.25049603 1.4078317
0.047083545 -0.25028622 1.4066525
0.05199616 -0.25007677 1.4054754
0.056900561 -0.24986768 1.4043002
0.061796755 -0.2496589 1.4031268
0.06668479 -0.24945049 1.4019556
0.071564652 -0.24924242 1.4007862
0.076590739 -0.24953757 1.402445
0.0825461 -0.25264108 1.4198873
0.088651977 -0.2558243 1.4377774
0.094912432 -0.2590853 1.4561049
0.10133367 -0.26242822 1.4748927
-0.0024945727 -0.2469627 1.4160136
0.0024924709 -0.24675462 1.4148206
0.0074711181 -0.24654689 1.4136295
0.01244139 -0.24633953 1.4124405
0.01740331 -0.24613254 1.4112537
0.022356898 -0.24592587 1.4100688
0.027302172 -0.24571954 1.4088857
0.032239161 -0.2455136 1.4077049
0.037167877 -0.24530798 1.406526
0.042088341 -0.2451027 1.4053489
0.047000583 -0.24489778 1.404174
0.051904615 -0.24469317 1.4030008
0.056800462 -0.24448895 1.4018298
0.061688144 -0.24428505 1.4006608
0.066567674 -0.24408147 1.3994935
0.07143908 -0.24387823 1.3983282
0.076769464 -0.245167 1.4057176
0.082741171 -0.24822351 1.4232428
0.088864133 -0.25135854 1.4412181
0.095142171 -0.25456959 1.4596294
0.10158212 -0.2578623 1.4785088
-0.0024901475 -0.24154429 1.4135016
0.0024880532 -0.24134116 1.4123129
0.0074578882 -0.24113838 1.4111263
0.012419378 -0.24093594 1.4099416
0.017372545 -0.24073383 1.4087589
0.022317408 -0.24053207 1.4075781
0.027253987 -0.24033062 1.4063993
0.03218231 -0.24012956 1.4052227
0.03710239 -0.2399288 1.4040478
0.042014249 -0.23972838 1.4028749
0.046917912 -0.23952828 1.4017041
0.051813394 -0.23932853 1.4005351
0.056700725 -0.23912914 1.3993683
0.061579905 -0.23893003 1.3982031
0.066450976 -0.23873128 1.39704
0.07131394 -0.23853284 1.3958788
0.07694903 -0.240776 1.4090056
0.082937166 -0.24378501 1.4266142
0.089077309 -0.2468714 1.4446754
0.095373012 -0.25003195 1.4631709
0.10183248 -0.25327566 1.4821528
-0.0024930127 -0.23683621 1.4151281
0.0024898709 -0.23653774 1.4133447
0.0074602109 -0.23624001 1.4115658
0.012418055 -0.23594305 1.4097914
0.01736345 -0.23564681 1.4080213
0.022296442 -0.23535132 1.4062557
0.027217079 -0.23505659 1.4044946
0.032125663 -0.23476444 1.4027491
0.037037138 -0.23456854 1.4015784
0.041940421 -0.23437293 1.4004097
0.046835531 -0.23417765 1.3992429
0.051722489 -0.2339827 1.398078
0.056601327 -0.23378809 1.3969152
0.061472051 -0.23359379 1.3957542
0.06633468 -0.23339981 1.3945951
0.071271904 -0.23347692 1.3950559
0.077129439 -0.23636441 1.4123091
0.0831341 -0.23932545 1.4300016
0.089291491 -0.2423626 1.4481491
0.095604979 -0.24547224 1.4667295
-0.0024962106 -0.23214757 1.4169433
0.0024930609 -0.23185466 1.4151554
0.0074697575 -0.23156248 1.413372
0.012433925 -0.231271 1.411593
0.017385611 -0.23098026 1.4098184
0.022324864 -0.23069027 1.4080484
0.02725173 -0.23040099 1.4062828
0.032166254 -0.23011245 1.4045216
0.037068482 -0.2298246 1.4027647
0.041958466 -0.22953749 1.4010123
0.046836246 -0.22925109 1.3992642
0.051701866 -0.22896542 1.3975205
0.056555379 -0.22868045 1.3957812
0.061396826 -0.22839619 1.3940462
0.066226251 -0.22811264 1.3923155
0.071437344 -0.22909217 1.3982942
0.077310689 -0.23193207 1.415628
0.083331972 -0.23484464 1.4334052
0.089507267 -0.23783359 1.4516486
0.09583807 -0.24089028 1.4703056
-0.0024994167 -0.22744693 1.4187633
0.0024962586 -0.22715953 1.4169706
0.0074793268 -0.22687291 1.4151827
0.012449834 -0.226587 1.4133992
0.017407829 -0.22630179 1.4116201
0.022353357 -0.22601728 1.4098455
0.02728647 -0.22573352 1.4080755
0.032207206 -0.22545046 1.4063097
0.037115619 -0.22516809 1.4045484
0.042011756 -0.22488645 1.4027916
0.046895653 -0.2246055 1.4010391
0.051767368 -0.22432527 1.399291
0.056626931 -0.22404569 1.3975471
0.061474409 -0.22376685 1.3958077
0.066309862 -0.22348879 1.3940734
0.071603552 -0.22468701 1.4015476
0.077492803 -0.22747888 1.4189626
0.083530776 -0.23034245 1.4368249
0.089722328 -0.23327805 1.4551365
0.096072309 -0.23628594 1.4738991
-0.0025026309 -0.22273415 1.4205878
0.0024994649 -0.22245237 1.4187906
0.0074889208 -0.22217132 1.416998
0.012465784 -0.22189096 1.4152099
0.017430104 -0.22161132 1.4134264
0.022381926 -0.22133239 1.4116473
0.027321298 -0.22105412 1.4098727
0.032248262 -0.22077657 1.4081024
0.03716287 -0.22049971 1.4063365
0.042065173 -0.22022355 1.4045752
0.046955209 -0.21994808 1.4028183
0.051833022 -0.21967329 1.4010657
0.056698695 -0.2193993 1.3993182
0.061552249 -0.219126 1.3975751
0.066393718 -0.21885337 1.3958364
0.071770534 -0.22026131 1.404816
0.077675767 -0.22300462 1.4223129
0.083730541 -0.22581872 1.440261
0.089939348 -0.2287029 1.4586562
0.096307538 -0.23165868 1.4775079
-0.0075271069 -0.2182861 1.4242233
-0.0025058535 -0.21800926 1.422417
0.0025026794 -0.2177331 1.4206152
0.00749854 -0.21745767 1.4188181
0.012481775 -0.21718289 1.4170253
0.017452436 -0.21690884 1.4152373
0.022410566 -0.21663548 1.4134537
0.027356215 -0.21636279 1.4116745
0.032289427 -0.21609077 1.4098997
0.037210248 -0.21581945 1.4081295
0.042118732 -0.2155488 1.4063636
0.047014926 -0.21527886 1.4046024
0.051898893 -0.2150097 1.4028462
0.056770664 -0.21474122 1.4010944
0.061630275 -0.21447337 1.3993468
0.06647779 -0.2142062 1.3976038
0.071938299 -0.2158149 1.4080998
0.077859603 -0.2185092 1.425679
0.08393126 -0.22127332 1.4437137
0.090157412 -0.22410558 1.4621929
0.096545279 -0.22701187 1.4811553
0.002505902 -0.21300167 1.4224446
0.0075081838 -0.21273188 1.4206429
0.012497807 -0.21246272 1.4188454
0.017474823 -0.21219428 1.4170527
0.022439279 -0.21192652 1.4152646
0.02739122 -0.21165942 1.4134809
0.032330692 -0.21139298 1.4117016
0.037257746 -0.21112722 1.4099268
0.042172447 -0.21086223 1.4081572
0.047074828 -0.21059792 1.4063921
0.051964942 -0.21033429 1.4046315
0.056842815 -0.21007127 1.4028751
0.06170851 -0.20980893 1.4011232
0.066562071 -0.20954727 1.3993757
0.072106853 -0.21134767 1.411399
0.07804431 -0.21399246 1.4290612
0.084132947 -0.21670607 1.4471829
0.090376548 -0.21948591 1.4657469
0.096783705 -0.22234094 1.4848131
0.032372076 -0.20668326 1.4135087
0.037305396 -0.20642319 1.4117301
0.042226318 -0.20616379 1.409956
0.047134891 -0.20590505 1.4081864
0.052031148 -0.20564692 1.4064211
0.056915157 -0.20538947 1.4046605
0.061786942 -0.20513265 1.402904
0.066646568 -0.20487648 1.4011521
0.072275877 -0.20685855 1.4147074
0.078229897 -0.20945424 1.4324594
0.084335595 -0.21211681 1.4506687
0.090596758 -0.21484375 1.4693183
0.097023308 -0.21764688 1.4884889
0.032413587 -0.20196158 1.4153211
0.037353173 -0.20170712 1.413538
0.042280328 -0.20145333 1.4117594
0.047195103 -0.20120017 1.4099853
0.052097533 -0.20094763 1.4082155
0.056987677 -0.20069574 1.4064503
0.061865576 -0.20044446 1.4046894
0.066731274 -0.20019384 1.402933
0.072445981 -0.20234913 1.4180371
0.078416362 -0.20489436 1.4358737
0.084539235 -0.20750539 1.4541715
0.090818025 -0.21017887 1.4729068
0.097264104 -0.21292952 1.4921831
0.03245521 -0.19722781 1.4171386
0.037401069 -0.19697897 1.4153506
0.042334475 -0.19673081 1.4135674
0.047255464 -0.19648325 1.4117887
0.052164081 -0.19623631 1.4100144
0.057060387 -0.19599003 1.4082447
0.06194441 -0.19574434 1.4064794
0.066816203 -0.19549927 1.4047185
0.072616734 -0.19781801 1.4213793
0.07860373 -0.20031272 1.4393046
0.084743857 -0.20287167 1.4576913
0.091040395 -0.20549119 1.4765133
0.097506091 -0.20818868 1.4958956
0.03249694 -0.19248189 1.4189608
0.037449092 -0.19223866 1.4171678
0.04238876 -0.19199614 1.41538
0.047315985 -0.19175425 1.4135967
0.052230809 -0.19151297 1.411818
0.05713328 -0.19127229 1.4100437
0.062023446 -0.19103222 1.4082739
0.066933572 -0.19088463 1.407186
0.07278841 -0.19326578 1.4247396
0.078791983 -0.19570912 1.4427518
0.084950365 -0.19821751 1.4612434
0.091265179 -0.20078339 1.4801588
0.097749293 -0.2034242 1.4996266
0.032538783 -0.18772376 1.4207878
0.037497245 -0.18748622 1.41899
0.042443182 -0.18724935 1.4171972
0.047376659 -0.18701312 1.4154094
0.052297704 -0.18677752 1.4136262
0.057206359 -0.18654248 1.4118474
0.062102683 -0.18630804 1.410073
0.067090236 -0.18636176 1.4104795
0.072960906 -0.18869199 1.428116
0.078981146 -0.19108343 1.4462155
0.085156299 -0.19353704 1.4647857
0.09149041 -0.19605088 1.4838117
0.097993709 -0.19863589 1.5033764
0.03258073 -0.18295333 1.4226193
0.037545521 -0.18272154 1.420817
0.042497754 -0.18249035 1.4190193
0.047437489 -0.18225983 1.4172268
0.052364767 -0.1820299 1.4154389
0.057279624 -0.18180054 1.4136555
0.062182117 -0.18157178 1.4118767
0.067247629 -0.18181767 1.4137886
0.073134206 -0.18409646 1.4315082
0.079171225 -0.18643546 1.4496959
0.085362464 -0.18883212 1.4683321
0.091716766 -0.19129497 1.4874828
0.098239355 -0.19382359 1.507145
0.032622784 -0.17817059 1.4244556
0.037593924 -0.17794457 1.4226487
0.042552471 -0.17771915 1.4208463
0.047498479 -0.17749432 1.4190489
0.052432004 -0.1772701 1.4172564
0.057353083 -0.17704648 1.4154685
0.062261753 -0.17682338 1.4136848
0.06740576 -0.17725219 1.4171131
0.073308349 -0.17947906 1.4349167
0.079362117 -0.18176486 1.4531914
0.085570872 -0.18410702 1.4719168
0.09194424 -0.18651545 1.491172
0.027674766 -0.17359626 1.4281129
0.032664947 -0.17337549 1.4262967
0.037642457 -0.17315529 1.4244852
0.04260733 -0.17293563 1.4226781
0.04755963 -0.17271654 1.4208758
0.052499413 -0.17249808 1.4190785
0.057426725 -0.17228018 1.4172859
0.062341601 -0.17206281 1.4154978
0.067564636 -0.17266518 1.4204532
0.073483326 -0.17483963 1.4383416
0.079554148 -0.17707214 1.4567076
0.085780382 -0.17935897 1.4755206
0.092172839 -0.18171217 1.4948795
0.027710628 -0.16878292 1.4299635
0.032707222 -0.16856799 1.4281425
0.037691105 -0.1683536 1.4263263
0.042662326 -0.16813976 1.4245145
0.047620941 -0.16792648 1.4227076
0.052566998 -0.16771376 1.4209054
0.057500556 -0.16750161 1.419108
0.06242165 -0.16729002 1.4173154
0.067724265 -0.16805652 1.4238093
0.073659122 -0.17017798 1.4417827
0.080788538 -0.17460749 1.4793104
0.085992195 -0.17459022 1.4791641
0.092402577 -0.17688493 1.4986055
0.027746581 -0.16395706 1.4318187
0.032749604 -0.16374803 1.4299932
0.037739884 -0.1635395 1.4281722
0.042717475 -0.16333152 1.426356
0.047682416 -0.16312405 1.4245441
0.052634761 -0.16291712 1.422737
0.057574578 -0.16271076 1.4209349
0.062501907 -0.16250497 1.4191377
0.067884654 -0.16342601 1.4271811
0.073835775 -0.16549398 1.4452404
0.081020623 -0.16988195 1.4835601
0.086204305 -0.16979636 1.4828126
0.09263397 -0.17203452 1.5023582
0.027782626 -0.15911868 1.4336789
0.032792095 -0.15891553 1.4318485
0.037788793 -0.15871292 1.430023
0.042772759 -0.15851082 1.4282019
0.047744047 -0.15830921 1.4263854
0.052702706 -0.15810812 1.4245735
0.057648793 -0.15790756 1.4227666
0.062582374 -0.15770759 1.4209647
0.068045802 -0.15877354 1.4305691
0.074013337 -0.16078758 1.4487159
0.081116825 -0.16485032 1.4853216
0.086418651 -0.16498107 1.4864997
0.092865504 -0.1671579 1.5061133
0.027818769 -0.15426771 1.4355439
0.032834698 -0.15407051 1.4337088
0.037837822 -0.15387382 1.4318784
0.042828187 -0.15367761 1.4300526
0.047805838 -0.1534819 1.4282315
0.052770831 -0.1532867 1.426415
0.057723209 -0.15309198 1.4246031
0.062663049 -0.15289783 1.4227964
0.068207718 -0.15409893 1.4339732
0.074192926 -0.15606098 1.4522312
0.081113532 -0.15961049 1.4852613
0.086632349 -0.16013859 1.4901755
0.027922232 -0.14976469 1.4408829
0.032927569 -0.14944051 1.4377639
0.037911285 -0.14911772 1.4346584
0.042883761 -0.14883187 1.4319082
0.047867794 -0.14864209 1.4300824
0.05283913 -0.14845279 1.4282612
0.057797819 -0.14826398 1.4264445
0.062743925 -0.14807567 1.4246328
0.068370581 -0.14940238 1.4373971
0.074370563 -0.15130563 1.4557083
0.081001908 -0.15416491 1.4832174
0.086847112 -0.15527211 1.4938697
0.033158243 -0.14538614 1.4478362
0.038176294 -0.14506991 1.444687
0.043172564 -0.14475507 1.4415516
0.04814719 -0.14444157 1.4384296
0.053100321 -0.14412944 1.4353212
0.058032088 -0.14381865 1.4322262
0.062942669 -0.14350928 1.4291453
0.068533972 -0.14468284 1.4408323
0.074551664 -0.14653258 1.4592531
0.080727331 -0.14843413 1.4781897
0.087062947 -0.15038146 1.4975823
0.033392172 -0.14127459 1.4580506
0.038445033 -0.14096512 1.4548568
0.04347581 -0.14065704 1.4516771
0.048484642 -0.14035028 1.4485112
0.053471711 -0.14004496 1.4453601
0.058437183 -0.13974109 1.4422239
0.063381143 -0.13943852 1.4391012
0.068698578 -0.13994154 1.4442928
0.074732184 -0.14173345 1.4627864
0.080924638 -0.14357598 1.4818026
0.033629425 -0.13710457 1.46841
0.038717587 -0.13680214 1.4651709
0.043783378 -0.13650112 1.461947
0.04882697 -0.13620155 1.4587384
0.053848464 -0.13590327 1.4555439
0.058848027 -0.13560632 1.4523635
0.063825771 -0.13531063 1.4491967
0.068863973 -0.13517743 1.44777
0.074915245 -0.13691406 1.4663696
0.081124723 -0.1386971 1.4854662
0.049174208 -0.13199392 1.4691124
0.054230575 -0.13170283 1.4658724
0.059264686 -0.131413 1.4626466
0.064276688 -0.13112445 1.459435
0.069266737 -0.13083717 1.4562376
0.075098351 -0.13206951 1.4699538
